-2.070466361469312511e-01 -4.645144996377990054e+00 2.517909049818489962e+02
1.969937678530868652e-01 -4.645144996377990942e+00 2.517934436385490073e+02
6.010341719530937210e-01 -4.645144996377996272e+00 2.517959822951490025e+02
1.005074575953149418e+00 -4.645144996377997160e+00 2.517985209518490137e+02
1.409114979953172364e+00 -4.645144996378002489e+00 2.518010596085489965e+02
1.813155384053146690e+00 -4.645144996378009594e+00 2.518035982651489917e+02
2.217195788053105687e+00 -4.645144996378012259e+00 2.518061369218490029e+02
2.621236192153102884e+00 -4.645144996378017588e+00 2.518086755785490141e+02
3.025276596153068098e+00 -4.645144996378019364e+00 2.518112142351490093e+02
3.429317000153055961e+00 -4.645144996378011371e+00 2.518137528918489920e+02
3.833357404253034506e+00 -4.645144996377998936e+00 2.518162915485490032e+02
4.237397808252993947e+00 -4.645144996378006041e+00 2.518188302051489984e+02
4.641438212352923642e+00 -4.645144996378001601e+00 2.518213688618490096e+02
-1.419167848246996710e+00 -4.241104592277990193e+00 2.517826225078489983e+02
-1.015127444247026833e+00 -4.241104592277995522e+00 2.517851611644489935e+02
-6.110870402469723572e-01 -4.241104592277993746e+00 2.517876998211490047e+02
-2.070466361470078009e-01 -4.241104592278006180e+00 2.517902384778490159e+02
1.969937678530621628e-01 -4.241104592278008845e+00 2.517927771344490111e+02
6.010341719531160365e-01 -4.241104592278015950e+00 2.517953157911489939e+02
1.005074575953168070e+00 -4.241104592278019503e+00 2.517978544478490051e+02
1.409114979953155711e+00 -4.241104592278015062e+00 2.518003931044490002e+02
1.813155384053136032e+00 -4.241104592278019503e+00 2.518029317611490114e+02
2.217195788053106575e+00 -4.241104592278008845e+00 2.518054704178489942e+02
2.621236192153121980e+00 -4.241104592278005292e+00 2.518080090744490178e+02
3.025276596153078312e+00 -4.241104592277995522e+00 2.518105477311490006e+02
3.429317000153039530e+00 -4.241104592277997298e+00 2.518130863878490118e+02
3.833357404252947909e+00 -4.241104592277990193e+00 2.518156250444490070e+02
4.237397808252929998e+00 -4.241104592277994634e+00 2.518181637011490182e+02
4.641438212352898773e+00 -4.241104592277991081e+00 2.518207023578490009e+02
-1.419167848246980279e+00 -3.837064188277991672e+00 2.517819560037490021e+02
-1.015127444246996635e+00 -3.837064188277991672e+00 2.517844946604490133e+02
-6.110870402470006679e-01 -3.837064188277990784e+00 2.517870333171489960e+02
-2.070466361470307270e-01 -3.837064188277988119e+00 2.517895719737489912e+02
1.969937678529733172e-01 -3.837064188277989452e+00 2.517921106304490024e+02
6.010341719530392091e-01 -3.837064188277992116e+00 2.517946492871490136e+02
1.005074575953095017e+00 -3.837064188277994781e+00 2.517971879437490088e+02
1.409114979953087321e+00 -3.837064188277996113e+00 2.517997266004489916e+02
1.813155384053093178e+00 -3.837064188277996557e+00 2.518022652571490028e+02
2.217195788053099026e+00 -3.837064188277996557e+00 2.518048039138490140e+02
2.621236192153091338e+00 -3.837064188277997889e+00 2.518073425704490091e+02
3.025276596153055220e+00 -3.837064188277998333e+00 2.518098812271489919e+02
3.429317000152980910e+00 -3.837064188277996557e+00 2.518124198838490031e+02
3.833357404253018519e+00 -3.837064188277996557e+00 2.518149585404489983e+02
-1.823208252346969704e+00 -3.433023784177995363e+00 2.517787508431489982e+02
-1.419167848247041563e+00 -3.433023784177994919e+00 2.517812894997489934e+02
-1.015127444247074573e+00 -3.433023784177994919e+00 2.517838281564490046e+02
-6.110870402470596208e-01 -3.433023784177994919e+00 2.517863668131490158e+02
-2.070466361470934546e-01 -3.433023784177993587e+00 2.517889054697490110e+02
1.969937678529284364e-01 -3.433023784177994475e+00 2.517914441264489938e+02
6.010341719529628257e-01 -3.433023784177994919e+00 2.517939827831490049e+02
1.005074575953006644e+00 -3.433023784177994031e+00 2.517965214397490001e+02
1.409114979953002722e+00 -3.433023784177994475e+00 2.517990600964490113e+02
1.813155384053021679e+00 -3.433023784177995363e+00 2.518015987531489941e+02
2.217195788053052841e+00 -3.433023784177999804e+00 2.518041374097490177e+02
2.621236192153107769e+00 -3.433023784178000692e+00 2.518066760664490005e+02
3.025276596153078756e+00 -3.433023784178001137e+00 2.518092147231490117e+02
3.429317000153097261e+00 -3.433023784178002025e+00 2.518117533797490069e+02
-1.823208252346996128e+00 -3.028983380177998175e+00 2.517780843390490020e+02
-1.419167848246974950e+00 -3.028983380178005724e+00 2.517806229957490132e+02
-1.015127444246986643e+00 -3.028983380178006168e+00 2.517831616524489959e+02
-6.110870402470301999e-01 -3.028983380178000395e+00 2.517857003090489911e+02
-2.070466361470223726e-01 -3.028983380178000395e+00 2.517882389657490023e+02
1.969937678530095937e-01 -3.028983380177999951e+00 2.517907776224490135e+02
6.010341719530212234e-01 -3.028983380177999951e+00 2.517933162790490087e+02
1.005074575953028404e+00 -3.028983380177999951e+00 2.517958549357489915e+02
1.409114979952980518e+00 -3.028983380177999063e+00 2.517983935924490027e+02
1.813155384053012353e+00 -3.028983380178003060e+00 2.518009322490489978e+02
2.217195788053019534e+00 -3.028983380178007057e+00 2.518034709057490090e+02
2.621236192153074906e+00 -3.028983380178005724e+00 2.518060095624489918e+02
3.025276596153116060e+00 -3.028983380178004836e+00 2.518085482190490154e+02
3.429317000153117689e+00 -3.028983380178003948e+00 2.518110868757489982e+02
-1.823208252346944169e+00 -2.624942976177999654e+00 2.517774178350489933e+02
-1.419167848246980501e+00 -2.624942976178003651e+00 2.517799564917490045e+02
-1.015127444247007071e+00 -2.624942976178005427e+00 2.517824951483489997e+02
-6.110870402469777973e-01 -2.624942976178008092e+00 2.517850338050490109e+02
-2.070466361469776584e-01 -2.624942976178009424e+00 2.517875724617489936e+02
1.969937678530093716e-01 -2.624942976178012977e+00 2.517901111183490173e+02
6.010341719529975757e-01 -2.624942976178012977e+00 2.517926497750490000e+02
1.005074575952960902e+00 -2.624942976178012977e+00 2.517951884317490112e+02
1.409114979952977853e+00 -2.624942976178010756e+00 2.517977270883490064e+02
1.813155384052969943e+00 -2.624942976178010312e+00 2.518002657450490176e+02
2.217195788052987115e+00 -2.624942976178008092e+00 2.518028044017490004e+02
2.621236192152978983e+00 -2.624942976178008092e+00 2.518053430584490116e+02
3.025276596153039232e+00 -2.624942976178003207e+00 2.518078817150490067e+02
3.429317000153080830e+00 -2.624942976178002763e+00 2.518104203717490179e+02
-1.823208252346941061e+00 -2.220902572077994019e+00 2.517767513310490131e+02
-1.419167848246905450e+00 -2.220902572077996684e+00 2.517792899876490083e+02
-1.015127444246918698e+00 -2.220902572078005122e+00 2.517818286443489910e+02
-6.110870402469286145e-01 -2.220902572078006898e+00 2.517843673010490022e+02
-2.070466361469860406e-01 -2.220902572078011783e+00 2.517869059577490134e+02
1.969937678530259140e-01 -2.220902572078014447e+00 2.517894446143490086e+02
6.010341719529601612e-01 -2.220902572078013115e+00 2.517919832710489914e+02
1.005074575952930926e+00 -2.220902572078010895e+00 2.517945219277490025e+02
1.409114979952946989e+00 -2.220902572078007342e+00 2.517970605843489977e+02
1.813155384052947516e+00 -2.220902572078004678e+00 2.517995992410490089e+02
2.217195788053029748e+00 -2.220902572078004678e+00 2.518021378977489917e+02
2.621236192153029609e+00 -2.220902572077999348e+00 2.518046765543490153e+02
3.025276596153047226e+00 -2.220902572077998016e+00 2.518072152110489981e+02
3.429317000153035089e+00 -2.220902572077996684e+00 2.518097538677490093e+02
-1.823208252347000569e+00 -1.816862168078001050e+00 2.517760848270490044e+02
-1.419167848246993158e+00 -1.816862168078002826e+00 2.517786234836489996e+02
-1.015127444246977984e+00 -1.816862168078005713e+00 2.517811621403490108e+02
-6.110870402469865681e-01 -1.816862168078005935e+00 2.517837007970489935e+02
-2.070466361469661121e-01 -1.816862168078008155e+00 2.517862394536490172e+02
1.969937678529698477e-01 -1.816862168078008377e+00 2.517887781103489999e+02
6.010341719529582738e-01 -1.816862168078009487e+00 2.517913167670490111e+02
1.005074575952947358e+00 -1.816862168078010598e+00 2.517938554236490063e+02
1.409114979952980740e+00 -1.816862168078009265e+00 2.517963940803490175e+02
1.813155384052955288e+00 -1.816862168078004380e+00 2.517989327370490003e+02
2.217195788052971572e+00 -1.816862168078004380e+00 2.518014713936489954e+02
2.621236192153017175e+00 -1.816862168078001938e+00 2.518040100503490066e+02
3.025276596152951303e+00 -1.816862168078000828e+00 2.518065487070490178e+02
3.429317000153013328e+00 -1.816862168077997941e+00 2.518090873636490130e+02
-1.419167848246951635e+00 -1.412821763977988754e+00 2.517779569796489909e+02
-1.015127444246943123e+00 -1.412821763977987644e+00 2.517804956363490021e+02
-6.110870402469774643e-01 -1.412821763977988310e+00 2.517830342929489973e+02
-2.070466361469964489e-01 -1.412821763977985867e+00 2.517855729496490085e+02
1.969937678530261083e-01 -1.412821763977984535e+00 2.517881116063489912e+02
6.010341719529695981e-01 -1.412821763977983425e+00 2.517906502629490149e+02
1.005074575952947136e+00 -1.412821763977983647e+00 2.517931889196489976e+02
1.409114979952868829e+00 -1.412821763977985201e+00 2.517957275763490088e+02
1.813155384052857144e+00 -1.412821763977984313e+00 2.517982662329490040e+02
2.217195788052904071e+00 -1.412821763977985201e+00 2.518008048896490152e+02
2.621236192153005629e+00 -1.412821763977988088e+00 2.518033435463489980e+02
3.025276596152964181e+00 -1.412821763977986977e+00 2.518058822029489932e+02
3.429317000152991124e+00 -1.412821763977987199e+00 2.518084208596490043e+02
-1.823208252347046754e+00 -1.008781359977985126e+00 2.517747518189489995e+02
-1.419167848247034014e+00 -1.008781359977986014e+00 2.517772904756490107e+02
-1.015127444246991084e+00 -1.008781359977986680e+00 2.517798291322490059e+02
-6.110870402469509299e-01 -1.008781359977987790e+00 2.517823677889490170e+02
-2.070466361469510963e-01 -1.008781359977985792e+00 2.517849064456489998e+02
1.969937678530364056e-01 -1.008781359977986014e+00 2.517874451023490110e+02
6.010341719530175597e-01 -1.008781359977985126e+00 2.517899837589490062e+02
1.005074575952972005e+00 -1.008781359977984238e+00 2.517925224156490174e+02
1.409114979952887481e+00 -1.008781359977982905e+00 2.517950610723490001e+02
1.813155384052798968e+00 -1.008781359977981351e+00 2.517975997289489953e+02
2.217195788052788163e+00 -1.008781359977982239e+00 2.518001383856490065e+02
2.621236192152803568e+00 -1.008781359977981573e+00 2.518026770423490177e+02
3.025276596152868702e+00 -1.008781359977981351e+00 2.518052156989490129e+02
-1.823208252346959490e+00 -6.047409559779874932e-01 2.517740853149489908e+02
-1.419167848246968067e+00 -6.047409559779874932e-01 2.517766239716490020e+02
-1.015127444246959776e+00 -6.047409559779870492e-01 2.517791626282489972e+02
-6.110870402469674723e-01 -6.047409559779862720e-01 2.517817012849490084e+02
-2.070466361469547323e-01 -6.047409559779882704e-01 2.517842399416489911e+02
1.969937678530327418e-01 -6.047409559779880484e-01 2.517867785982490147e+02
6.010341719530327698e-01 -6.047409559779881594e-01 2.517893172549489975e+02
1.005074575952966232e+00 -6.047409559779864940e-01 2.517918559116490087e+02
1.409114979952912794e+00 -6.047409559779850508e-01 2.517943945682490039e+02
1.813155384052875130e+00 -6.047409559779836075e-01 2.517969332249490151e+02
2.217195788052904071e+00 -6.047409559779839405e-01 2.517994718816489979e+02
2.621236192152910593e+00 -6.047409559779837185e-01 2.518020105382489930e+02
3.025276596152914443e+00 -6.047409559779840516e-01 2.518045491949490042e+02
-1.823208252347131575e+00 -2.007005518779860498e-01 2.517734188109490105e+02
-1.419167848247124608e+00 -2.007005518779866327e-01 2.517759574675490057e+02
-1.015127444247079236e+00 -2.007005518779871878e-01 2.517784961242490169e+02
-6.110870402470087726e-01 -2.007005518779879927e-01 2.517810347809489997e+02
-2.070466361469671945e-01 -2.007005518779888253e-01 2.517835734375489949e+02
1.969937678530328251e-01 -2.007005518779886866e-01 2.517861120942490061e+02
6.010341719530342131e-01 -2.007005518779880759e-01 2.517886507509490173e+02
1.005074575952983329e+00 -2.007005518779866604e-01 2.517911894075490125e+02
1.409114979952911240e+00 -2.007005518779851894e-01 2.517937280642489952e+02
1.813155384052925534e+00 -2.007005518779862163e-01 2.517962667209490064e+02
2.217195788052960470e+00 -2.007005518779862163e-01 2.517988053775490016e+02
2.621236192152971878e+00 -2.007005518779858000e-01 2.518013440342490128e+02
3.025276596152994379e+00 -2.007005518779865494e-01 2.518038826909489956e+02
-1.823208252347094716e+00 2.033398521220124988e-01 2.517727523068490143e+02
-1.419167848247045338e+00 2.033398521220108057e-01 2.517752909635489971e+02
-1.015127444247035271e+00 2.033398521220101118e-01 2.517778296202490083e+02
-6.110870402470415241e-01 2.033398521220110833e-01 2.517803682768490035e+02
-2.070466361470235384e-01 2.033398521220108057e-01 2.517829069335490146e+02
1.969937678530031544e-01 2.033398521220098620e-01 2.517854455902489974e+02
6.010341719530204463e-01 2.033398521220095012e-01 2.517879842468489926e+02
1.005074575953008864e+00 2.033398521220095845e-01 2.517905229035490038e+02
1.409114979953010938e+00 2.033398521220097510e-01 2.517930615602490150e+02
1.813155384053051877e+00 2.033398521220096677e-01 2.517956002169489977e+02
2.217195788053089256e+00 2.033398521220095567e-01 2.517981388735489929e+02
2.621236192153039379e+00 2.033398521220108057e-01 2.518006775302490041e+02
3.025276596153006370e+00 2.033398521220117772e-01 2.518032161869490153e+02
3.429317000152960038e+00 2.033398521220124988e-01 2.518057548435490105e+02
-2.227248656346940692e+00 6.073802562220094181e-01 2.517695471462490104e+02
-1.823208252346977254e+00 6.073802562220099732e-01 2.517720858028490056e+02
-1.419167848246996044e+00 6.073802562220104173e-01 2.517746244595490168e+02
-1.015127444247031496e+00 6.073802562220111945e-01 2.517771631162489996e+02
-6.110870402470620633e-01 6.073802562220129708e-01 2.517797017728489948e+02
-2.070466361471184902e-01 6.073802562220141921e-01 2.517822404295490060e+02
1.969937678529536662e-01 6.073802562220123047e-01 2.517847790862490172e+02
6.010341719529976867e-01 6.073802562220105283e-01 2.517873177428490123e+02
1.005074575953008864e+00 6.073802562220101953e-01 2.517898563995489951e+02
1.409114979953050240e+00 6.073802562220089740e-01 2.517923950562490063e+02
1.813155384052985486e+00 6.073802562220093071e-01 2.517949337128490015e+02
2.217195788053032413e+00 6.073802562220086410e-01 2.517974723695490127e+02
2.621236192153045597e+00 6.073802562220083079e-01 2.518000110262489954e+02
3.025276596152985942e+00 6.073802562220096402e-01 2.518025496828489906e+02
-2.227248656346851874e+00 1.011420660222007717e+00 2.517688806421490142e+02
-1.823208252346915526e+00 1.011420660222011270e+00 2.517714192988489970e+02
-1.419167848246982055e+00 1.011420660222011048e+00 2.517739579555490081e+02
-1.015127444247022170e+00 1.011420660222013490e+00 2.517764966121490033e+02
-6.110870402471179075e-01 1.011420660222016599e+00 2.517790352688490145e+02
-2.070466361471240690e-01 1.011420660222015711e+00 2.517815739255489973e+02
1.969937678529395109e-01 1.011420660222013268e+00 2.517841125821489925e+02
6.010341719529583848e-01 1.011420660222012824e+00 2.517866512388490037e+02
1.005074575953026628e+00 1.011420660222011936e+00 2.517891898955490149e+02
1.409114979953056235e+00 1.011420660222012158e+00 2.517917285521490101e+02
1.813155384053057206e+00 1.011420660222011714e+00 2.517942672088489928e+02
2.217195788053116345e+00 1.011420660222011936e+00 2.517968058655490040e+02
2.621236192153057587e+00 1.011420660222011714e+00 2.517993445221489992e+02
3.025276596153063213e+00 1.011420660222010159e+00 2.518018831788490104e+02
-2.227248656346925593e+00 1.415461064222014675e+00 2.517682141381490055e+02
-1.823208252346933289e+00 1.415461064222014675e+00 2.517707527948490167e+02
-1.419167848246987162e+00 1.415461064222017118e+00 2.517732914514490119e+02
-1.015127444246981758e+00 1.415461064222015120e+00 2.517758301081489947e+02
-6.110870402469877893e-01 1.415461064222013787e+00 2.517783687648490059e+02
-2.070466361470142402e-01 1.415461064222012233e+00 2.517809074214490010e+02
1.969937678530163661e-01 1.415461064222011123e+00 2.517834460781490122e+02
6.010341719530077897e-01 1.415461064222011123e+00 2.517859847348489950e+02
1.005074575953001537e+00 1.415461064222010457e+00 2.517885233914490186e+02
1.409114979952984070e+00 1.415461064222013121e+00 2.517910620481490014e+02
1.813155384052963059e+00 1.415461064222013787e+00 2.517936007048490126e+02
2.217195788053011540e+00 1.415461064222014897e+00 2.517961393615489953e+02
2.621236192153058475e+00 1.415461064222017562e+00 2.517986780181489905e+02
3.025276596153105402e+00 1.415461064222018228e+00 2.518012166748490017e+02
-1.823208252346951497e+00 1.819501468322011206e+00 2.517700862907489920e+02
-1.419167848246970065e+00 1.819501468322016535e+00 2.517726249474490032e+02
-1.015127444246973987e+00 1.819501468322015869e+00 2.517751636041490144e+02
-6.110870402470131024e-01 1.819501468322016757e+00 2.517777022608489972e+02
-2.070466361470081340e-01 1.819501468322014093e+00 2.517802409174489924e+02
1.969937678529768421e-01 1.819501468322015647e+00 2.517827795741490036e+02
6.010341719530313265e-01 1.819501468322017423e+00 2.517853182308490148e+02
1.005074575953015747e+00 1.819501468322018756e+00 2.517878568874490099e+02
1.409114979953011382e+00 1.819501468322022308e+00 2.517903955441489927e+02
1.813155384053034336e+00 1.819501468322018978e+00 2.517929342008490039e+02
2.217195788053079042e+00 1.819501468322018090e+00 2.517954728574489991e+02
2.621236192153080680e+00 1.819501468322016091e+00 2.517980115141490103e+02
3.025276596153103181e+00 1.819501468322016091e+00 2.518005501708489930e+02
-1.823208252346942393e+00 2.223541872322021717e+00 2.517694197867490118e+02
-1.419167848246849939e+00 2.223541872322021273e+00 2.517719584434489946e+02
-1.015127444246895605e+00 2.223541872322021717e+00 2.517744971001490057e+02
-6.110870402468771001e-01 2.223541872322017721e+00 2.517770357567490009e+02
-2.070466361468550065e-01 2.223541872322015056e+00 2.517795744134490121e+02
1.969937678530674363e-01 2.223541872322017277e+00 2.517821130701489949e+02
6.010341719530084559e-01 2.223541872322019053e+00 2.517846517267490185e+02
1.005074575952955573e+00 2.223541872322017721e+00 2.517871903834490013e+02
1.409114979952922120e+00 2.223541872322022162e+00 2.517897290401490125e+02
1.813155384052959729e+00 2.223541872322022162e+00 2.517922676967490077e+02
2.217195788053017758e+00 2.223541872322020829e+00 2.517948063534490188e+02
2.621236192153110878e+00 2.223541872322019497e+00 2.517973450101490016e+02
3.025276596153065878e+00 2.223541872322022162e+00 2.517998836667489968e+02
-1.823208252346927294e+00 2.627582276422026908e+00 2.517687532827490031e+02
-1.419167848246920105e+00 2.627582276422026464e+00 2.517712919394490143e+02
-1.015127444246910260e+00 2.627582276422028684e+00 2.517738305960490095e+02
-6.110870402469453788e-01 2.627582276422028240e+00 2.517763692527489923e+02
-2.070466361469604499e-01 2.627582276422029572e+00 2.517789079094490035e+02
1.969937678530062908e-01 2.627582276422025576e+00 2.517814465660489986e+02
6.010341719529961324e-01 2.627582276422026020e+00 2.517839852227490098e+02
1.005074575953026850e+00 2.627582276422024243e+00 2.517865238794489926e+02
1.409114979952967861e+00 2.627582276422026908e+00 2.517890625360490162e+02
1.813155384053014796e+00 2.627582276422027796e+00 2.517916011927489990e+02
2.217195788053017758e+00 2.627582276422027352e+00 2.517941398494490102e+02
2.621236192153106437e+00 2.627582276422024687e+00 2.517966785060490054e+02
3.025276596153108510e+00 2.627582276422022023e+00 2.517992171627490166e+02
-1.823208252346942615e+00 3.031622680422023652e+00 2.517680867787489944e+02
-1.419167848246886798e+00 3.031622680422020544e+00 2.517706254353490181e+02
-1.015127444246868071e+00 3.031622680422020100e+00 2.517731640920490008e+02
-6.110870402468474571e-01 3.031622680422018323e+00 2.517757027487490120e+02
-2.070466361468998595e-01 3.031622680422017879e+00 2.517782414054489948e+02
1.969937678530032377e-01 3.031622680422017435e+00 2.517807800620490184e+02
6.010341719529344040e-01 3.031622680422016547e+00 2.517833187187490012e+02
1.005074575952982219e+00 3.031622680422016103e+00 2.517858573754490124e+02
1.409114979952958091e+00 3.031622680422014326e+00 2.517883960320490075e+02
1.813155384052993035e+00 3.031622680422017435e+00 2.517909346887490187e+02
2.217195788053032857e+00 3.031622680422017879e+00 2.517934733454490015e+02
2.621236192153075351e+00 3.031622680422020544e+00 2.517960120020489967e+02
3.025276596153098296e+00 3.031622680422018323e+00 2.517985506587490079e+02
-2.227248656347110778e+00 3.435663084422013736e+00 2.517648816180490030e+02
-1.823208252347100711e+00 3.435663084422016844e+00 2.517674202747490142e+02
-1.419167848247057107e+00 3.435663084422013291e+00 2.517699589313490094e+02
-1.015127444247100330e+00 3.435663084422012403e+00 2.517724975880489922e+02
-6.110870402470736096e-01 3.435663084422012847e+00 2.517750362447490033e+02
-2.070466361470194583e-01 3.435663084422011071e+00 2.517775749013489985e+02
1.969937678530417069e-01 3.435663084422008851e+00 2.517801135580490097e+02
6.010341719530595261e-01 3.435663084422010183e+00 2.517826522147489925e+02
1.005074575953066596e+00 3.435663084422010183e+00 2.517851908713490161e+02
1.409114979953044022e+00 3.435663084422014624e+00 2.517877295280489989e+02
1.813155384052994812e+00 3.435663084422015512e+00 2.517902681847490101e+02
2.217195788052966687e+00 3.435663084422015068e+00 2.517928068413490053e+02
2.621236192153002076e+00 3.435663084422017732e+00 2.517953454980490164e+02
-1.823208252347030101e+00 3.839703488521992725e+00 2.517667537706490180e+02
-1.419167848247000263e+00 3.839703488521983843e+00 2.517692924273490007e+02
-1.015127444247026611e+00 3.839703488521987396e+00 2.517718310840490119e+02
-6.110870402469862350e-01 3.839703488521984287e+00 2.517743697406490071e+02
-2.070466361470201244e-01 3.839703488521978958e+00 2.517769083973490183e+02
1.969937678529914971e-01 3.839703488521979846e+00 2.517794470540490011e+02
6.010341719530156723e-01 3.839703488521980734e+00 2.517819857106489962e+02
1.005074575953019078e+00 3.839703488521977626e+00 2.517845243673490074e+02
1.409114979952963198e+00 3.839703488521978514e+00 2.517870630240490186e+02
1.813155384052963504e+00 3.839703488521970520e+00 2.517896016806490138e+02
2.217195788053024863e+00 3.839703488521971853e+00 2.517921403373489966e+02
2.621236192153028721e+00 3.839703488521979402e+00 2.517946789940490078e+02
-2.227248656347081024e+00 4.243743892521986361e+00 2.517635486099489981e+02
-1.823208252347068070e+00 4.243743892521982808e+00 2.517660872666490093e+02
-1.419167848247100183e+00 4.243743892521973926e+00 2.517686259233489920e+02
-1.015127444247102328e+00 4.243743892521970373e+00 2.517711645799490157e+02
-6.110870402470517382e-01 4.243743892521966821e+00 2.517737032366489984e+02
-2.070466361469958660e-01 4.243743892521972150e+00 2.517762418933490096e+02
1.969937678530837288e-01 4.243743892521973926e+00 2.517787805499490048e+02
6.010341719530928328e-01 4.243743892521975702e+00 2.517813192066490160e+02
1.005074575953115446e+00 4.243743892521977479e+00 2.517838578633489988e+02
1.409114979953050462e+00 4.243743892521974814e+00 2.517863965200490100e+02
1.813155384052976382e+00 4.243743892521966821e+00 2.517889351766490051e+02
2.217195788052993333e+00 4.243743892521961492e+00 2.517914738333490163e+02
2.621236192153073130e+00 4.243743892521966821e+00 2.517940124900489991e+02
-1.823208252347078062e+00 4.647784296621979117e+00 2.517654207626490006e+02
-1.419167848247086194e+00 4.647784296621984446e+00 2.517679594193490118e+02
-1.015127444247015953e+00 4.647784296621989775e+00 2.517704980759490070e+02
-6.110870402470517382e-01 4.647784296621990663e+00 2.517730367326490182e+02
-2.070466361471100247e-01 4.647784296621994216e+00 2.517755753893490009e+02
1.969937678528933256e-01 4.647784296621985334e+00 2.517781140459489961e+02
6.010341719529336268e-01 4.647784296621980005e+00 2.517806527026490073e+02
1.005074575952990212e+00 4.647784296621984446e+00 2.517831913593490185e+02
1.409114979953014712e+00 4.647784296621975564e+00 2.517857300159490137e+02
1.813155384053103170e+00 4.647784296621973787e+00 2.517882686726489965e+02
2.217195788053149208e+00 4.647784296621973787e+00 2.517908073293490077e+02
2.621236192153113986e+00 4.647784296621973787e+00 2.517933459859490029e+02
-2.227248656347029510e+00 5.051824700621982522e+00 2.517622156019490092e+02
-1.823208252347041425e+00 5.051824700621981634e+00 2.517647542586489919e+02
-1.419167848247053776e+00 5.051824700621986963e+00 2.517672929152490156e+02
-1.015127444247047483e+00 5.051824700621986075e+00 2.517698315719489983e+02
-6.110870402470800489e-01 5.051824700621984299e+00 2.517723702286490095e+02
-2.070466361470540417e-01 5.051824700621974529e+00 2.517749088852490047e+02
1.969937678529952996e-01 5.051824700621974529e+00 2.517774475419490159e+02
6.010341719529921356e-01 5.051824700621972752e+00 2.517799861986489987e+02
1.005074575953041505e+00 5.051824700621973641e+00 2.517825248552489938e+02
1.409114979952999391e+00 5.051824700621971864e+00 2.517850635119490050e+02
1.813155384053023012e+00 5.051824700621970088e+00 2.517876021686490162e+02
2.217195788053060834e+00 5.051824700621972752e+00 2.517901408252490114e+02
2.621236192153165501e+00 5.051824700621973641e+00 2.517926794819489942e+02
3.025276596153179565e+00 5.051824700621971864e+00 2.517952181386490054e+02
3.429317000153169204e+00 5.051824700621977193e+00 2.517977567952490006e+02
3.833357404253177503e+00 5.051824700621962982e+00 2.518002954519490117e+02
4.237397808253168030e+00 5.051824700621966535e+00 2.518028341086489945e+02
4.641438212353166115e+00 5.051824700621960318e+00 2.518053727652490181e+02
-2.227248656346993094e+00 5.455865104621979711e+00 2.517615490979490005e+02
-1.823208252347055636e+00 5.455865104621974382e+00 2.517640877545489957e+02
-1.419167848247061325e+00 5.455865104621977046e+00 2.517666264112490069e+02
-1.015127444247118316e+00 5.455865104621975270e+00 2.517691650679490181e+02
-6.110870402470953699e-01 5.455865104621972606e+00 2.517717037245490133e+02
-2.070466361470745253e-01 5.455865104621968165e+00 2.517742423812489960e+02
1.969937678529563307e-01 5.455865104621972606e+00 2.517767810379490072e+02
6.010341719529684879e-01 5.455865104621968165e+00 2.517793196945490024e+02
1.005074575952987992e+00 5.455865104621969053e+00 2.517818583512490136e+02
1.409114979953007607e+00 5.455865104621966388e+00 2.517843970079489964e+02
1.813155384053013908e+00 5.455865104621960171e+00 2.517869356646490075e+02
2.217195788053090588e+00 5.455865104621959283e+00 2.517894743212490027e+02
2.621236192153184597e+00 5.455865104621955730e+00 2.517920129779490139e+02
3.025276596153222641e+00 5.455865104621954842e+00 2.517945516346489967e+02
3.429317000153209172e+00 5.455865104621968165e+00 2.517970902912489919e+02
3.833357404253168621e+00 5.455865104621965500e+00 2.517996289479490031e+02
4.237397808253180465e+00 5.455865104621968165e+00 2.518021676046490143e+02
4.641438212353206083e+00 5.455865104621972606e+00 2.518047062612490095e+02
-2.227248656347013966e+00 5.859905508721978684e+00 2.517608825938490043e+02
-1.823208252347049640e+00 5.859905508721976908e+00 2.517634212505490154e+02
-1.419167848247065544e+00 5.859905508721970691e+00 2.517659599072489982e+02
-1.015127444247099220e+00 5.859905508721963585e+00 2.517684985639490094e+02
-6.110870402471025864e-01 5.859905508721959144e+00 2.517710372205490046e+02
-2.070466361470591488e-01 5.859905508721963585e+00 2.517735758772490158e+02
1.969937678529817826e-01 5.859905508721960032e+00 2.517761145339489985e+02
6.010341719529658233e-01 5.859905508721955592e+00 2.517786531905489937e+02
1.005074575952978000e+00 5.859905508721951151e+00 2.517811918472490049e+02
1.409114979952989177e+00 5.859905508721948486e+00 2.517837305039490161e+02
1.813155384053022123e+00 5.859905508721947598e+00 2.517862691605490113e+02
2.217195788053079042e+00 5.859905508721950262e+00 2.517888078172489941e+02
2.621236192153104216e+00 5.859905508721954703e+00 2.517913464739490053e+02
3.025276596153168907e+00 5.859905508721960921e+00 2.517938851305490005e+02
3.429317000153196737e+00 5.859905508721967138e+00 2.517964237872490116e+02
3.833357404253203260e+00 5.859905508721968914e+00 2.517989624439489944e+02
4.237397808253184905e+00 5.859905508721969802e+00 2.518015011005490180e+02
4.641438212353205195e+00 5.859905508721973355e+00 2.518040397572490008e+02
-1.419167848247045116e+00 6.263945912721957221e+00 2.517652934032490180e+02
-1.015127444247045263e+00 6.263945912721956333e+00 2.517678320598490131e+02
-6.110870402470292007e-01 6.263945912721960774e+00 2.517703707165489959e+02
-2.070466361470306715e-01 6.263945912721959886e+00 2.517729093732490071e+02
1.969937678529817549e-01 6.263945912721961662e+00 2.517754480298490023e+02
6.010341719529986859e-01 6.263945912721956333e+00 2.517779866865490135e+02
1.005074575953001759e+00 6.263945912721951004e+00 2.517805253432489963e+02
1.409114979952972302e+00 6.263945912721953668e+00 2.517830639998489914e+02
1.813155384052952401e+00 6.263945912721957221e+00 2.517856026565490026e+02
2.217195788053041294e+00 6.263945912721958997e+00 2.517881413132490138e+02
2.621236192153076683e+00 6.263945912721956333e+00 2.517906799698490090e+02
3.025276596153148034e+00 6.263945912721958997e+00 2.517932186265489918e+02
3.429317000153197181e+00 6.263945912721961662e+00 2.517957572832490030e+02
3.833357404253174838e+00 6.263945912721972320e+00 2.517982959398489982e+02
4.237397808253179576e+00 6.263945912721974985e+00 2.518008345965490093e+02
4.641438212353195425e+00 6.263945912721978537e+00 2.518033732532489921e+02
-1.419167848247021579e+00 6.667986316821970405e+00 2.517646268991489933e+02
-1.015127444246979982e+00 6.667986316821960635e+00 2.517671655558490045e+02
-6.110870402469877893e-01 6.667986316821960635e+00 2.517697042125490157e+02
-2.070466361469833760e-01 6.667986316821956194e+00 2.517722428691490109e+02
1.969937678530473690e-01 6.667986316821961523e+00 2.517747815258489936e+02
6.010341719529816995e-01 6.667986316821961523e+00 2.517773201825490048e+02
1.005074575952957128e+00 6.667986316821957082e+00 2.517798588391490000e+02
1.409114979952891700e+00 6.667986316821954418e+00 2.517823974958490112e+02
1.813155384052882901e+00 6.667986316821955306e+00 2.517849361525489940e+02
2.217195788052971128e+00 6.667986316821957082e+00 2.517874748091490176e+02
2.621236192153022060e+00 6.667986316821959747e+00 2.517900134658490003e+02
3.025276596153120057e+00 6.667986316821965964e+00 2.517925521225490115e+02
3.429317000153131012e+00 6.667986316821973070e+00 2.517950907792489943e+02
3.833357404253138867e+00 6.667986316821957971e+00 2.517976294358490179e+02
4.237397808253106746e+00 6.667986316821961523e+00 2.518001680925490007e+02
4.641438212353142134e+00 6.667986316821969517e+00 2.518027067492490119e+02
-1.419167848246999597e+00 7.072026720821978252e+00 2.517639603951490130e+02
-1.015127444246968880e+00 7.072026720821974699e+00 2.517664990518489958e+02
-6.110870402469562590e-01 7.072026720821973811e+00 2.517690377085490070e+02
-2.070466361469483207e-01 7.072026720821972035e+00 2.517715763651490022e+02
1.969937678530559733e-01 7.072026720821968482e+00 2.517741150218490134e+02
6.010341719529934679e-01 7.072026720821961376e+00 2.517766536785489961e+02
1.005074575952935589e+00 7.072026720821960488e+00 2.517791923351489913e+02
1.409114979952851066e+00 7.072026720821960488e+00 2.517817309918490025e+02
1.813155384052876462e+00 7.072026720821958712e+00 2.517842696485490137e+02
2.217195788052957361e+00 7.072026720821960488e+00 2.517868083051490089e+02
2.621236192153046485e+00 7.072026720821967594e+00 2.517893469618489917e+02
3.025276596153095188e+00 7.072026720821964041e+00 2.517918856185490029e+02
3.429317000153116801e+00 7.072026720821968482e+00 2.517944242751489980e+02
-1.419167848247011587e+00 7.476067124821970999e+00 2.517632938911490044e+02
-1.015127444246946453e+00 7.476067124821977217e+00 2.517658325478490156e+02
-6.110870402469343876e-01 7.476067124821981658e+00 2.517683712044490107e+02
-2.070466361469305572e-01 7.476067124821982546e+00 2.517709098611489935e+02
1.969937678530467584e-01 7.476067124821982546e+00 2.517734485178490047e+02
6.010341719530036819e-01 7.476067124821974552e+00 2.517759871744489999e+02
1.005074575952926041e+00 7.476067124821978993e+00 2.517785258311490111e+02
1.409114979952893254e+00 7.476067124821977217e+00 2.517810644878489938e+02
1.813155384052923758e+00 7.476067124821978105e+00 2.517836031444490175e+02
2.217195788052948036e+00 7.476067124821977217e+00 2.517861418011490002e+02
2.621236192153015843e+00 7.476067124821973664e+00 2.517886804578490114e+02
3.025276596153070319e+00 7.476067124821967447e+00 2.517912191144490066e+02
3.429317000153095929e+00 7.476067124821970999e+00 2.517937577711490178e+02
-1.823208252347048530e+00 7.880107528921974414e+00 2.517600887304490129e+02
-1.419167848246995822e+00 7.880107528921979743e+00 2.517626273871489957e+02
-1.015127444246990862e+00 7.880107528921990401e+00 2.517651660437489909e+02
-6.110870402469477103e-01 7.880107528921989513e+00 2.517677047004490021e+02
-2.070466361469474881e-01 7.880107528921986848e+00 2.517702433571490133e+02
1.969937678530378489e-01 7.880107528921985072e+00 2.517727820137490085e+02
6.010341719530030158e-01 7.880107528921981519e+00 2.517753206704489912e+02
1.005074575952982663e+00 7.880107528921981519e+00 2.517778593271490024e+02
1.409114979952984736e+00 7.880107528921983295e+00 2.517803979837489976e+02
1.813155384052950847e+00 7.880107528921985960e+00 2.517829366404490088e+02
2.217195788052955141e+00 7.880107528921990401e+00 2.517854752971489916e+02
2.621236192153019395e+00 7.880107528921979743e+00 2.517880139537490152e+02
3.025276596153041453e+00 7.880107528921982407e+00 2.517905526104489979e+02
3.429317000153065287e+00 7.880107528921975302e+00 2.517930912671490091e+02
-1.823208252347081393e+00 8.284147932921991142e+00 2.517594222264490043e+02
-1.419167848247087305e+00 8.284147932921987589e+00 2.517619608830489994e+02
-1.015127444246994415e+00 8.284147932921987589e+00 2.517644995397490106e+02
-6.110870402469867901e-01 8.284147932921989366e+00 2.517670381964489934e+02
-2.070466361469598116e-01 8.284147932921985813e+00 2.517695768530490170e+02
1.969937678530196967e-01 8.284147932921978708e+00 2.517721155097489998e+02
6.010341719530188920e-01 8.284147932921987589e+00 2.517746541664490110e+02
1.005074575953031513e+00 8.284147932921987589e+00 2.517771928231489937e+02
1.409114979953032032e+00 8.284147932921987589e+00 2.517797314797490174e+02
1.813155384053018571e+00 8.284147932921991142e+00 2.517822701364490001e+02
2.217195788053038186e+00 8.284147932921989366e+00 2.517848087931490113e+02
2.621236192153025168e+00 8.284147932921989366e+00 2.517873474497490065e+02
3.025276596153026798e+00 8.284147932921989366e+00 2.517898861064490177e+02
-1.823208252347097158e+00 8.688188337021992780e+00 2.517587557224489956e+02
-1.419167848247117503e+00 8.688188337021983898e+00 2.517612943790489908e+02
-1.015127444247063027e+00 8.688188337021983898e+00 2.517638330357490020e+02
-6.110870402470118812e-01 8.688188337021991003e+00 2.517663716924490132e+02
-2.070466361470000571e-01 8.688188337021996333e+00 2.517689103490490083e+02
1.969937678530103431e-01 8.688188337021994556e+00 2.517714490057489911e+02
6.010341719530536420e-01 8.688188337021992780e+00 2.517739876624490023e+02
1.005074575953086580e+00 8.688188337021992780e+00 2.517765263190489975e+02
1.409114979953044466e+00 8.688188337021989227e+00 2.517790649757490087e+02
1.813155384053051433e+00 8.688188337021991003e+00 2.517816036324489914e+02
2.217195788053056393e+00 8.688188337021987451e+00 2.517841422890490151e+02
2.621236192153078459e+00 8.688188337021976793e+00 2.517866809457489978e+02
3.025276596153050779e+00 8.688188337021983898e+00 2.517892196024490090e+02
-1.823208252347076730e+00 9.092228741021989080e+00 2.517580892183489993e+02
-1.419167848247115726e+00 9.092228741021989080e+00 2.517606278750490105e+02
-1.015127444247063471e+00 9.092228741021989080e+00 2.517631665317489933e+02
-6.110870402470064411e-01 9.092228741021989080e+00 2.517657051883490169e+02
-2.070466361469968652e-01 9.092228741021980198e+00 2.517682438450489997e+02
1.969937678530507275e-01 9.092228741021981975e+00 2.517707825017490109e+02
6.010341719530790661e-01 9.092228741021980198e+00 2.517733211583490061e+02
1.005074575953074811e+00 9.092228741021983751e+00 2.517758598150490172e+02
1.409114979953065339e+00 9.092228741021976646e+00 2.517783984717490000e+02
1.813155384053062091e+00 9.092228741021969540e+00 2.517809371283489952e+02
2.217195788053057726e+00 9.092228741021974869e+00 2.517834757850490064e+02
2.621236192153067357e+00 9.092228741021985527e+00 2.517860144417490176e+02
3.025276596153084085e+00 9.092228741021994409e+00 2.517885530983490128e+02
3.429317000153095929e+00 9.092228741021996186e+00 2.517910917550489955e+02
-1.823208252347068958e+00 9.496269145021990710e+00 2.517574227143489907e+02
-1.419167848247049113e+00 9.496269145021980052e+00 2.517599613710490019e+02
-1.015127444247011734e+00 9.496269145021987157e+00 2.517625000276489970e+02
-6.110870402470270912e-01 9.496269145021992486e+00 2.517650386843490082e+02
-2.070466361469848471e-01 9.496269145021985381e+00 2.517675773410489910e+02
1.969937678530109260e-01 9.496269145021988933e+00 2.517701159976490146e+02
6.010341719530349902e-01 9.496269145021990710e+00 2.517726546543489974e+02
1.005074575953049498e+00 9.496269145021987157e+00 2.517751933110490086e+02
1.409114979953039803e+00 9.496269145021988933e+00 2.517777319677489913e+02
1.813155384053029673e+00 9.496269145021980052e+00 2.517802706243490150e+02
2.217195788053075489e+00 9.496269145021985381e+00 2.517828092810489977e+02
2.621236192153137079e+00 9.496269145021981828e+00 2.517853479377490089e+02
3.025276596153136932e+00 9.496269145021981828e+00 2.517878865943490041e+02
3.429317000153190964e+00 9.496269145021994262e+00 2.517904252510490153e+02
-1.823208252347007008e+00 9.900309549121988795e+00 2.517567562103490104e+02
-1.419167848247042896e+00 9.900309549121995900e+00 2.517592948670489932e+02
-1.015127444247026167e+00 9.900309549121992347e+00 2.517618335236490168e+02
-6.110870402470032214e-01 9.900309549121988795e+00 2.517643721803489996e+02
-2.070466361470389149e-01 9.900309549121994124e+00 2.517669108370490108e+02
1.969937678529900538e-01 9.900309549121994124e+00 2.517694494936490059e+02
6.010341719530022386e-01 9.900309549121988795e+00 2.517719881503490171e+02
1.005074575953021299e+00 9.900309549121987018e+00 2.517745268070489999e+02
1.409114979953019375e+00 9.900309549121990571e+00 2.517770654636489951e+02
1.813155384053031449e+00 9.900309549121987018e+00 2.517796041203490063e+02
2.217195788053071492e+00 9.900309549121987018e+00 2.517821427770490175e+02
2.621236192153124200e+00 9.900309549121987018e+00 2.517846814336490127e+02
3.025276596153172903e+00 9.900309549121988795e+00 2.517872200903489954e+02
3.429317000153191852e+00 9.900309549121985242e+00 2.517897587470490066e+02
-1.823208252347003899e+00 1.030434995312199575e+01 2.517560897063490017e+02
-1.419167848247026686e+00 1.030434995312199753e+01 2.517586283629489969e+02
-1.015127444247035271e+00 1.030434995312199575e+01 2.517611670196490081e+02
-6.110870402469996687e-01 1.030434995312199220e+01 2.517637056763489909e+02
-2.070466361469855132e-01 1.030434995312199220e+01 2.517662443329490145e+02
1.969937678530073177e-01 1.030434995312198510e+01 2.517687829896489973e+02
6.010341719530114535e-01 1.030434995312198332e+01 2.517713216463490085e+02
1.005074575953021077e+00 1.030434995312198865e+01 2.517738603029490037e+02
1.409114979953000502e+00 1.030434995312197621e+01 2.517763989596490148e+02
1.813155384053033226e+00 1.030434995312197621e+01 2.517789376163489976e+02
2.217195788053071492e+00 1.030434995312198332e+01 2.517814762729489928e+02
2.621236192153121092e+00 1.030434995312198865e+01 2.517840149296490040e+02
3.025276596153160469e+00 1.030434995312198865e+01 2.517865535863490152e+02
-1.419167848247026242e+00 1.070839035722199384e+01 2.517579618589490167e+02
-1.015127444246990640e+00 1.070839035722198673e+01 2.517605005156489995e+02
-6.110870402469866791e-01 1.070839035722198673e+01 2.517630391722489946e+02
-2.070466361469809335e-01 1.070839035722199384e+01 2.517655778289490058e+02
1.969937678530068459e-01 1.070839035722199029e+01 2.517681164856490170e+02
6.010341719530063465e-01 1.070839035722199561e+01 2.517706551422490122e+02
1.005074575953040839e+00 1.070839035722199384e+01 2.517731937989489950e+02
1.409114979953031588e+00 1.070839035722199384e+01 2.517757324556490062e+02
1.813155384052982599e+00 1.070839035722199029e+01 2.517782711122490014e+02
2.217195788053062611e+00 1.070839035722198851e+01 2.517808097689490126e+02
2.621236192153102440e+00 1.070839035722198673e+01 2.517833484256489953e+02
3.025276596153172903e+00 1.070839035722199029e+01 2.517858870823490065e+02
-1.823208252347013891e+00 1.111243076122199369e+01 2.517547566982489968e+02
-1.419167848247008701e+00 1.111243076122198303e+01 2.517572953549490080e+02
-1.015127444246987309e+00 1.111243076122199369e+01 2.517598340116489908e+02
-6.110870402469952278e-01 1.111243076122199547e+01 2.517623726682490144e+02
-2.070466361469772143e-01 1.111243076122199369e+01 2.517649113249489972e+02
1.969937678530191971e-01 1.111243076122199192e+01 2.517674499816490084e+02
6.010341719529967985e-01 1.111243076122200435e+01 2.517699886382490035e+02
1.005074575953031513e+00 1.111243076122200080e+01 2.517725272949490147e+02
1.409114979953011160e+00 1.111243076122199369e+01 2.517750659516489975e+02
1.813155384052999475e+00 1.111243076122199369e+01 2.517776046082489927e+02
2.217195788053067051e+00 1.111243076122199192e+01 2.517801432649490039e+02
2.621236192153109990e+00 1.111243076122198659e+01 2.517826819216490151e+02
3.025276596153130271e+00 1.111243076122198659e+01 2.517852205782490103e+02
-1.823208252347038094e+00 1.151647116532199355e+01 2.517540901942490166e+02
-1.419167848247026686e+00 1.151647116532199711e+01 2.517566288509489993e+02
-1.015127444246991084e+00 1.151647116532199178e+01 2.517591675075489945e+02
-6.110870402469887885e-01 1.151647116532199355e+01 2.517617061642490057e+02
-2.070466361469895378e-01 1.151647116532199178e+01 2.517642448209490169e+02
1.969937678530105374e-01 1.151647116532199178e+01 2.517667834775490121e+02
6.010341719529939120e-01 1.151647116532199355e+01 2.517693221342489949e+02
1.005074575953024407e+00 1.151647116532199355e+01 2.517718607909490061e+02
1.409114979953014490e+00 1.151647116532199888e+01 2.517743994475490013e+02
1.813155384053003472e+00 1.151647116532199178e+01 2.517769381042490124e+02
2.217195788053019978e+00 1.151647116532198645e+01 2.517794767609489952e+02
2.621236192153086453e+00 1.151647116532198645e+01 2.517820154175490188e+02
3.025276596153156916e+00 1.151647116532198467e+01 2.517845540742490016e+02
-1.823208252347072955e+00 1.192051156932200406e+01 2.517534236902490079e+02
-1.419167848247008257e+00 1.192051156932200051e+01 2.517559623468490031e+02
-1.015127444247024169e+00 1.192051156932199341e+01 2.517585010035490143e+02
-6.110870402469922302e-01 1.192051156932198808e+01 2.517610396602489971e+02
-2.070466361470021111e-01 1.192051156932200051e+01 2.517635783168489922e+02
1.969937678530404024e-01 1.192051156932200584e+01 2.517661169735490034e+02
6.010341719530399862e-01 1.192051156932200229e+01 2.517686556302490146e+02
1.005074575953020632e+00 1.192051156932200762e+01 2.517711942868490098e+02
1.409114979953001168e+00 1.192051156932200584e+01 2.517737329435489926e+02
1.813155384053002361e+00 1.192051156932200406e+01 2.517762716002490038e+02
2.217195788053015537e+00 1.192051156932198985e+01 2.517788102568489990e+02
2.621236192153062916e+00 1.192051156932198985e+01 2.517813489135490101e+02
3.025276596153156472e+00 1.192051156932199163e+01 2.517838875702489929e+02
-1.823208252347051639e+00 1.232455197332200392e+01 2.517527571861490117e+02
-1.419167848247024910e+00 1.232455197332200214e+01 2.517552958428489944e+02
-1.015127444247007737e+00 1.232455197332199326e+01 2.517578344995490056e+02
-6.110870402469936735e-01 1.232455197332200214e+01 2.517603731561490008e+02
-2.070466361470151839e-01 1.232455197332200569e+01 2.517629118128490120e+02
1.969937678530357672e-01 1.232455197332200392e+01 2.517654504695489948e+02
6.010341719530390980e-01 1.232455197332200925e+01 2.517679891262490059e+02
1.005074575953016414e+00 1.232455197332201102e+01 2.517705277828490011e+02
1.409114979953029145e+00 1.232455197332200747e+01 2.517730664395490123e+02
1.813155384052997254e+00 1.232455197332200747e+01 2.517756050962489951e+02
2.217195788053021754e+00 1.232455197332200392e+01 2.517781437528490187e+02
2.621236192153011402e+00 1.232455197332199326e+01 2.517806824095490015e+02
3.025276596153105402e+00 1.232455197332199326e+01 2.517832210662490127e+02
-1.823208252347051417e+00 1.272859237742200378e+01 2.517520906821490030e+02
-1.419167848247020469e+00 1.272859237742199845e+01 2.517546293388490142e+02
-1.015127444247028832e+00 1.272859237742200378e+01 2.517571679955489969e+02
-6.110870402469940066e-01 1.272859237742199845e+01 2.517597066521489921e+02
-2.070466361470111316e-01 1.272859237742200555e+01 2.517622453088490033e+02
1.969937678530093161e-01 1.272859237742200555e+01 2.517647839655490145e+02
6.010341719530168936e-01 1.272859237742200733e+01 2.517673226221490097e+02
1.005074575953033511e+00 1.272859237742200555e+01 2.517698612788489925e+02
1.409114979953004498e+00 1.272859237742200555e+01 2.517723999355490037e+02
1.813155384052989705e+00 1.272859237742200555e+01 2.517749385921489989e+02
2.217195788052986671e+00 1.272859237742200023e+01 2.517774772488490100e+02
2.621236192153014510e+00 1.272859237742200023e+01 2.517800159055489928e+02
3.025276596153072539e+00 1.272859237742199134e+01 2.517825545621490164e+02
-1.823208252347066960e+00 1.313263278142199475e+01 2.517514241781489943e+02
-1.419167848247053554e+00 1.313263278142200186e+01 2.517539628348490055e+02
-1.015127444247012178e+00 1.313263278142200186e+01 2.517565014914490007e+02
-6.110870402469980034e-01 1.313263278142200008e+01 2.517590401481490119e+02
-2.070466361470146011e-01 1.313263278142200186e+01 2.517615788048489947e+02
1.969937678530093161e-01 1.313263278142200541e+01 2.517641174614490183e+02
6.010341719530133409e-01 1.313263278142200363e+01 2.517666561181490010e+02
1.005074575953029736e+00 1.313263278142200363e+01 2.517691947748490122e+02
1.409114979953016711e+00 1.313263278142200718e+01 2.517717334314490074e+02
1.813155384052998365e+00 1.313263278142199830e+01 2.517742720881490186e+02
2.217195788052986671e+00 1.313263278142199830e+01 2.517768107448490014e+02
2.621236192153011846e+00 1.313263278142200186e+01 2.517793494014489966e+02
3.025276596153059216e+00 1.313263278142199653e+01 2.517818880581490077e+02
-2.227248656347036171e+00 1.353667318552199816e+01 2.517482190174490029e+02
-1.823208252347053193e+00 1.353667318552199639e+01 2.517507576741490141e+02
-1.419167848247064656e+00 1.353667318552199994e+01 2.517532963307490093e+02
-1.015127444246997745e+00 1.353667318552199816e+01 2.517558349874489920e+02
-6.110870402469941176e-01 1.353667318552199994e+01 2.517583736441490032e+02
-2.070466361470437722e-01 1.353667318552200349e+01 2.517609123007489984e+02
1.969937678530096214e-01 1.353667318552200172e+01 2.517634509574490096e+02
6.010341719530055693e-01 1.353667318552200349e+01 2.517659896141489924e+02
1.005074575953017302e+00 1.353667318552200349e+01 2.517685282708490035e+02
1.409114979953016489e+00 1.353667318552201060e+01 2.517710669274489987e+02
1.813155384053022345e+00 1.353667318552199994e+01 2.517736055841490099e+02
2.217195788052986671e+00 1.353667318552199816e+01 2.517761442408489927e+02
2.621236192153016287e+00 1.353667318552199816e+01 2.517786828974490163e+02
3.025276596153067654e+00 1.353667318552199994e+01 2.517812215541489991e+02
