5.880315307549956572e+00 1.395874648235380766e+00 2.531314574864231588e+02
6.284355644149956177e+00 1.395874648235380766e+00 2.531285277989231588e+02
6.688395980749955783e+00 1.395874648235380766e+00 2.531255981114231588e+02
7.092436317349956276e+00 1.395874648235380766e+00 2.531226684239231588e+02
-4.624735351650043569e+00 1.799915104135380917e+00 2.532100097325231616e+02
-4.220694538150043584e+00 1.799915104135380917e+00 2.532070800450231616e+02
-3.816654439950044164e+00 1.799915104135380917e+00 2.532041503575231616e+02
-3.412613864950044373e+00 1.799915104135380917e+00 2.532012206700231616e+02
-3.008573528350044324e+00 1.799915104135380917e+00 2.531983062413231380e+02
-2.604533191750044274e+00 1.799915104135380917e+00 2.531953765538231380e+02
-2.200492855150044225e+00 1.799915104135380917e+00 2.531924468663231380e+02
-1.796452399350044304e+00 1.799915104135380917e+00 2.531895171788231380e+02
-1.392411943450044154e+00 1.799915104135380917e+00 2.531865874913231380e+02
-9.883714876500441227e-01 1.799915104135380917e+00 2.531836730625231553e+02
-5.843311510500440731e-01 1.799915104135380917e+00 2.531807433750231553e+02
-1.802907250500441205e-01 1.799915104135380917e+00 2.531778136875231553e+02
2.237496711499558644e-01 1.799915104135380917e+00 2.531748840000231553e+02
6.277900971499558169e-01 1.799915104135380917e+00 2.531719543125231553e+02
1.031830433749955755e+00 1.799915104135380917e+00 2.531690398838231602e+02
1.435870889549955676e+00 1.799915104135380917e+00 2.531661101963231602e+02
1.839911345449955826e+00 1.799915104135380917e+00 2.531631805088231602e+02
2.243951801249955746e+00 1.799915104135380917e+00 2.531602508213231602e+02
2.647992137849955796e+00 1.799915104135380917e+00 2.531573211338231602e+02
3.052032474449955846e+00 1.799915104135380917e+00 2.531544067051231366e+02
3.456072811049955895e+00 1.799915104135380917e+00 2.531514770176231366e+02
3.860113386049955686e+00 1.799915104135380917e+00 2.531485473301231366e+02
4.264153484249955994e+00 1.799915104135380917e+00 2.531456176426231366e+02
4.668194297749955979e+00 1.799915104135380917e+00 2.531426879551231366e+02
5.072234634349956472e+00 1.799915104135380917e+00 2.531397735264231414e+02
5.476274970949956078e+00 1.799915104135380917e+00 2.531368438389231414e+02
5.880315307549956572e+00 1.799915104135380917e+00 2.531339141514231414e+02
6.284355644149956177e+00 1.799915104135380917e+00 2.531309844639231414e+02
6.688395980749955783e+00 1.799915104135380917e+00 2.531280547764231414e+02
7.092436317349956276e+00 1.799915104135380917e+00 2.531251403477231463e+02
-4.624735351650043569e+00 2.203955559935380837e+00 2.532124663975231442e+02
-4.220694538150043584e+00 2.203955559935380837e+00 2.532095367100231442e+02
-3.816654439950044164e+00 2.203955559935380837e+00 2.532066070225231442e+02
-3.412613864950044373e+00 2.203955559935380837e+00 2.532036925938231491e+02
-3.008573528350044324e+00 2.203955559935380837e+00 2.532007629063231491e+02
-2.604533191750044274e+00 2.203955559935380837e+00 2.531978332188231491e+02
-2.200492855150044225e+00 2.203955559935380837e+00 2.531949035313231491e+02
-1.796452399350044304e+00 2.203955559935380837e+00 2.531919738438231491e+02
-1.392411943450044154e+00 2.203955559935380837e+00 2.531890594151231539e+02
-9.883714876500441227e-01 2.203955559935380837e+00 2.531861297276231539e+02
-5.843311510500440731e-01 2.203955559935380837e+00 2.531832000401231539e+02
-1.802907250500441205e-01 2.203955559935380837e+00 2.531802703526231539e+02
2.237496711499558644e-01 2.203955559935380837e+00 2.531773406651231539e+02
6.277900971499558169e-01 2.203955559935380837e+00 2.531744262364231588e+02
1.031830433749955755e+00 2.203955559935380837e+00 2.531714965489231588e+02
1.435870889549955676e+00 2.203955559935380837e+00 2.531685668614231588e+02
1.839911345449955826e+00 2.203955559935380837e+00 2.531656371739231588e+02
2.243951801249955746e+00 2.203955559935380837e+00 2.531627074864231588e+02
2.647992137849955796e+00 2.203955559935380837e+00 2.531597930577231352e+02
3.052032474449955846e+00 2.203955559935380837e+00 2.531568633702231352e+02
3.456072811049955895e+00 2.203955559935380837e+00 2.531539336827231352e+02
3.860113386049955686e+00 2.203955559935380837e+00 2.531510039952231352e+02
4.264153484249955994e+00 2.203955559935380837e+00 2.531480743077231352e+02
4.668194297749955979e+00 2.203955559935380837e+00 2.531451598790231401e+02
5.072234634349956472e+00 2.203955559935380837e+00 2.531422301915231401e+02
5.476274970949956078e+00 2.203955559935380837e+00 2.531393005040231401e+02
5.880315307549956572e+00 2.203955559935380837e+00 2.531363708165231401e+02
6.284355644149956177e+00 2.203955559935380837e+00 2.531334411290231401e+02
6.688395980749955783e+00 2.203955559935380837e+00 2.531305267002231574e+02
7.092436317349956276e+00 2.203955559935380837e+00 2.531275970127231574e+02
-4.220694538150043584e+00 2.607995896535380886e+00 2.532119933750231553e+02
-3.816654439950044164e+00 2.607995896535380886e+00 2.532090789463231602e+02
-3.412613864950044373e+00 2.607995896535380886e+00 2.532061492588231602e+02
-3.008573528350044324e+00 2.607995896535380886e+00 2.532032195713231602e+02
-2.604533191750044274e+00 2.607995896535380886e+00 2.532002898838231602e+02
-2.200492855150044225e+00 2.607995896535380886e+00 2.531973601963231602e+02
-1.796452399350044304e+00 2.607995896535380886e+00 2.531944457676231366e+02
-1.392411943450044154e+00 2.607995896535380886e+00 2.531915160801231366e+02
-9.883714876500441227e-01 2.607995896535380886e+00 2.531885863926231366e+02
-5.843311510500440731e-01 2.607995896535380886e+00 2.531856567051231366e+02
-1.802907250500441205e-01 2.607995896535380886e+00 2.531827270176231366e+02
2.237496711499558644e-01 2.607995896535380886e+00 2.531798125889231414e+02
6.277900971499558169e-01 2.607995896535380886e+00 2.531768829014231414e+02
1.031830433749955755e+00 2.607995896535380886e+00 2.531739532139231414e+02
1.435870889549955676e+00 2.607995896535380886e+00 2.531710235264231414e+02
1.839911345449955826e+00 2.607995896535380886e+00 2.531680938389231414e+02
2.243951801249955746e+00 2.607995896535380886e+00 2.531651794102231463e+02
2.647992137849955796e+00 2.607995896535380886e+00 2.531622497227231463e+02
3.052032474449955846e+00 2.607995896535380886e+00 2.531593200352231463e+02
3.456072811049955895e+00 2.607995896535380886e+00 2.531563903477231463e+02
3.860113386049955686e+00 2.607995896535380886e+00 2.531534606602231463e+02
4.264153484249955994e+00 2.607995896535380886e+00 2.531505462315231512e+02
4.668194297749955979e+00 2.607995896535380886e+00 2.531476165440231512e+02
5.072234634349956472e+00 2.607995896535380886e+00 2.531446868565231512e+02
5.476274970949956078e+00 2.607995896535380886e+00 2.531417571690231512e+02
5.880315307549956572e+00 2.607995896535380886e+00 2.531388274815231512e+02
6.284355644149956177e+00 2.607995896535380886e+00 2.531359130528231560e+02
6.688395980749955783e+00 2.607995896535380886e+00 2.531329833653231560e+02
7.092436317349956276e+00 2.607995896535380886e+00 2.531300536778231560e+02
7.496477130849956261e+00 2.607995896535380886e+00 2.531271239903231560e+02
-4.220694538150043584e+00 3.012036233135380936e+00 2.532144652989231588e+02
-3.816654439950044164e+00 3.012036233135380936e+00 2.532115356114231588e+02
-3.412613864950044373e+00 3.012036233135380936e+00 2.532086059239231588e+02
-3.008573528350044324e+00 3.012036233135380936e+00 2.532056762364231588e+02
-2.604533191750044274e+00 3.012036233135380936e+00 2.532027465489231588e+02
-2.200492855150044225e+00 3.012036233135380936e+00 2.531998321202231352e+02
-1.796452399350044304e+00 3.012036233135380936e+00 2.531969024327231352e+02
-1.392411943450044154e+00 3.012036233135380936e+00 2.531939727452231352e+02
-9.883714876500441227e-01 3.012036233135380936e+00 2.531910430577231352e+02
-5.843311510500440731e-01 3.012036233135380936e+00 2.531881133702231352e+02
-1.802907250500441205e-01 3.012036233135380936e+00 2.531851989415231401e+02
2.237496711499558644e-01 3.012036233135380936e+00 2.531822692540231401e+02
6.277900971499558169e-01 3.012036233135380936e+00 2.531793395665231401e+02
1.031830433749955755e+00 3.012036233135380936e+00 2.531764098790231401e+02
1.435870889549955676e+00 3.012036233135380936e+00 2.531734801915231401e+02
1.839911345449955826e+00 3.012036233135380936e+00 2.531705657627231574e+02
2.243951801249955746e+00 3.012036233135380936e+00 2.531676360752231574e+02
2.647992137849955796e+00 3.012036233135380936e+00 2.531647063877231574e+02
3.052032474449955846e+00 3.012036233135380936e+00 2.531617767002231574e+02
3.456072811049955895e+00 3.012036233135380936e+00 2.531588470127231574e+02
3.860113386049955686e+00 3.012036233135380936e+00 2.531559325840231338e+02
4.264153484249955994e+00 3.012036233135380936e+00 2.531530028965231338e+02
4.668194297749955979e+00 3.012036233135380936e+00 2.531500732090231338e+02
5.072234634349956472e+00 3.012036233135380936e+00 2.531471435215231338e+02
5.476274970949956078e+00 3.012036233135380936e+00 2.531442138340231338e+02
5.880315307549956572e+00 3.012036233135380936e+00 2.531412994053231387e+02
6.284355644149956177e+00 3.012036233135380936e+00 2.531383697178231387e+02
6.688395980749955783e+00 3.012036233135380936e+00 2.531354400303231387e+02
7.092436317349956276e+00 3.012036233135380936e+00 2.531325103428231387e+02
7.496477130849956261e+00 3.012036233135380936e+00 2.531295806553231387e+02
-4.220694538150043584e+00 3.416076569735380986e+00 2.532169219639231414e+02
-3.816654439950044164e+00 3.416076569735380986e+00 2.532139922764231414e+02
-3.412613864950044373e+00 3.416076569735380986e+00 2.532110625889231414e+02
-3.008573528350044324e+00 3.416076569735380986e+00 2.532081481602231463e+02
-2.604533191750044274e+00 3.416076569735380986e+00 2.532052184727231463e+02
-2.200492855150044225e+00 3.416076569735380986e+00 2.532022887852231463e+02
-1.796452399350044304e+00 3.416076569735380986e+00 2.531993590977231463e+02
-1.392411943450044154e+00 3.416076569735380986e+00 2.531964294102231463e+02
-9.883714876500441227e-01 3.416076569735380986e+00 2.531934997227231463e+02
-5.843311510500440731e-01 3.416076569735380986e+00 2.531905852940231512e+02
-1.802907250500441205e-01 3.416076569735380986e+00 2.531876556065231512e+02
2.237496711499558644e-01 3.416076569735380986e+00 2.531847259190231512e+02
6.277900971499558169e-01 3.416076569735380986e+00 2.531817962315231512e+02
1.031830433749955755e+00 3.416076569735380986e+00 2.531788665440231512e+02
1.435870889549955676e+00 3.416076569735380986e+00 2.531759521153231560e+02
1.839911345449955826e+00 3.416076569735380986e+00 2.531730224278231560e+02
2.243951801249955746e+00 3.416076569735380986e+00 2.531700927403231560e+02
2.647992137849955796e+00 3.416076569735380986e+00 2.531671630528231560e+02
3.052032474449955846e+00 3.416076569735380986e+00 2.531642333653231560e+02
3.456072811049955895e+00 3.416076569735380986e+00 2.531613189366231609e+02
3.860113386049955686e+00 3.416076569735380986e+00 2.531583892491231609e+02
4.264153484249955994e+00 3.416076569735380986e+00 2.531554595616231609e+02
4.668194297749955979e+00 3.416076569735380986e+00 2.531525298741231609e+02
5.072234634349956472e+00 3.416076569735380986e+00 2.531496001866231609e+02
5.476274970949956078e+00 3.416076569735380986e+00 2.531466857579231373e+02
5.880315307549956572e+00 3.416076569735380986e+00 2.531437560704231373e+02
6.284355644149956177e+00 3.416076569735380986e+00 2.531408263829231373e+02
6.688395980749955783e+00 3.416076569735380986e+00 2.531378966954231373e+02
7.092436317349956276e+00 3.416076569735380986e+00 2.531349670079231373e+02
7.496477130849956261e+00 3.416076569735380986e+00 2.531320525791231546e+02
-4.624735351650043569e+00 3.820117144735380776e+00 2.532223083165231401e+02
-4.220694538150043584e+00 3.820117144735380776e+00 2.532193786290231401e+02
-3.816654439950044164e+00 3.820117144735380776e+00 2.532164489415231401e+02
-3.412613864950044373e+00 3.820117144735380776e+00 2.532135345127231574e+02
-3.008573528350044324e+00 3.820117144735380776e+00 2.532106048252231574e+02
-2.604533191750044274e+00 3.820117144735380776e+00 2.532076751377231574e+02
-2.200492855150044225e+00 3.820117144735380776e+00 2.532047454502231574e+02
-1.796452399350044304e+00 3.820117144735380776e+00 2.532018157627231574e+02
-1.392411943450044154e+00 3.820117144735380776e+00 2.531989013340231338e+02
-9.883714876500441227e-01 3.820117144735380776e+00 2.531959716465231338e+02
-5.843311510500440731e-01 3.820117144735380776e+00 2.531930419590231338e+02
-1.802907250500441205e-01 3.820117144735380776e+00 2.531901122715231338e+02
2.237496711499558644e-01 3.820117144735380776e+00 2.531871825840231338e+02
6.277900971499558169e-01 3.820117144735380776e+00 2.531842681553231387e+02
1.031830433749955755e+00 3.820117144735380776e+00 2.531813384678231387e+02
1.435870889549955676e+00 3.820117144735380776e+00 2.531784087803231387e+02
1.839911345449955826e+00 3.820117144735380776e+00 2.531754790928231387e+02
2.243951801249955746e+00 3.820117144735380776e+00 2.531725494053231387e+02
2.647992137849955796e+00 3.820117144735380776e+00 2.531696349766231435e+02
3.052032474449955846e+00 3.820117144735380776e+00 2.531667052891231435e+02
3.456072811049955895e+00 3.820117144735380776e+00 2.531637756016231435e+02
3.860113386049955686e+00 3.820117144735380776e+00 2.531608459141231435e+02
4.264153484249955994e+00 3.820117144735380776e+00 2.531579162266231435e+02
4.668194297749955979e+00 3.820117144735380776e+00 2.531550017979231484e+02
5.072234634349956472e+00 3.820117144735380776e+00 2.531520721104231484e+02
5.476274970949956078e+00 3.820117144735380776e+00 2.531491424229231484e+02
5.880315307549956572e+00 3.820117144735380776e+00 2.531462127354231484e+02
6.284355644149956177e+00 3.820117144735380776e+00 2.531432830479231484e+02
6.688395980749955783e+00 3.820117144735380776e+00 2.531403686192231532e+02
7.092436317349956276e+00 3.820117144735380776e+00 2.531374389317231532e+02
-4.624735351650043569e+00 4.224157242935381085e+00 2.532247649815231512e+02
-4.220694538150043584e+00 4.224157242935381085e+00 2.532218352940231512e+02
-3.816654439950044164e+00 4.224157242935381085e+00 2.532189208653231560e+02
-3.412613864950044373e+00 4.224157242935381085e+00 2.532159911778231560e+02
-3.008573528350044324e+00 4.224157242935381085e+00 2.532130614903231560e+02
-2.604533191750044274e+00 4.224157242935381085e+00 2.532101318028231560e+02
-2.200492855150044225e+00 4.224157242935381085e+00 2.532072021153231560e+02
-1.796452399350044304e+00 4.224157242935381085e+00 2.532042876866231609e+02
-1.392411943450044154e+00 4.224157242935381085e+00 2.532013579991231609e+02
-9.883714876500441227e-01 4.224157242935381085e+00 2.531984283116231609e+02
-5.843311510500440731e-01 4.224157242935381085e+00 2.531954986241231609e+02
-1.802907250500441205e-01 4.224157242935381085e+00 2.531925689366231609e+02
2.237496711499558644e-01 4.224157242935381085e+00 2.531896545079231373e+02
6.277900971499558169e-01 4.224157242935381085e+00 2.531867248204231373e+02
1.031830433749955755e+00 4.224157242935381085e+00 2.531837951329231373e+02
1.435870889549955676e+00 4.224157242935381085e+00 2.531808654454231373e+02
1.839911345449955826e+00 4.224157242935381085e+00 2.531779357579231373e+02
2.243951801249955746e+00 4.224157242935381085e+00 2.531750213291231546e+02
2.647992137849955796e+00 4.224157242935381085e+00 2.531720916416231546e+02
3.052032474449955846e+00 4.224157242935381085e+00 2.531691619541231546e+02
3.456072811049955895e+00 4.224157242935381085e+00 2.531662322666231546e+02
3.860113386049955686e+00 4.224157242935381085e+00 2.531633025791231546e+02
4.264153484249955994e+00 4.224157242935381085e+00 2.531603881504231595e+02
4.668194297749955979e+00 4.224157242935381085e+00 2.531574584629231595e+02
5.072234634349956472e+00 4.224157242935381085e+00 2.531545287754231595e+02
5.476274970949956078e+00 4.224157242935381085e+00 2.531515990879231595e+02
5.880315307549956572e+00 4.224157242935381085e+00 2.531486694004231595e+02
6.284355644149956177e+00 4.224157242935381085e+00 2.531457549717231359e+02
6.688395980749955783e+00 4.224157242935381085e+00 2.531428252842231359e+02
7.092436317349956276e+00 4.224157242935381085e+00 2.531398955967231359e+02
-4.624735351650043569e+00 4.628198056435381069e+00 2.532272216465231338e+02
-4.220694538150043584e+00 4.628198056435381069e+00 2.532243072178231387e+02
-3.816654439950044164e+00 4.628198056435381069e+00 2.532213775303231387e+02
-3.412613864950044373e+00 4.628198056435381069e+00 2.532184478428231387e+02
-3.008573528350044324e+00 4.628198056435381069e+00 2.532155181553231387e+02
-2.604533191750044274e+00 4.628198056435381069e+00 2.532125884678231387e+02
-2.200492855150044225e+00 4.628198056435381069e+00 2.532096740391231435e+02
-1.796452399350044304e+00 4.628198056435381069e+00 2.532067443516231435e+02
-1.392411943450044154e+00 4.628198056435381069e+00 2.532038146641231435e+02
-9.883714876500441227e-01 4.628198056435381069e+00 2.532008849766231435e+02
-5.843311510500440731e-01 4.628198056435381069e+00 2.531979552891231435e+02
-1.802907250500441205e-01 4.628198056435381069e+00 2.531950408604231484e+02
2.237496711499558644e-01 4.628198056435381069e+00 2.531921111729231484e+02
6.277900971499558169e-01 4.628198056435381069e+00 2.531891814854231484e+02
1.031830433749955755e+00 4.628198056435381069e+00 2.531862517979231484e+02
1.435870889549955676e+00 4.628198056435381069e+00 2.531833221104231484e+02
1.839911345449955826e+00 4.628198056435381069e+00 2.531804076817231532e+02
2.243951801249955746e+00 4.628198056435381069e+00 2.531774779942231532e+02
2.647992137849955796e+00 4.628198056435381069e+00 2.531745483067231532e+02
3.052032474449955846e+00 4.628198056435381069e+00 2.531716186192231532e+02
3.456072811049955895e+00 4.628198056435381069e+00 2.531686889317231532e+02
3.860113386049955686e+00 4.628198056435381069e+00 2.531657745030231581e+02
4.264153484249955994e+00 4.628198056435381069e+00 2.531628448155231581e+02
4.668194297749955979e+00 4.628198056435381069e+00 2.531599151280231581e+02
5.072234634349956472e+00 4.628198056435381069e+00 2.531569854405231581e+02
5.476274970949956078e+00 4.628198056435381069e+00 2.531540557530231581e+02
5.880315307549956572e+00 4.628198056435381069e+00 2.531511413243231345e+02
6.284355644149956177e+00 4.628198056435381069e+00 2.531482116368231345e+02
6.688395980749955783e+00 4.628198056435381069e+00 2.531452819493231345e+02
7.092436317349956276e+00 4.628198056435381069e+00 2.531423522618231345e+02
7.496477130849956261e+00 4.628198056435381069e+00 2.531394225743231345e+02
-4.624735351650043569e+00 5.032238393035381563e+00 2.532296935704231373e+02
-4.220694538150043584e+00 5.032238393035381563e+00 2.532267638829231373e+02
-3.816654439950044164e+00 5.032238393035381563e+00 2.532238341954231373e+02
-3.412613864950044373e+00 5.032238393035381563e+00 2.532209045079231373e+02
-3.008573528350044324e+00 5.032238393035381563e+00 2.532179748204231373e+02
-2.604533191750044274e+00 5.032238393035381563e+00 2.532150603916231546e+02
-2.200492855150044225e+00 5.032238393035381563e+00 2.532121307041231546e+02
-1.796452399350044304e+00 5.032238393035381563e+00 2.532092010166231546e+02
-1.392411943450044154e+00 5.032238393035381563e+00 2.532062713291231546e+02
-9.883714876500441227e-01 5.032238393035381563e+00 2.532033416416231546e+02
-5.843311510500440731e-01 5.032238393035381563e+00 2.532004272129231595e+02
-1.802907250500441205e-01 5.032238393035381563e+00 2.531974975254231595e+02
2.237496711499558644e-01 5.032238393035381563e+00 2.531945678379231595e+02
6.277900971499558169e-01 5.032238393035381563e+00 2.531916381504231595e+02
1.031830433749955755e+00 5.032238393035381563e+00 2.531887084629231595e+02
1.435870889549955676e+00 5.032238393035381563e+00 2.531857940342231359e+02
1.839911345449955826e+00 5.032238393035381563e+00 2.531828643467231359e+02
2.243951801249955746e+00 5.032238393035381563e+00 2.531799346592231359e+02
2.647992137849955796e+00 5.032238393035381563e+00 2.531770049717231359e+02
3.052032474449955846e+00 5.032238393035381563e+00 2.531740752842231359e+02
3.456072811049955895e+00 5.032238393035381563e+00 2.531711608555231408e+02
3.860113386049955686e+00 5.032238393035381563e+00 2.531682311680231408e+02
4.264153484249955994e+00 5.032238393035381563e+00 2.531653014805231408e+02
4.668194297749955979e+00 5.032238393035381563e+00 2.531623717930231408e+02
5.072234634349956472e+00 5.032238393035381563e+00 2.531594421055231408e+02
5.476274970949956078e+00 5.032238393035381563e+00 2.531565276768231456e+02
5.880315307549956572e+00 5.032238393035381563e+00 2.531535979893231456e+02
6.284355644149956177e+00 5.032238393035381563e+00 2.531506683018231456e+02
6.688395980749955783e+00 5.032238393035381563e+00 2.531477386143231456e+02
7.092436317349956276e+00 5.032238393035381563e+00 2.531448089268231456e+02
7.496477130849956261e+00 5.032238393035381563e+00 2.531418944981231505e+02
-4.624735351650043569e+00 5.436278729635381168e+00 2.532321502354231484e+02
-4.220694538150043584e+00 5.436278729635381168e+00 2.532292205479231484e+02
-3.816654439950044164e+00 5.436278729635381168e+00 2.532262908604231484e+02
-3.412613864950044373e+00 5.436278729635381168e+00 2.532233611729231484e+02
-3.008573528350044324e+00 5.436278729635381168e+00 2.532204467442231532e+02
-2.604533191750044274e+00 5.436278729635381168e+00 2.532175170567231532e+02
-2.200492855150044225e+00 5.436278729635381168e+00 2.532145873692231532e+02
-1.796452399350044304e+00 5.436278729635381168e+00 2.532116576817231532e+02
-1.392411943450044154e+00 5.436278729635381168e+00 2.532087279942231532e+02
-9.883714876500441227e-01 5.436278729635381168e+00 2.532058135655231581e+02
-5.843311510500440731e-01 5.436278729635381168e+00 2.532028838780231581e+02
-1.802907250500441205e-01 5.436278729635381168e+00 2.531999541905231581e+02
2.237496711499558644e-01 5.436278729635381168e+00 2.531970245030231581e+02
6.277900971499558169e-01 5.436278729635381168e+00 2.531940948155231581e+02
1.031830433749955755e+00 5.436278729635381168e+00 2.531911803868231345e+02
1.435870889549955676e+00 5.436278729635381168e+00 2.531882506993231345e+02
1.839911345449955826e+00 5.436278729635381168e+00 2.531853210118231345e+02
2.243951801249955746e+00 5.436278729635381168e+00 2.531823913243231345e+02
2.647992137849955796e+00 5.436278729635381168e+00 2.531794616368231345e+02
3.052032474449955846e+00 5.436278729635381168e+00 2.531765472081231394e+02
3.456072811049955895e+00 5.436278729635381168e+00 2.531736175206231394e+02
3.860113386049955686e+00 5.436278729635381168e+00 2.531706878331231394e+02
4.264153484249955994e+00 5.436278729635381168e+00 2.531677581456231394e+02
4.668194297749955979e+00 5.436278729635381168e+00 2.531648284581231394e+02
5.072234634349956472e+00 5.436278729635381168e+00 2.531619140293231567e+02
5.476274970949956078e+00 5.436278729635381168e+00 2.531589843418231567e+02
5.880315307549956572e+00 5.436278729635381168e+00 2.531560546543231567e+02
6.284355644149956177e+00 5.436278729635381168e+00 2.531531249668231567e+02
6.688395980749955783e+00 5.436278729635381168e+00 2.531501952793231567e+02
7.092436317349956276e+00 5.436278729635381168e+00 2.531472808506231615e+02
7.496477130849956261e+00 5.436278729635381168e+00 2.531443511631231615e+02
-4.220694538150043584e+00 5.840319066235381662e+00 2.532316772129231595e+02
-3.816654439950044164e+00 5.840319066235381662e+00 2.532287627842231359e+02
-3.412613864950044373e+00 5.840319066235381662e+00 2.532258330967231359e+02
-3.008573528350044324e+00 5.840319066235381662e+00 2.532229034092231359e+02
-2.604533191750044274e+00 5.840319066235381662e+00 2.532199737217231359e+02
-2.200492855150044225e+00 5.840319066235381662e+00 2.532170440342231359e+02
-1.796452399350044304e+00 5.840319066235381662e+00 2.532141296055231408e+02
-1.392411943450044154e+00 5.840319066235381662e+00 2.532111999180231408e+02
-9.883714876500441227e-01 5.840319066235381662e+00 2.532082702305231408e+02
-5.843311510500440731e-01 5.840319066235381662e+00 2.532053405430231408e+02
-1.802907250500441205e-01 5.840319066235381662e+00 2.532024108555231408e+02
2.237496711499558644e-01 5.840319066235381662e+00 2.531994964268231456e+02
6.277900971499558169e-01 5.840319066235381662e+00 2.531965667393231456e+02
1.031830433749955755e+00 5.840319066235381662e+00 2.531936370518231456e+02
1.435870889549955676e+00 5.840319066235381662e+00 2.531907073643231456e+02
1.839911345449955826e+00 5.840319066235381662e+00 2.531877776768231456e+02
2.243951801249955746e+00 5.840319066235381662e+00 2.531848632481231505e+02
2.647992137849955796e+00 5.840319066235381662e+00 2.531819335606231505e+02
3.052032474449955846e+00 5.840319066235381662e+00 2.531790038731231505e+02
3.456072811049955895e+00 5.840319066235381662e+00 2.531760741856231505e+02
3.860113386049955686e+00 5.840319066235381662e+00 2.531731444981231505e+02
4.264153484249955994e+00 5.840319066235381662e+00 2.531702148106231505e+02
4.668194297749955979e+00 5.840319066235381662e+00 2.531673003819231553e+02
5.072234634349956472e+00 5.840319066235381662e+00 2.531643706944231553e+02
5.476274970949956078e+00 5.840319066235381662e+00 2.531614410069231553e+02
5.880315307549956572e+00 5.840319066235381662e+00 2.531585113194231553e+02
6.284355644149956177e+00 5.840319066235381662e+00 2.531555816319231553e+02
6.688395980749955783e+00 5.840319066235381662e+00 2.531526672032231602e+02
7.092436317349956276e+00 5.840319066235381662e+00 2.531497375157231602e+02
-4.220694538150043584e+00 6.244359402835381267e+00 2.532341491368231345e+02
-3.816654439950044164e+00 6.244359402835381267e+00 2.532312194493231345e+02
-3.412613864950044373e+00 6.244359402835381267e+00 2.532282897618231345e+02
-3.008573528350044324e+00 6.244359402835381267e+00 2.532253600743231345e+02
-2.604533191750044274e+00 6.244359402835381267e+00 2.532224303868231345e+02
-2.200492855150044225e+00 6.244359402835381267e+00 2.532195159581231394e+02
-1.796452399350044304e+00 6.244359402835381267e+00 2.532165862706231394e+02
-1.392411943450044154e+00 6.244359402835381267e+00 2.532136565831231394e+02
-9.883714876500441227e-01 6.244359402835381267e+00 2.532107268956231394e+02
-5.843311510500440731e-01 6.244359402835381267e+00 2.532077972081231394e+02
-1.802907250500441205e-01 6.244359402835381267e+00 2.532048827793231567e+02
2.237496711499558644e-01 6.244359402835381267e+00 2.532019530918231567e+02
6.277900971499558169e-01 6.244359402835381267e+00 2.531990234043231567e+02
1.031830433749955755e+00 6.244359402835381267e+00 2.531960937168231567e+02
1.435870889549955676e+00 6.244359402835381267e+00 2.531931640293231567e+02
1.839911345449955826e+00 6.244359402835381267e+00 2.531902496006231615e+02
2.243951801249955746e+00 6.244359402835381267e+00 2.531873199131231615e+02
2.647992137849955796e+00 6.244359402835381267e+00 2.531843902256231615e+02
3.052032474449955846e+00 6.244359402835381267e+00 2.531814605381231615e+02
3.456072811049955895e+00 6.244359402835381267e+00 2.531785308506231615e+02
3.860113386049955686e+00 6.244359402835381267e+00 2.531756164219231380e+02
4.264153484249955994e+00 6.244359402835381267e+00 2.531726867344231380e+02
4.668194297749955979e+00 6.244359402835381267e+00 2.531697570469231380e+02
5.072234634349956472e+00 6.244359402835381267e+00 2.531668273594231380e+02
5.476274970949956078e+00 6.244359402835381267e+00 2.531638976719231380e+02
5.880315307549956572e+00 6.244359402835381267e+00 2.531609832432231428e+02
6.284355644149956177e+00 6.244359402835381267e+00 2.531580535557231428e+02
6.688395980749955783e+00 6.244359402835381267e+00 2.531551238682231428e+02
7.092436317349956276e+00 6.244359402835381267e+00 2.531521941807231428e+02
-4.624735351650043569e+00 6.648399739435380873e+00 2.532395354893231456e+02
-4.220694538150043584e+00 6.648399739435380873e+00 2.532366058018231456e+02
-3.816654439950044164e+00 6.648399739435380873e+00 2.532336761143231456e+02
-3.412613864950044373e+00 6.648399739435380873e+00 2.532307464268231456e+02
-3.008573528350044324e+00 6.648399739435380873e+00 2.532278167393231456e+02
-2.604533191750044274e+00 6.648399739435380873e+00 2.532249023106231505e+02
-2.200492855150044225e+00 6.648399739435380873e+00 2.532219726231231505e+02
-1.796452399350044304e+00 6.648399739435380873e+00 2.532190429356231505e+02
-1.392411943450044154e+00 6.648399739435380873e+00 2.532161132481231505e+02
-9.883714876500441227e-01 6.648399739435380873e+00 2.532131835606231505e+02
-5.843311510500440731e-01 6.648399739435380873e+00 2.532102691319231553e+02
-1.802907250500441205e-01 6.648399739435380873e+00 2.532073394444231553e+02
2.237496711499558644e-01 6.648399739435380873e+00 2.532044097569231553e+02
6.277900971499558169e-01 6.648399739435380873e+00 2.532014800694231553e+02
1.031830433749955755e+00 6.648399739435380873e+00 2.531985503819231553e+02
1.435870889549955676e+00 6.648399739435380873e+00 2.531956359532231602e+02
1.839911345449955826e+00 6.648399739435380873e+00 2.531927062657231602e+02
2.243951801249955746e+00 6.648399739435380873e+00 2.531897765782231602e+02
2.647992137849955796e+00 6.648399739435380873e+00 2.531868468907231602e+02
3.052032474449955846e+00 6.648399739435380873e+00 2.531839172032231602e+02
3.456072811049955895e+00 6.648399739435380873e+00 2.531810027745231366e+02
3.860113386049955686e+00 6.648399739435380873e+00 2.531780730870231366e+02
4.264153484249955994e+00 6.648399739435380873e+00 2.531751433995231366e+02
4.668194297749955979e+00 6.648399739435380873e+00 2.531722137120231366e+02
5.072234634349956472e+00 6.648399739435380873e+00 2.531692840245231366e+02
5.476274970949956078e+00 6.648399739435380873e+00 2.531663695958231415e+02
5.880315307549956572e+00 6.648399739435380873e+00 2.531634399083231415e+02
6.284355644149956177e+00 6.648399739435380873e+00 2.531605102208231415e+02
6.688395980749955783e+00 6.648399739435380873e+00 2.531575805333231415e+02
7.092436317349956276e+00 6.648399739435380873e+00 2.531546508458231415e+02
-4.624735351650043569e+00 7.052440076035381367e+00 2.532419921543231567e+02
-4.220694538150043584e+00 7.052440076035381367e+00 2.532390624668231567e+02
-3.816654439950044164e+00 7.052440076035381367e+00 2.532361327793231567e+02
-3.412613864950044373e+00 7.052440076035381367e+00 2.532332030918231567e+02
-3.008573528350044324e+00 7.052440076035381367e+00 2.532302886631231615e+02
-2.604533191750044274e+00 7.052440076035381367e+00 2.532273589756231615e+02
-2.200492855150044225e+00 7.052440076035381367e+00 2.532244292881231615e+02
-1.796452399350044304e+00 7.052440076035381367e+00 2.532214996006231615e+02
-1.392411943450044154e+00 7.052440076035381367e+00 2.532185699131231615e+02
-9.883714876500441227e-01 7.052440076035381367e+00 2.532156554844231380e+02
-5.843311510500440731e-01 7.052440076035381367e+00 2.532127257969231380e+02
-1.802907250500441205e-01 7.052440076035381367e+00 2.532097961094231380e+02
2.237496711499558644e-01 7.052440076035381367e+00 2.532068664219231380e+02
6.277900971499558169e-01 7.052440076035381367e+00 2.532039367344231380e+02
1.031830433749955755e+00 7.052440076035381367e+00 2.532010223057231428e+02
1.435870889549955676e+00 7.052440076035381367e+00 2.531980926182231428e+02
1.839911345449955826e+00 7.052440076035381367e+00 2.531951629307231428e+02
2.243951801249955746e+00 7.052440076035381367e+00 2.531922332432231428e+02
2.647992137849955796e+00 7.052440076035381367e+00 2.531893035557231428e+02
3.052032474449955846e+00 7.052440076035381367e+00 2.531863891270231477e+02
3.456072811049955895e+00 7.052440076035381367e+00 2.531834594395231477e+02
3.860113386049955686e+00 7.052440076035381367e+00 2.531805297520231477e+02
4.264153484249955994e+00 7.052440076035381367e+00 2.531776000645231477e+02
4.668194297749955979e+00 7.052440076035381367e+00 2.531746703770231477e+02
5.072234634349956472e+00 7.052440076035381367e+00 2.531717559483231526e+02
5.476274970949956078e+00 7.052440076035381367e+00 2.531688262608231526e+02
5.880315307549956572e+00 7.052440076035381367e+00 2.531658965733231526e+02
6.284355644149956177e+00 7.052440076035381367e+00 2.531629668858231526e+02
6.688395980749955783e+00 7.052440076035381367e+00 2.531600371983231526e+02
7.092436317349956276e+00 7.052440076035381367e+00 2.531571227696231574e+02
7.496477130849956261e+00 7.052440076035381367e+00 2.531541930821231574e+02
-4.624735351650043569e+00 7.456480889535381351e+00 2.532444488194231553e+02
-4.220694538150043584e+00 7.456480889535381351e+00 2.532415191319231553e+02
-3.816654439950044164e+00 7.456480889535381351e+00 2.532385894444231553e+02
-3.412613864950044373e+00 7.456480889535381351e+00 2.532356750157231602e+02
-3.008573528350044324e+00 7.456480889535381351e+00 2.532327453282231602e+02
-2.604533191750044274e+00 7.456480889535381351e+00 2.532298156407231602e+02
-2.200492855150044225e+00 7.456480889535381351e+00 2.532268859532231602e+02
-1.796452399350044304e+00 7.456480889535381351e+00 2.532239562657231602e+02
-1.392411943450044154e+00 7.456480889535381351e+00 2.532210418370231366e+02
-9.883714876500441227e-01 7.456480889535381351e+00 2.532181121495231366e+02
-5.843311510500440731e-01 7.456480889535381351e+00 2.532151824620231366e+02
-1.802907250500441205e-01 7.456480889535381351e+00 2.532122527745231366e+02
2.237496711499558644e-01 7.456480889535381351e+00 2.532093230870231366e+02
6.277900971499558169e-01 7.456480889535381351e+00 2.532064086583231415e+02
1.031830433749955755e+00 7.456480889535381351e+00 2.532034789708231415e+02
1.435870889549955676e+00 7.456480889535381351e+00 2.532005492833231415e+02
1.839911345449955826e+00 7.456480889535381351e+00 2.531976195958231415e+02
2.243951801249955746e+00 7.456480889535381351e+00 2.531946899083231415e+02
2.647992137849955796e+00 7.456480889535381351e+00 2.531917754795231588e+02
3.052032474449955846e+00 7.456480889535381351e+00 2.531888457920231588e+02
3.456072811049955895e+00 7.456480889535381351e+00 2.531859161045231588e+02
3.860113386049955686e+00 7.456480889535381351e+00 2.531829864170231588e+02
4.264153484249955994e+00 7.456480889535381351e+00 2.531800567295231588e+02
4.668194297749955979e+00 7.456480889535381351e+00 2.531771423008231352e+02
5.072234634349956472e+00 7.456480889535381351e+00 2.531742126133231352e+02
5.476274970949956078e+00 7.456480889535381351e+00 2.531712829258231352e+02
5.880315307549956572e+00 7.456480889535381351e+00 2.531683532383231352e+02
6.284355644149956177e+00 7.456480889535381351e+00 2.531654235508231352e+02
6.688395980749955783e+00 7.456480889535381351e+00 2.531625091221231401e+02
7.092436317349956276e+00 7.456480889535381351e+00 2.531595794346231401e+02
-4.624735351650043569e+00 7.860521226135380957e+00 2.532469054844231380e+02
-4.220694538150043584e+00 7.860521226135380957e+00 2.532439910557231428e+02
-3.816654439950044164e+00 7.860521226135380957e+00 2.532410613682231428e+02
-3.412613864950044373e+00 7.860521226135380957e+00 2.532381316807231428e+02
-3.008573528350044324e+00 7.860521226135380957e+00 2.532352019932231428e+02
-2.604533191750044274e+00 7.860521226135380957e+00 2.532322723057231428e+02
-2.200492855150044225e+00 7.860521226135380957e+00 2.532293578770231477e+02
-1.796452399350044304e+00 7.860521226135380957e+00 2.532264281895231477e+02
-1.392411943450044154e+00 7.860521226135380957e+00 2.532234985020231477e+02
-9.883714876500441227e-01 7.860521226135380957e+00 2.532205688145231477e+02
-5.843311510500440731e-01 7.860521226135380957e+00 2.532176391270231477e+02
-1.802907250500441205e-01 7.860521226135380957e+00 2.532147094395231477e+02
2.237496711499558644e-01 7.860521226135380957e+00 2.532117950108231526e+02
6.277900971499558169e-01 7.860521226135380957e+00 2.532088653233231526e+02
1.031830433749955755e+00 7.860521226135380957e+00 2.532059356358231526e+02
1.435870889549955676e+00 7.860521226135380957e+00 2.532030059483231526e+02
1.839911345449955826e+00 7.860521226135380957e+00 2.532000762608231526e+02
2.243951801249955746e+00 7.860521226135380957e+00 2.531971618321231574e+02
2.647992137849955796e+00 7.860521226135380957e+00 2.531942321446231574e+02
3.052032474449955846e+00 7.860521226135380957e+00 2.531913024571231574e+02
3.456072811049955895e+00 7.860521226135380957e+00 2.531883727696231574e+02
3.860113386049955686e+00 7.860521226135380957e+00 2.531854430821231574e+02
4.264153484249955994e+00 7.860521226135380957e+00 2.531825286534231338e+02
4.668194297749955979e+00 7.860521226135380957e+00 2.531795989659231338e+02
5.072234634349956472e+00 7.860521226135380957e+00 2.531766692784231338e+02
5.476274970949956078e+00 7.860521226135380957e+00 2.531737395909231338e+02
5.880315307549956572e+00 7.860521226135380957e+00 2.531708099034231338e+02
6.284355644149956177e+00 7.860521226135380957e+00 2.531678954747231387e+02
6.688395980749955783e+00 7.860521226135380957e+00 2.531649657872231387e+02
7.092436317349956276e+00 7.860521226135380957e+00 2.531620360997231387e+02
-5.028775688250044062e+00 8.264561562735380562e+00 2.532522918370231366e+02
-4.624735351650043569e+00 8.264561562735380562e+00 2.532493774083231415e+02
-4.220694538150043584e+00 8.264561562735380562e+00 2.532464477208231415e+02
-3.816654439950044164e+00 8.264561562735380562e+00 2.532435180333231415e+02
-3.412613864950044373e+00 8.264561562735380562e+00 2.532405883458231415e+02
-3.008573528350044324e+00 8.264561562735380562e+00 2.532376586583231415e+02
-2.604533191750044274e+00 8.264561562735380562e+00 2.532347442295231588e+02
-2.200492855150044225e+00 8.264561562735380562e+00 2.532318145420231588e+02
-1.796452399350044304e+00 8.264561562735380562e+00 2.532288848545231588e+02
-1.392411943450044154e+00 8.264561562735380562e+00 2.532259551670231588e+02
-9.883714876500441227e-01 8.264561562735380562e+00 2.532230254795231588e+02
-5.843311510500440731e-01 8.264561562735380562e+00 2.532201110508231352e+02
-1.802907250500441205e-01 8.264561562735380562e+00 2.532171813633231352e+02
2.237496711499558644e-01 8.264561562735380562e+00 2.532142516758231352e+02
6.277900971499558169e-01 8.264561562735380562e+00 2.532113219883231352e+02
1.031830433749955755e+00 8.264561562735380562e+00 2.532083923008231352e+02
1.435870889549955676e+00 8.264561562735380562e+00 2.532054778721231401e+02
1.839911345449955826e+00 8.264561562735380562e+00 2.532025481846231401e+02
2.243951801249955746e+00 8.264561562735380562e+00 2.531996184971231401e+02
2.647992137849955796e+00 8.264561562735380562e+00 2.531966888096231401e+02
3.052032474449955846e+00 8.264561562735380562e+00 2.531937591221231401e+02
3.456072811049955895e+00 8.264561562735380562e+00 2.531908446934231449e+02
3.860113386049955686e+00 8.264561562735380562e+00 2.531879150059231449e+02
4.264153484249955994e+00 8.264561562735380562e+00 2.531849853184231449e+02
4.668194297749955979e+00 8.264561562735380562e+00 2.531820556309231449e+02
5.072234634349956472e+00 8.264561562735380562e+00 2.531791259434231449e+02
5.476274970949956078e+00 8.264561562735380562e+00 2.531762115147231498e+02
5.880315307549956572e+00 8.264561562735380562e+00 2.531732818272231498e+02
6.284355644149956177e+00 8.264561562735380562e+00 2.531703521397231498e+02
6.688395980749955783e+00 8.264561562735380562e+00 2.531674224522231498e+02
7.092436317349956276e+00 8.264561562735380562e+00 2.531644927647231498e+02
-5.028775688250044062e+00 8.668601899335381944e+00 2.532547637608231526e+02
-4.624735351650043569e+00 8.668601899335381944e+00 2.532518340733231526e+02
-4.220694538150043584e+00 8.668601899335381944e+00 2.532489043858231526e+02
-3.816654439950044164e+00 8.668601899335381944e+00 2.532459746983231526e+02
-3.412613864950044373e+00 8.668601899335381944e+00 2.532430450108231526e+02
-3.008573528350044324e+00 8.668601899335381944e+00 2.532401305821231574e+02
-2.604533191750044274e+00 8.668601899335381944e+00 2.532372008946231574e+02
-2.200492855150044225e+00 8.668601899335381944e+00 2.532342712071231574e+02
-1.796452399350044304e+00 8.668601899335381944e+00 2.532313415196231574e+02
-1.392411943450044154e+00 8.668601899335381944e+00 2.532284118321231574e+02
-9.883714876500441227e-01 8.668601899335381944e+00 2.532254974034231338e+02
-5.843311510500440731e-01 8.668601899335381944e+00 2.532225677159231338e+02
-1.802907250500441205e-01 8.668601899335381944e+00 2.532196380284231338e+02
2.237496711499558644e-01 8.668601899335381944e+00 2.532167083409231338e+02
6.277900971499558169e-01 8.668601899335381944e+00 2.532137786534231338e+02
1.031830433749955755e+00 8.668601899335381944e+00 2.532108642247231387e+02
1.435870889549955676e+00 8.668601899335381944e+00 2.532079345372231387e+02
1.839911345449955826e+00 8.668601899335381944e+00 2.532050048497231387e+02
2.243951801249955746e+00 8.668601899335381944e+00 2.532020751622231387e+02
2.647992137849955796e+00 8.668601899335381944e+00 2.531991454747231387e+02
3.052032474449955846e+00 8.668601899335381944e+00 2.531962310459231560e+02
3.456072811049955895e+00 8.668601899335381944e+00 2.531933013584231560e+02
3.860113386049955686e+00 8.668601899335381944e+00 2.531903716709231560e+02
4.264153484249955994e+00 8.668601899335381944e+00 2.531874419834231560e+02
4.668194297749955979e+00 8.668601899335381944e+00 2.531845122959231560e+02
5.072234634349956472e+00 8.668601899335381944e+00 2.531815978672231608e+02
5.476274970949956078e+00 8.668601899335381944e+00 2.531786681797231608e+02
5.880315307549956572e+00 8.668601899335381944e+00 2.531757384922231608e+02
6.284355644149956177e+00 8.668601899335381944e+00 2.531728088047231608e+02
6.688395980749955783e+00 8.668601899335381944e+00 2.531698791172231608e+02
7.092436317349956276e+00 8.668601899335381944e+00 2.531669646885231373e+02
-4.624735351650043569e+00 9.072642235935381549e+00 2.532542907383231352e+02
-4.220694538150043584e+00 9.072642235935381549e+00 2.532513610508231352e+02
-3.816654439950044164e+00 9.072642235935381549e+00 2.532484313633231352e+02
-3.412613864950044373e+00 9.072642235935381549e+00 2.532455169346231401e+02
-3.008573528350044324e+00 9.072642235935381549e+00 2.532425872471231401e+02
-2.604533191750044274e+00 9.072642235935381549e+00 2.532396575596231401e+02
-2.200492855150044225e+00 9.072642235935381549e+00 2.532367278721231401e+02
-1.796452399350044304e+00 9.072642235935381549e+00 2.532337981846231401e+02
-1.392411943450044154e+00 9.072642235935381549e+00 2.532308837559231449e+02
-9.883714876500441227e-01 9.072642235935381549e+00 2.532279540684231449e+02
-5.843311510500440731e-01 9.072642235935381549e+00 2.532250243809231449e+02
-1.802907250500441205e-01 9.072642235935381549e+00 2.532220946934231449e+02
2.237496711499558644e-01 9.072642235935381549e+00 2.532191650059231449e+02
6.277900971499558169e-01 9.072642235935381549e+00 2.532162505772231498e+02
1.031830433749955755e+00 9.072642235935381549e+00 2.532133208897231498e+02
1.435870889549955676e+00 9.072642235935381549e+00 2.532103912022231498e+02
1.839911345449955826e+00 9.072642235935381549e+00 2.532074615147231498e+02
2.243951801249955746e+00 9.072642235935381549e+00 2.532045318272231498e+02
2.647992137849955796e+00 9.072642235935381549e+00 2.532016173985231546e+02
3.052032474449955846e+00 9.072642235935381549e+00 2.531986877110231546e+02
3.456072811049955895e+00 9.072642235935381549e+00 2.531957580235231546e+02
3.860113386049955686e+00 9.072642235935381549e+00 2.531928283360231546e+02
4.264153484249955994e+00 9.072642235935381549e+00 2.531898986485231546e+02
4.668194297749955979e+00 9.072642235935381549e+00 2.531869842198231595e+02
5.072234634349956472e+00 9.072642235935381549e+00 2.531840545323231595e+02
5.476274970949956078e+00 9.072642235935381549e+00 2.531811248448231595e+02
5.880315307549956572e+00 9.072642235935381549e+00 2.531781951573231595e+02
6.284355644149956177e+00 9.072642235935381549e+00 2.531752654698231595e+02
6.688395980749955783e+00 9.072642235935381549e+00 2.531723510411231359e+02
7.092436317349956276e+00 9.072642235935381549e+00 2.531694213536231359e+02
-4.220694538150043584e+00 9.476682572535381155e+00 2.532538177159231338e+02
-3.816654439950044164e+00 9.476682572535381155e+00 2.532509032872231387e+02
-3.412613864950044373e+00 9.476682572535381155e+00 2.532479735997231387e+02
-3.008573528350044324e+00 9.476682572535381155e+00 2.532450439122231387e+02
-2.604533191750044274e+00 9.476682572535381155e+00 2.532421142247231387e+02
-2.200492855150044225e+00 9.476682572535381155e+00 2.532391845372231387e+02
-1.796452399350044304e+00 9.476682572535381155e+00 2.532362701084231560e+02
-1.392411943450044154e+00 9.476682572535381155e+00 2.532333404209231560e+02
-9.883714876500441227e-01 9.476682572535381155e+00 2.532304107334231560e+02
-5.843311510500440731e-01 9.476682572535381155e+00 2.532274810459231560e+02
-1.802907250500441205e-01 9.476682572535381155e+00 2.532245513584231560e+02
2.237496711499558644e-01 9.476682572535381155e+00 2.532216369297231608e+02
6.277900971499558169e-01 9.476682572535381155e+00 2.532187072422231608e+02
1.031830433749955755e+00 9.476682572535381155e+00 2.532157775547231608e+02
1.435870889549955676e+00 9.476682572535381155e+00 2.532128478672231608e+02
1.839911345449955826e+00 9.476682572535381155e+00 2.532099181797231608e+02
2.243951801249955746e+00 9.476682572535381155e+00 2.532070037510231373e+02
2.647992137849955796e+00 9.476682572535381155e+00 2.532040740635231373e+02
3.052032474449955846e+00 9.476682572535381155e+00 2.532011443760231373e+02
3.456072811049955895e+00 9.476682572535381155e+00 2.531982146885231373e+02
3.860113386049955686e+00 9.476682572535381155e+00 2.531952850010231373e+02
4.264153484249955994e+00 9.476682572535381155e+00 2.531923705723231421e+02
4.668194297749955979e+00 9.476682572535381155e+00 2.531894408848231421e+02
5.072234634349956472e+00 9.476682572535381155e+00 2.531865111973231421e+02
5.476274970949956078e+00 9.476682572535381155e+00 2.531835815098231421e+02
5.880315307549956572e+00 9.476682572535381155e+00 2.531806518223231421e+02
6.284355644149956177e+00 9.476682572535381155e+00 2.531777373936231470e+02
6.688395980749955783e+00 9.476682572535381155e+00 2.531748077061231470e+02
7.092436317349956276e+00 9.476682572535381155e+00 2.531718780186231470e+02
7.496477130849956261e+00 9.476682572535381155e+00 2.531689483311231470e+02
-4.624735351650043569e+00 9.880722909135380760e+00 2.532592193272231498e+02
-4.220694538150043584e+00 9.880722909135380760e+00 2.532562896397231498e+02
-3.816654439950044164e+00 9.880722909135380760e+00 2.532533599522231498e+02
-3.412613864950044373e+00 9.880722909135380760e+00 2.532504302647231498e+02
-3.008573528350044324e+00 9.880722909135380760e+00 2.532475005772231498e+02
-2.604533191750044274e+00 9.880722909135380760e+00 2.532445708897231498e+02
-2.200492855150044225e+00 9.880722909135380760e+00 2.532416564610231546e+02
-1.796452399350044304e+00 9.880722909135380760e+00 2.532387267735231546e+02
-1.392411943450044154e+00 9.880722909135380760e+00 2.532357970860231546e+02
-9.883714876500441227e-01 9.880722909135380760e+00 2.532328673985231546e+02
-5.843311510500440731e-01 9.880722909135380760e+00 2.532299377110231546e+02
-1.802907250500441205e-01 9.880722909135380760e+00 2.532270232823231595e+02
2.237496711499558644e-01 9.880722909135380760e+00 2.532240935948231595e+02
6.277900971499558169e-01 9.880722909135380760e+00 2.532211639073231595e+02
1.031830433749955755e+00 9.880722909135380760e+00 2.532182342198231595e+02
1.435870889549955676e+00 9.880722909135380760e+00 2.532153045323231595e+02
1.839911345449955826e+00 9.880722909135380760e+00 2.532123901036231359e+02
2.243951801249955746e+00 9.880722909135380760e+00 2.532094604161231359e+02
2.647992137849955796e+00 9.880722909135380760e+00 2.532065307286231359e+02
3.052032474449955846e+00 9.880722909135380760e+00 2.532036010411231359e+02
3.456072811049955895e+00 9.880722909135380760e+00 2.532006713536231359e+02
3.860113386049955686e+00 9.880722909135380760e+00 2.531977569249231408e+02
4.264153484249955994e+00 9.880722909135380760e+00 2.531948272374231408e+02
4.668194297749955979e+00 9.880722909135380760e+00 2.531918975499231408e+02
5.072234634349956472e+00 9.880722909135380760e+00 2.531889678624231408e+02
5.476274970949956078e+00 9.880722909135380760e+00 2.531860381749231408e+02
5.880315307549956572e+00 9.880722909135380760e+00 2.531831237461231581e+02
6.284355644149956177e+00 9.880722909135380760e+00 2.531801940586231581e+02
