-1.033976572298162644e+00 -1.231696398512043800e+01 2.547984279477577729e+02
9.862254479021820286e-01 -1.231696398512046464e+01 2.548111212310577969e+02
1.390265851902234395e+00 -1.231696398512046819e+01 2.548136598877577796e+02
-1.033976572298122232e+00 -1.191292358112043104e+01 2.547977614437577927e+02
-6.299361682981514665e-01 -1.191292358112043459e+01 2.548003001003577879e+02
-2.258957641980037789e-01 -1.191292358112046479e+01 2.548028387570577991e+02
1.781446398019596589e-01 -1.191292358112046834e+01 2.548053774137577818e+02
5.821850439021623025e-01 -1.191292358112045413e+01 2.548079160703577770e+02
9.862254479021029807e-01 -1.191292358112045413e+01 2.548104547270577882e+02
1.390265851902181993e+00 -1.191292358112046479e+01 2.548129933837577994e+02
1.794306256002124789e+00 -1.191292358112044880e+01 2.548155320403577946e+02
2.198346660002221231e+00 -1.191292358112044525e+01 2.548180706970577774e+02
-1.033976572298083152e+00 -1.150888317712041342e+01 2.547970949397577840e+02
-6.299361682981352573e-01 -1.150888317712041164e+01 2.547996335963577792e+02
-2.258957641981349795e-01 -1.150888317712041520e+01 2.548021722530577904e+02
1.781446398020448962e-01 -1.150888317712042941e+01 2.548047109097577732e+02
5.821850439021615253e-01 -1.150888317712044540e+01 2.548072495663577968e+02
9.862254479021013154e-01 -1.150888317712043829e+01 2.548097882230577795e+02
1.390265851902082295e+00 -1.150888317712043296e+01 2.548123268797577907e+02
1.794306256002121680e+00 -1.150888317712041697e+01 2.548148655363577859e+02
-1.033976572297971908e+00 -1.110484277302044731e+01 2.547964284356577878e+02
-6.299361682980099131e-01 -1.110484277302040468e+01 2.547989670923577989e+02
-2.258957641980071096e-01 -1.110484277302043310e+01 2.548015057490577817e+02
1.781446398020819222e-01 -1.110484277302043132e+01 2.548040444056577769e+02
5.821850439020703760e-01 -1.110484277302042599e+01 2.548065830623577881e+02
9.862254479020643450e-01 -1.110484277302043843e+01 2.548091217190577993e+02
1.390265851902133809e+00 -1.110484277302042777e+01 2.548116603756577945e+02
1.794306256002060396e+00 -1.110484277302039935e+01 2.548141990323577772e+02
-1.033976572297929941e+00 -1.070080236902049542e+01 2.547957619316577791e+02
-6.299361682980041399e-01 -1.070080236902046167e+01 2.547983005883577903e+02
-2.258957641980096631e-01 -1.070080236902040838e+01 2.548008392449577855e+02
1.781446398020803401e-01 -1.070080236902041548e+01 2.548033779016577967e+02
5.821850439020358481e-01 -1.070080236902045101e+01 2.548059165583577794e+02
9.862254479021014264e-01 -1.070080236902043858e+01 2.548084552149577746e+02
1.390265851902045213e+00 -1.070080236902043325e+01 2.548109938716577858e+02
1.794306256002027755e+00 -1.070080236902044213e+01 2.548135325283577970e+02
-6.299361682979111032e-01 -1.029676196492049733e+01 2.547976340842577940e+02
-2.258957641980223197e-01 -1.029676196492046536e+01 2.548001727409577768e+02
1.781446398019932709e-01 -1.029676196492043694e+01 2.548027113976577880e+02
5.821850439020436196e-01 -1.029676196492045825e+01 2.548052500543577992e+02
9.862254479021038689e-01 -1.029676196492046358e+01 2.548077887109577944e+02
1.390265851902104721e+00 -1.029676196492047247e+01 2.548103273676577771e+02
1.794306256001992228e+00 -1.029676196492049733e+01 2.548128660243577883e+02
2.198346660002015174e+00 -1.029676196492049911e+01 2.548154046809577835e+02
-6.299361682978927846e-01 -9.892721560920497481e+00 2.547969675802577854e+02
-2.258957641980383901e-01 -9.892721560920490376e+00 2.547995062369577965e+02
1.781446398019804200e-01 -9.892721560920492152e+00 2.548020448936577793e+02
5.821850439020636037e-01 -9.892721560920472612e+00 2.548045835502577745e+02
9.862254479019829656e-01 -9.892721560920517021e+00 2.548071222069577857e+02
1.390265851902129146e+00 -9.892721560920529456e+00 2.548096608636577969e+02
1.794306256002029976e+00 -9.892721560920504587e+00 2.548121995202577921e+02
2.198346660002057362e+00 -9.892721560920522350e+00 2.548147381769577748e+02
-1.033976572298037633e+00 -9.488681156820497620e+00 2.547937624195577939e+02
-6.299361682978420474e-01 -9.488681156820483409e+00 2.547963010762577767e+02
-2.258957641979807140e-01 -9.488681156820470974e+00 2.547988397329577879e+02
1.781446398020730959e-01 -9.488681156820454987e+00 2.548013783895577831e+02
5.821850439021700740e-01 -9.488681156820460316e+00 2.548039170462577943e+02
9.862254479021053122e-01 -9.488681156820478080e+00 2.548064557029577770e+02
1.390265851902085181e+00 -9.488681156820504725e+00 2.548089943595578006e+02
1.794306256002118127e+00 -9.488681156820492291e+00 2.548115330162577834e+02
2.198346660002215458e+00 -9.488681156820469198e+00 2.548140716729577946e+02
-1.033976572298133334e+00 -9.084640752820504872e+00 2.547930959155577852e+02
-6.299361682979925936e-01 -9.084640752820465792e+00 2.547956345722577964e+02
-2.258957641978976694e-01 -9.084640752820410725e+00 2.547981732288577916e+02
1.781446398020790356e-01 -9.084640752820401843e+00 2.548007118855577744e+02
5.821850439020722634e-01 -9.084640752820446252e+00 2.548032505422577856e+02
9.862254479021983489e-01 -9.084640752820444476e+00 2.548057891989577968e+02
1.390265851902212635e+00 -9.084640752820476450e+00 2.548083278555577920e+02
1.794306256002271560e+00 -9.084640752820469345e+00 2.548108665122577747e+02
2.198346660002308717e+00 -9.084640752820508425e+00 2.548134051689577859e+02
-1.033976572298094476e+00 -8.680600348820522782e+00 2.547924294115577766e+02
-6.299361682982640431e-01 -8.680600348820499690e+00 2.547949680682577878e+02
-2.258957641982125286e-01 -8.680600348820492584e+00 2.547975067248577830e+02
1.781446398020494204e-01 -8.680600348820515677e+00 2.548000453815577941e+02
5.821850439022482337e-01 -8.680600348820531664e+00 2.548025840382577769e+02
9.862254479024521459e-01 -8.680600348820529888e+00 2.548051226948578005e+02
1.390265851902581673e+00 -8.680600348820561862e+00 2.548076613515577833e+02
1.794306256002511812e+00 -8.680600348820529888e+00 2.548102000082577945e+02
-1.033976572298252350e+00 -8.276559944720505158e+00 2.547917629075577963e+02
-6.299361682981913235e-01 -8.276559944720519368e+00 2.547943015641577915e+02
-2.258957641980550712e-01 -8.276559944720506934e+00 2.547968402208577743e+02
1.781446398021619137e-01 -8.276559944720521145e+00 2.547993788775577855e+02
5.821850439024632839e-01 -8.276559944720528250e+00 2.548019175341577807e+02
9.862254479025418519e-01 -8.276559944720533579e+00 2.548044561908577919e+02
1.390265851902538152e+00 -8.276559944720537132e+00 2.548069948475577746e+02
1.794306256002654809e+00 -8.276559944720515816e+00 2.548095335041577982e+02
-1.033976572298036301e+00 -7.872519540720580800e+00 2.547910964034578001e+02
-6.299361682979532917e-01 -7.872519540720559483e+00 2.547936350601577828e+02
-2.258957641979028319e-01 -7.872519540720540832e+00 2.547961737168577940e+02
1.781446398021392652e-01 -7.872519540720519515e+00 2.547987123734577892e+02
5.821850439021849510e-01 -7.872519540720494646e+00 2.548012510301578004e+02
9.862254479023614406e-01 -7.872519540720513298e+00 2.548037896868577832e+02
1.390265851902489969e+00 -7.872519540720537279e+00 2.548063283434577784e+02
1.794306256002388134e+00 -7.872519540720554154e+00 2.548088670001577896e+02
-1.033976572297770513e+00 -7.468479136620528536e+00 2.547904298994577914e+02
-6.299361682981619026e-01 -7.468479136620515213e+00 2.547929685561577742e+02
-2.258957641981123587e-01 -7.468479136620527647e+00 2.547955072128577854e+02
1.781446398019603805e-01 -7.468479136620515213e+00 2.547980458694577806e+02
5.821850439020183066e-01 -7.468479136620500114e+00 2.548005845261577917e+02
9.862254479020851061e-01 -7.468479136620499226e+00 2.548031231828577745e+02
1.390265851902304561e+00 -7.468479136620540970e+00 2.548056618394577981e+02
1.794306256002458966e+00 -7.468479136620524983e+00 2.548082004961577809e+02
-1.033976572297882646e+00 -7.064438732620486050e+00 2.547897633954577827e+02
-6.299361682980104682e-01 -7.064438732620471839e+00 2.547923020521577939e+02
-2.258957641980996744e-01 -7.064438732620470951e+00 2.547948407087577891e+02
1.781446398018463884e-01 -7.064438732620456740e+00 2.547973793654578003e+02
5.821850439019077283e-01 -7.064438732620473615e+00 2.547999180221577831e+02
9.862254479019915143e-01 -7.064438732620457628e+00 2.548024566787577783e+02
1.390265851902373617e+00 -7.064438732620454964e+00 2.548049953354577895e+02
1.794306256002657918e+00 -7.064438732620474504e+00 2.548075339921578006e+02
2.198346660002513886e+00 -7.064438732620481609e+00 2.548100726487577958e+02
-6.299361682979552901e-01 -6.660398328620468433e+00 2.547916355480577977e+02
-2.258957641981030329e-01 -6.660398328620439123e+00 2.547941742047577804e+02
1.781446398019158883e-01 -6.660398328620443564e+00 2.547967128614577916e+02
5.821850439021380996e-01 -6.660398328620437347e+00 2.547992515180577868e+02
9.862254479021872466e-01 -6.660398328620445341e+00 2.548017901747577980e+02
1.390265851902412475e+00 -6.660398328620471986e+00 2.548043288314577808e+02
1.794306256002538902e+00 -6.660398328620473762e+00 2.548068674880577760e+02
2.198346660002241215e+00 -6.660398328620460440e+00 2.548094061447577872e+02
-6.299361682978653620e-01 -6.256357924520475677e+00 2.547909690440577890e+02
-2.258957641979791042e-01 -6.256357924520416169e+00 2.547935077007578002e+02
1.781446398021139244e-01 -6.256357924520382419e+00 2.547960463574577830e+02
5.821850439021911683e-01 -6.256357924520375313e+00 2.547985850140577782e+02
9.862254479021281828e-01 -6.256357924520379754e+00 2.548011236707577893e+02
1.390265851902269922e+00 -6.256357924520422387e+00 2.548036623274578005e+02
1.794306256002343947e+00 -6.256357924520454361e+00 2.548062009840577957e+02
-1.033976572297793162e+00 -5.852317520520489147e+00 2.547877638833577976e+02
-6.299361682978853461e-01 -5.852317520520459837e+00 2.547903025400577803e+02
-2.258957641978396325e-01 -5.852317520520434968e+00 2.547928411967577915e+02
1.781446398023347477e-01 -5.852317520520434080e+00 2.547953798533577867e+02
5.821850439024119916e-01 -5.852317520520426086e+00 2.547979185100577979e+02
9.862254479023370157e-01 -5.852317520520383454e+00 2.548004571667577807e+02
1.390265851902250605e+00 -5.852317520520412764e+00 2.548029958233577759e+02
1.794306256002215161e+00 -5.852317520520427863e+00 2.548055344800577871e+02
-1.033976572297878649e+00 -5.448277116420526589e+00 2.547870973793577889e+02
-6.299361682977727694e-01 -5.448277116420507937e+00 2.547896360360578001e+02
-2.258957641974793373e-01 -5.448277116420507049e+00 2.547921746926577953e+02
1.781446398024299216e-01 -5.448277116420491950e+00 2.547947133493577780e+02
5.821850439022928647e-01 -5.448277116420495503e+00 2.547972520060577892e+02
9.862254479023300213e-01 -5.448277116420497279e+00 2.547997906626577844e+02
1.390265851902167116e+00 -5.448277116420500832e+00 2.548023293193577956e+02
1.794306256002145217e+00 -5.448277116420507049e+00 2.548048679760577784e+02
2.198346660002061803e+00 -5.448277116420522148e+00 2.548074066326577736e+02
-1.033976572297879315e+00 -5.044236712420518742e+00 2.547864308753577802e+02
-6.299361682977526744e-01 -5.044236712420523183e+00 2.547889695319577754e+02
-2.258957641976550579e-01 -5.044236712420494761e+00 2.547915081886577866e+02
1.781446398023226185e-01 -5.044236712420496538e+00 2.547940468453577978e+02
5.821850439022316914e-01 -5.044236712420478774e+00 2.547965855020577806e+02
9.862254479022245501e-01 -5.044236712420478774e+00 2.547991241586577758e+02
1.390265851902274585e+00 -5.044236712420499202e+00 2.548016628153577869e+02
1.794306256002315081e+00 -5.044236712420533841e+00 2.548042014720577981e+02
2.198346660002161279e+00 -5.044236712420555158e+00 2.548067401286577933e+02
-1.033976572298009655e+00 -4.640196308420479809e+00 2.547857643713578000e+02
-6.299361682980372246e-01 -4.640196308420502014e+00 2.547883030279577952e+02
-2.258957641979233988e-01 -4.640196308420450499e+00 2.547908416846577779e+02
1.781446398021625521e-01 -4.640196308420456717e+00 2.547933803413577891e+02
5.821850439021951651e-01 -4.640196308420483362e+00 2.547959189979577843e+02
9.862254479024591403e-01 -4.640196308420486027e+00 2.547984576546577955e+02
1.390265851902569461e+00 -4.640196308420513560e+00 2.548009963113577783e+02
1.794306256002446531e+00 -4.640196308420544646e+00 2.548035349679577735e+02
-6.299361682981186039e-01 -4.236155904320468402e+00 2.547876365239577865e+02
-2.258957641982869413e-01 -4.236155904320527910e+00 2.547901751806577977e+02
1.781446398020452015e-01 -4.236155904320542120e+00 2.547927138372577929e+02
5.821850439023009693e-01 -4.236155904320575871e+00 2.547952524939577756e+02
9.862254479025477361e-01 -4.236155904320590082e+00 2.547977911506577868e+02
1.390265851902489969e+00 -4.236155904320568766e+00 2.548003298072577820e+02
1.794306256002395905e+00 -4.236155904320591858e+00 2.548028684639577932e+02
-6.299361682982532740e-01 -3.832115500320455226e+00 2.547869700199577778e+02
-2.258957641983958542e-01 -3.832115500320444124e+00 2.547895086765577730e+02
1.781446398016232890e-01 -3.832115500320450341e+00 2.547920473332577842e+02
5.821850439019363721e-01 -3.832115500320461887e+00 2.547945859899577954e+02
9.862254479022015685e-01 -3.832115500320474766e+00 2.547971246465577906e+02
1.390265851902165117e+00 -3.832115500320481871e+00 2.547996633032577734e+02
1.794306256002192068e+00 -3.832115500320484536e+00 2.548022019599577845e+02
-6.299361682985333832e-01 -3.428075096220476681e+00 2.547863035159577976e+02
-2.258957641986939213e-01 -3.428075096220470019e+00 2.547888421725577928e+02
1.781446398014100152e-01 -3.428075096220472684e+00 2.547913808292577755e+02
5.821850439015735512e-01 -3.428075096220475348e+00 2.547939194859577867e+02
9.862254479017815711e-01 -3.428075096220471796e+00 2.547964581425577819e+02
1.390265851901762995e+00 -3.428075096220472240e+00 2.547989967992577931e+02
1.794306256001852562e+00 -3.428075096220477125e+00 2.548015354559577759e+02
-1.033976572298186181e+00 -3.024034692220530562e+00 2.547830983552577777e+02
-6.299361682983933841e-01 -3.024034692220501697e+00 2.547856370118577729e+02
-2.258957641983562747e-01 -3.024034692220502585e+00 2.547881756685577841e+02
1.781446398017955401e-01 -3.024034692220500808e+00 2.547907143252577953e+02
5.821850439018509960e-01 -3.024034692220500364e+00 2.547932529818577905e+02
9.862254479018848219e-01 -3.024034692220500364e+00 2.547957916385577732e+02
1.390265851901657745e+00 -3.024034692220497256e+00 2.547983302952577844e+02
1.794306256001808375e+00 -3.024034692220515907e+00 2.548008689518577796e+02
-1.033976572298283214e+00 -2.619994288220524936e+00 2.547824318511577815e+02
-6.299361682981444721e-01 -2.619994288220537815e+00 2.547849705078577927e+02
-2.258957641981437781e-01 -2.619994288220544476e+00 2.547875091645577754e+02
1.781446398017944299e-01 -2.619994288220560907e+00 2.547900478211577990e+02
5.821850439017384193e-01 -2.619994288220561796e+00 2.547925864778577818e+02
9.862254479015639674e-01 -2.619994288220562240e+00 2.547951251345577930e+02
1.390265851901644645e+00 -2.619994288220550249e+00 2.547976637911577882e+02
1.794306256001607647e+00 -2.619994288220548473e+00 2.548002024478577994e+02
-1.033976572297863550e+00 -2.215953884120525075e+00 2.547817653471577728e+02
-6.299361682979111032e-01 -2.215953884120531292e+00 2.547843040038577840e+02
-2.258957641981836906e-01 -2.215953884120554829e+00 2.547868426605577952e+02
1.781446398018730892e-01 -2.215953884120567263e+00 2.547893813171577904e+02
5.821850439015605616e-01 -2.215953884120561490e+00 2.547919199738577731e+02
9.862254479014220809e-01 -2.215953884120550832e+00 2.547944586305577843e+02
1.390265851901498317e+00 -2.215953884120533957e+00 2.547969972871577795e+02
1.794306256001500843e+00 -2.215953884120521078e+00 2.547995359438577907e+02
-1.033976572298145546e+00 -1.811913480120527220e+00 2.547810988431577925e+02
-6.299361682981863275e-01 -1.811913480120528552e+00 2.547836374998577753e+02
-2.258957641980889608e-01 -1.811913480120538100e+00 2.547861761564577989e+02
1.781446398016066912e-01 -1.811913480120539655e+00 2.547887148131577817e+02
5.821850439015516798e-01 -1.811913480120544540e+00 2.547912534698577929e+02
9.862254479015000186e-01 -1.811913480120550313e+00 2.547937921264577881e+02
1.390265851901659300e+00 -1.811913480120544317e+00 2.547963307831577993e+02
1.794306256001537925e+00 -1.811913480120521225e+00 2.547988694398577820e+02
-6.299361682981428068e-01 -1.407873076020444314e+00 2.547829709957577791e+02
-2.258957641982331510e-01 -1.407873076020433434e+00 2.547855096524577903e+02
1.781446398018739774e-01 -1.407873076020427217e+00 2.547880483091577730e+02
5.821850439016057477e-01 -1.407873076020421443e+00 2.547905869657577966e+02
9.862254479014982422e-01 -1.407873076020422332e+00 2.547931256224577794e+02
1.390265851901127281e+00 -1.407873076020429437e+00 2.547956642791577906e+02
1.794306256001071409e+00 -1.407873076020426106e+00 2.547982029357577858e+02
2.198346660001293973e+00 -1.407873076020429437e+00 2.548007415924577970e+02
-6.299361682980166854e-01 -1.003832672020441352e+00 2.547823044917577988e+02
-2.258957641980176012e-01 -1.003832672020432470e+00 2.547848431484577816e+02
1.781446398019229382e-01 -1.003832672020433581e+00 2.547873818051577928e+02
5.821850439018332324e-01 -1.003832672020429362e+00 2.547899204617577880e+02
9.862254479016172581e-01 -1.003832672020424699e+00 2.547924591184577991e+02
1.390265851901215433e+00 -1.003832672020418704e+00 2.547949977751577819e+02
1.794306256000794964e+00 -1.003832672020410488e+00 2.547975364317577771e+02
2.198346660000742858e+00 -1.003832672020415595e+00 2.548000750884577883e+02
-6.299361682980952892e-01 -5.997922680204348378e-01 2.547816379877577901e+02
-2.258957641980348652e-01 -5.997922680204441637e-01 2.547841766444577729e+02
1.781446398019055355e-01 -5.997922680204431645e-01 2.547867153010577965e+02
5.821850439019056189e-01 -5.997922680204439416e-01 2.547892539577577793e+02
9.862254479015887254e-01 -5.997922680204357260e-01 2.547917926144577905e+02
1.390265851901335559e+00 -5.997922680204290646e-01 2.547943312710577857e+02
1.794306256001156452e+00 -5.997922680204221813e-01 2.547968699277577969e+02
-1.033976572298626495e+00 -1.957518639204391120e-01 2.547784328270577987e+02
-6.299361682982915767e-01 -1.957518639204429700e-01 2.547809714837577815e+02
-2.258957641980941233e-01 -1.957518639204469113e-01 2.547835101403577767e+02
1.781446398019058963e-01 -1.957518639204461619e-01 2.547860487970577879e+02
5.821850439019126133e-01 -1.957518639204433308e-01 2.547885874537577990e+02
9.862254479016707709e-01 -1.957518639204366417e-01 2.547911261103577942e+02
1.390265851901328453e+00 -1.957518639204295918e-01 2.547936647670577770e+02
1.794306256001395816e+00 -1.957518639204345601e-01 2.547962034237577882e+02
-1.033976572298417107e+00 2.082885400795479736e-01 2.547777663230577900e+02
-6.299361682984470079e-01 2.082885400795526087e-01 2.547803049796577852e+02
-2.258957641983618259e-01 2.082885400795512765e-01 2.547828436363577964e+02
1.781446398017650090e-01 2.082885400795468078e-01 2.547853822930577792e+02
5.821850439018471102e-01 2.082885400795450870e-01 2.547879209496577744e+02
9.862254479017915632e-01 2.082885400795455588e-01 2.547904596063577856e+02
1.390265851901802741e+00 2.082885400795463082e-01 2.547929982630577967e+02
1.794306256001995781e+00 2.082885400795459474e-01 2.547955369197577795e+02
2.198346660002173714e+00 2.082885400795453368e-01 2.547980755763577747e+02
-1.033976572298399121e+00 6.123289441795530808e-01 2.547770998190577814e+02
-6.299361682985444855e-01 6.123289441795614074e-01 2.547796384756577766e+02
-2.258957641988127152e-01 6.123289441795671806e-01 2.547821771323577877e+02
1.781446398015298360e-01 6.123289441795586319e-01 2.547847157890577989e+02
5.821850439017387524e-01 6.123289441795501942e-01 2.547872544456577941e+02
9.862254479017913411e-01 6.123289441795485288e-01 2.547897931023577769e+02
1.390265851901988814e+00 6.123289441795423116e-01 2.547923317590577881e+02
1.794306256001680921e+00 6.123289441795441990e-01 2.547948704156577833e+02
2.198346660001903263e+00 6.123289441795408683e-01 2.547974090723577945e+02
-6.299361682988099398e-01 1.016369348179578802e+00 2.547789719716577963e+02
-2.258957641988392773e-01 1.016369348179574361e+00 2.547815106283577791e+02
1.781446398014626398e-01 1.016369348179562815e+00 2.547840492849577743e+02
5.821850439015521239e-01 1.016369348179561038e+00 2.547865879416577854e+02
9.862254479018758291e-01 1.016369348179556376e+00 2.547891265983577966e+02
1.390265851902017014e+00 1.016369348179557264e+00 2.547916652549577918e+02
1.794306256002021316e+00 1.016369348179555265e+00 2.547942039116577746e+02
-6.299361682981919897e-01 1.420409752179565555e+00 2.547783054676577876e+02
-2.258957641983175835e-01 1.420409752179558893e+00 2.547808441242577828e+02
1.781446398018277089e-01 1.420409752179553342e+00 2.547833827809577940e+02
5.821850439017867140e-01 1.420409752179553564e+00 2.547859214376577768e+02
9.862254479017573683e-01 1.420409752179550011e+00 2.547884600942578004e+02
1.390265851901674843e+00 1.420409752179562668e+00 2.547909987509577832e+02
1.794306256001574118e+00 1.420409752179565332e+00 2.547935374076577943e+02
-6.299361682983123378e-01 1.824450156279579849e+00 2.547776389636577790e+02
-2.258957641982886067e-01 1.824450156279566970e+00 2.547801776202577742e+02
1.781446398016400257e-01 1.824450156279574076e+00 2.547827162769577853e+02
5.821850439018987355e-01 1.824450156279582957e+00 2.547852549336577965e+02
9.862254479018242037e-01 1.824450156279588953e+00 2.547877935902577917e+02
1.390265851901803851e+00 1.824450156279605606e+00 2.547903322469577745e+02
1.794306256001913624e+00 1.824450156279590063e+00 2.547928709036577857e+02
-6.299361682976662991e-01 2.228490560279583477e+00 2.547769724595577827e+02
-2.258957641975612163e-01 2.228490560279570598e+00 2.547795111162577939e+02
1.781446398020702648e-01 2.228490560279580812e+00 2.547820497729577767e+02
5.821850439017902668e-01 2.228490560279590582e+00 2.547845884295578003e+02
9.862254479015387654e-01 2.228490560279582589e+00 2.547871270862577830e+02
1.390265851901380190e+00 2.228490560279605237e+00 2.547896657429577942e+02
1.794306256001558797e+00 2.228490560279604793e+00 2.547922043995577894e+02
-1.033976572297823582e+00 2.632530964379637073e+00 2.547737672988577913e+02
-6.299361682979905952e-01 2.632530964379633964e+00 2.547763059555577740e+02
-2.258957641980620379e-01 2.632530964379641070e+00 2.547788446122577852e+02
1.781446398017798582e-01 2.632530964379621086e+00 2.547813832688577804e+02
5.821850439017314249e-01 2.632530964379624638e+00 2.547839219255577916e+02
9.862254479018772724e-01 2.632530964379614868e+00 2.547864605822577744e+02
1.390265851901597349e+00 2.632530964379628635e+00 2.547889992388577980e+02
1.794306256001819699e+00 2.632530964379632632e+00 2.547915378955577808e+02
-1.033976572297622631e+00 3.036571368379596070e+00 2.547731007948577826e+02
-6.299361682975253007e-01 3.036571368379588076e+00 2.547756394515577938e+02
-2.258957641977743236e-01 3.036571368379584968e+00 2.547781781082577766e+02
1.781446398017653143e-01 3.036571368379582747e+00 2.547807167648578002e+02
5.821850439014385481e-01 3.036571368379578306e+00 2.547832554215577829e+02
9.862254479016654418e-01 3.036571368379577862e+00 2.547857940782577941e+02
1.390265851901551164e+00 3.036571368379568980e+00 2.547883327348577893e+02
1.794306256001717115e+00 3.036571368379583191e+00 2.547908713915578005e+02
2.198346660001905928e+00 3.036571368379584968e+00 2.547934100482577833e+02
-1.033976572298725749e+00 3.440611772379558175e+00 2.547724342908577739e+02
-6.299361682985997746e-01 3.440611772379559952e+00 2.547749729475577851e+02
-2.258957641983423970e-01 3.440611772379551958e+00 2.547775116041577803e+02
1.781446398019480570e-01 3.440611772379542632e+00 2.547800502608577915e+02
5.821850439020327395e-01 3.440611772379547961e+00 2.547825889175577743e+02
9.862254479020656772e-01 3.440611772379548849e+00 2.547851275741577979e+02
1.390265851901959726e+00 3.440611772379569278e+00 2.547876662308577806e+02
1.794306256001725330e+00 3.440611772379573718e+00 2.547902048875577918e+02
2.198346660001591513e+00 3.440611772379571054e+00 2.547927435441577870e+02
-1.033976572298376251e+00 3.844652176479440797e+00 2.547717677868577937e+02
-6.299361682981847732e-01 3.844652176479424366e+00 2.547743064434577889e+02
-2.258957641983455611e-01 3.844652176479400829e+00 2.547768451001578001e+02
1.781446398017096089e-01 3.844652176479403938e+00 2.547793837568577828e+02
5.821850439018242396e-01 3.844652176479407935e+00 2.547819224134577780e+02
9.862254479018404130e-01 3.844652176479393280e+00 2.547844610701577892e+02
1.390265851901575811e+00 3.844652176479398165e+00 2.547869997268578004e+02
1.794306256001576561e+00 3.844652176479360417e+00 2.547895383834577956e+02
2.198346660001868624e+00 3.844652176479365746e+00 2.547920770401577784e+02
-6.299361682984955246e-01 4.248692580479341174e+00 2.547736399394577802e+02
-2.258957641982303199e-01 4.248692580479366931e+00 2.547761785961577914e+02
1.781446398021476751e-01 4.248692580479374037e+00 2.547787172527577866e+02
5.821850439021908352e-01 4.248692580479384695e+00 2.547812559094577978e+02
9.862254479022981579e-01 4.248692580479390912e+00 2.547837945661577805e+02
1.390265851901990146e+00 4.248692580479381142e+00 2.547863332228577917e+02
1.794306256001638289e+00 4.248692580479340286e+00 2.547888718794577869e+02
-6.299361682984959687e-01 4.652732984579456499e+00 2.547729734354578000e+02
-2.258957641987725806e-01 4.652732984579472486e+00 2.547755120921577827e+02
1.781446398012432875e-01 4.652732984579428077e+00 2.547780507487577779e+02
5.821850439014346623e-01 4.652732984579404096e+00 2.547805894054577891e+02
9.862254479017035225e-01 4.652732984579424524e+00 2.547831280621578003e+02
1.390265851901819616e+00 4.652732984579381892e+00 2.547856667187577955e+02
1.794306256002239808e+00 4.652732984579376563e+00 2.547882053754577782e+02
-6.299361682986304167e-01 5.056773388579427042e+00 2.547723069314577913e+02
-2.258957641985067100e-01 5.056773388579379080e+00 2.547748455880577865e+02
1.781446398017275667e-01 5.056773388579377304e+00 2.547773842447577977e+02
5.821850439017127732e-01 5.056773388579371975e+00 2.547799229014577804e+02
9.862254479019466613e-01 5.056773388579375528e+00 2.547824615580577756e+02
1.390265851901747229e+00 5.056773388579365758e+00 2.547850002147577868e+02
1.794306256001859001e+00 5.056773388579357764e+00 2.547875388714577980e+02
-1.033976572298811680e+00 5.460813792579382486e+00 2.547691017707577998e+02
-6.299361682987028033e-01 5.460813792579371828e+00 2.547716404273577950e+02
-2.258957641986039933e-01 5.460813792579348736e+00 2.547741790840577778e+02
1.781446398015425758e-01 5.460813792579370052e+00 2.547767177407577890e+02
5.821850439016004186e-01 5.460813792579346959e+00 2.547792563973577842e+02
9.862254479016920872e-01 5.460813792579355841e+00 2.547817950540577954e+02
1.390265851901786753e+00 5.460813792579340742e+00 2.547843337107577781e+02
1.794306256001815481e+00 5.460813792579310544e+00 2.547868723674577893e+02
2.198346660002179931e+00 5.460813792579305215e+00 2.547894110240577845e+02
-1.033976572298721086e+00 5.864854196679328169e+00 2.547684352667577912e+02
-6.299361682987372202e-01 5.864854196679306853e+00 2.547709739233577864e+02
-2.258957641985309406e-01 5.864854196679326392e+00 2.547735125800577975e+02
1.781446398016633959e-01 5.864854196679313070e+00 2.547760512367577803e+02
5.821850439015876510e-01 5.864854196679290865e+00 2.547785898933577755e+02
9.862254479016454578e-01 5.864854196679267773e+00 2.547811285500577867e+02
1.390265851901698824e+00 5.864854196679257115e+00 2.547836672067577979e+02
1.794306256001855449e+00 5.864854196679250897e+00 2.547862058633577931e+02
2.198346660002124420e+00 5.864854196679263332e+00 2.547887445200577758e+02
-1.033976572298464625e+00 6.268894600679291607e+00 2.547677687626577949e+02
-6.299361682983886102e-01 6.268894600679311147e+00 2.547703074193577777e+02
-2.258957641983957154e-01 6.268894600679309370e+00 2.547728460760577889e+02
1.781446398016632848e-01 6.268894600679314699e+00 2.547753847326577841e+02
5.821850439017437484e-01 6.268894600679289830e+00 2.547779233893577953e+02
9.862254479017575903e-01 6.268894600679265849e+00 2.547804620460577780e+02
1.390265851901618888e+00 6.268894600679276508e+00 2.547830007026577732e+02
1.794306256001523936e+00 6.268894600679295159e+00 2.547855393593577844e+02
-1.033976572298154872e+00 6.672935004779311008e+00 2.547671022586577863e+02
-6.299361682981918786e-01 6.672935004779312784e+00 2.547696409153577974e+02
-2.258957641981709785e-01 6.672935004779289692e+00 2.547721795719577926e+02
1.781446398019750077e-01 6.672935004779318113e+00 2.547747182286577754e+02
5.821850439016631462e-01 6.672935004779314561e+00 2.547772568853577866e+02
9.862254479015464259e-01 6.672935004779294133e+00 2.547797955419577818e+02
1.390265851901235417e+00 6.672935004779283474e+00 2.547823341986577930e+02
1.794306256001194200e+00 6.672935004779287027e+00 2.547848728553577757e+02
-1.033976572298102248e+00 7.076975408779381027e+00 2.547664357546577776e+02
-6.299361682980419985e-01 7.076975408779373922e+00 2.547689744113577888e+02
-2.258957641980044173e-01 7.076975408779367704e+00 2.547715130679577840e+02
1.781446398020157806e-01 7.076975408779351717e+00 2.547740517246577951e+02
5.821850439017187684e-01 7.076975408779313526e+00 2.547765903813577779e+02
9.862254479014440633e-01 7.076975408779312637e+00 2.547791290379577731e+02
1.390265851901042682e+00 7.076975408779311749e+00 2.547816676946577843e+02
1.794306256001162891e+00 7.076975408779302867e+00 2.547842063513577955e+02
-6.299361682979380817e-01 7.481015812779411078e+00 2.547683079072577925e+02
-2.258957641979201236e-01 7.481015812779415519e+00 2.547708465639577753e+02
1.781446398019720656e-01 7.481015812779417296e+00 2.547733852206577865e+02
5.821850439017675072e-01 7.481015812779379104e+00 2.547759238772577817e+02
9.862254479013978781e-01 7.481015812779402196e+00 2.547784625339577929e+02
1.390265851901242966e+00 7.481015812779389762e+00 2.547810011906577756e+02
1.794306256001387379e+00 7.481015812779395979e+00 2.547835398472577992e+02
-1.033976572298206387e+00 7.885056216879452684e+00 2.547651027465577727e+02
-6.299361682980016974e-01 7.885056216879451796e+00 2.547676414032577838e+02
-2.258957641980005315e-01 7.885056216879440250e+00 2.547701800599577950e+02
1.781446398019298216e-01 7.885056216879429591e+00 2.547727187165577902e+02
5.821850439017642875e-01 7.885056216879411828e+00 2.547752573732577730e+02
9.862254479016675512e-01 7.885056216879414492e+00 2.547777960299577842e+02
1.390265851901677951e+00 7.885056216879421598e+00 2.547803346865577794e+02
1.794306256001516608e+00 7.885056216879434032e+00 2.547828733432577906e+02
-1.033976572298223484e+00 8.289096620879440991e+00 2.547644362425577924e+02
-6.299361682981874377e-01 8.289096620879451649e+00 2.547669748992577752e+02
-2.258957641980590403e-01 8.289096620879430333e+00 2.547695135558577988e+02
1.781446398018435573e-01 8.289096620879398358e+00 2.547720522125577816e+02
5.821850439018394496e-01 8.289096620879437438e+00 2.547745908692577927e+02
9.862254479018995879e-01 8.289096620879435662e+00 2.547771295259577755e+02
1.390265851901902883e+00 8.289096620879442767e+00 2.547796681825577991e+02
1.794306256001837907e+00 8.289096620879456978e+00 2.547822068392577819e+02
2.198346660001931241e+00 8.289096620879448096e+00 2.547847454959577931e+02
-1.033976572298549002e+00 8.693137024979423089e+00 2.547637697385577837e+02
-6.299361682983065647e-01 8.693137024979453287e+00 2.547663083952577949e+02
-2.258957641982502484e-01 8.693137024979483485e+00 2.547688470518577901e+02
1.781446398017990651e-01 8.693137024979472827e+00 2.547713857085577729e+02
5.821850439020046508e-01 8.693137024979460392e+00 2.547739243652577841e+02
9.862254479021604903e-01 8.693137024979463945e+00 2.547764630218577793e+02
1.390265851901961502e+00 8.693137024979451510e+00 2.547790016785577905e+02
1.794306256001994004e+00 8.693137024979455063e+00 2.547815403352577732e+02
2.198346660002017394e+00 8.693137024979439076e+00 2.547840789918577968e+02
-1.033976572298551444e+00 9.097177428979447811e+00 2.547631032345577751e+02
-6.299361682982802524e-01 9.097177428979447811e+00 2.547656418911577987e+02
-2.258957641982350106e-01 9.097177428979403402e+00 2.547681805478577814e+02
1.781446398019909394e-01 9.097177428979414060e+00 2.547707192045577926e+02
5.821850439021255541e-01 9.097177428979401625e+00 2.547732578611577878e+02
9.862254479021048681e-01 9.097177428979424718e+00 2.547757965178577990e+02
1.390265851902060090e+00 9.097177428979389191e+00 2.547783351745577818e+02
1.794306256002044853e+00 9.097177428979357217e+00 2.547808738311577770e+02
-1.033976572298305641e+00 9.501217832979442335e+00 2.547624367304577788e+02
-6.299361682983783961e-01 9.501217832979463651e+00 2.547649753871577900e+02
-2.258957641981779729e-01 9.501217832979429900e+00 2.547675140438577728e+02
1.781446398018018129e-01 9.501217832979447664e+00 2.547700527004577964e+02
5.821850439019163881e-01 9.501217832979451217e+00 2.547725913571577792e+02
9.862254479019848530e-01 9.501217832979435229e+00 2.547751300138577903e+02
1.390265851901939298e+00 9.501217832979445888e+00 2.547776686705577731e+02
1.794306256001890976e+00 9.501217832979406808e+00 2.547802073271577967e+02
2.198346660002107544e+00 9.501217832979428124e+00 2.547827459838577795e+02
-1.033976572298374030e+00 9.905258237079459960e+00 2.547617702264577986e+02
-6.299361682982653754e-01 9.905258237079451078e+00 2.547643088831577813e+02
-2.258957641984348230e-01 9.905258237079472394e+00 2.547668475398577925e+02
1.781446398017027533e-01 9.905258237079472394e+00 2.547693861964577877e+02
5.821850439017608458e-01 9.905258237079445749e+00 2.547719248531577989e+02
9.862254479018512932e-01 9.905258237079433314e+00 2.547744635098577817e+02
1.390265851901842042e+00 9.905258237079452854e+00 2.547770021664577769e+02
1.794306256001898969e+00 9.905258237079438643e+00 2.547795408231577881e+02
2.198346660002088448e+00 9.905258237079436867e+00 2.547820794798577992e+02
-6.299361682982486110e-01 1.030929864107946692e+01 2.547636423791577727e+02
-2.258957641981811926e-01 1.030929864107946159e+01 2.547661810357577963e+02
1.781446398017846600e-01 1.030929864107943139e+01 2.547687196924577790e+02
5.821850439018042556e-01 1.030929864107942073e+01 2.547712583491577902e+02
9.862254479018502940e-01 1.030929864107944205e+01 2.547737970057577854e+02
1.390265851901752558e+00 1.030929864107938343e+01 2.547763356624577966e+02
1.794306256001908295e+00 1.030929864107938876e+01 2.547788743191577794e+02
2.198346660002089781e+00 1.030929864107942251e+01 2.547814129757577746e+02
-6.299361682981865496e-01 1.071333904517944013e+01 2.547629758750577764e+02
-2.258957641981594600e-01 1.071333904517946856e+01 2.547655145317577876e+02
1.781446398017824395e-01 1.071333904517945435e+01 2.547680531884577988e+02
5.821850439017801637e-01 1.071333904517947744e+01 2.547705918450577940e+02
9.862254479019438858e-01 1.071333904517947211e+01 2.547731305017577768e+02
1.390265851901899774e+00 1.071333904517947033e+01 2.547756691584577879e+02
1.794306256001667155e+00 1.071333904517945790e+01 2.547782078150577831e+02
2.198346660002046260e+00 1.071333904517944902e+01 2.547807464717577943e+02
-6.299361682982275168e-01 1.111737944917948084e+01 2.547623093710577962e+02
-2.258957641981417241e-01 1.111737944917947551e+01 2.547648480277577789e+02
1.781446398018411981e-01 1.111737944917946308e+01 2.547673866844577901e+02
5.821850439017348666e-01 1.111737944917951992e+01 2.547699253410577853e+02
9.862254479018993658e-01 1.111737944917950749e+01 2.547724639977577965e+02
1.390265851901803185e+00 1.111737944917947019e+01 2.547750026544577793e+02
1.794306256001747757e+00 1.111737944917947196e+01 2.547775413110577745e+02
2.198346660002067576e+00 1.111737944917946130e+01 2.547800799677577857e+02
-1.033976572298207053e+00 1.152141985327945939e+01 2.547591042103577763e+02
-6.299361682981968746e-01 1.152141985327947182e+01 2.547616428670577875e+02
-2.258957641982002051e-01 1.152141985327946472e+01 2.547641815237577987e+02
1.781446398017999533e-01 1.152141985327946294e+01 2.547667201803577939e+02
5.821850439017207668e-01 1.152141985327947538e+01 2.547692588370577766e+02
9.862254479018660591e-01 1.152141985327947005e+01 2.547717974937577878e+02
1.390265851901818950e+00 1.152141985327949669e+01 2.547743361503577830e+02
1.794306256001766853e+00 1.152141985327946472e+01 2.547768748070577942e+02
2.198346660001843755e+00 1.152141985327943807e+01 2.547794134637577770e+02
-1.033976572298364038e+00 1.192546025727946990e+01 2.547584377063577961e+02
-6.299361682982130839e-01 1.192546025727945036e+01 2.547609763630577788e+02
-2.258957641982599629e-01 1.192546025727950543e+01 2.547635150196577740e+02
1.781446398019418953e-01 1.192546025727953030e+01 2.547660536763577852e+02
5.821850439019400358e-01 1.192546025727950898e+01 2.547685923330577964e+02
9.862254479018481845e-01 1.192546025727953563e+01 2.547711309896577916e+02
1.390265851901756111e+00 1.192546025727952852e+01 2.547736696463577744e+02
1.794306256001761080e+00 1.192546025727952141e+01 2.547762083030577855e+02
-1.033976572298286101e+00 1.232950066127946975e+01 2.547577712023577874e+02
-6.299361682982196342e-01 1.232950066127951416e+01 2.547603098589577826e+02
-2.258957641983220799e-01 1.232950066127953193e+01 2.547628485156577938e+02
1.781446398019198296e-01 1.232950066127952482e+01 2.547653871723577765e+02
5.821850439019359280e-01 1.232950066127954969e+01 2.547679258290577877e+02
9.862254479018278674e-01 1.232950066127955324e+01 2.547704644856577829e+02
1.390265851901888228e+00 1.232950066127954258e+01 2.547730031423577941e+02
1.794306256001736877e+00 1.232950066127953903e+01 2.547755417990577769e+02
-1.033976572298386909e+00 1.273354106537951225e+01 2.547571046983577787e+02
-6.299361682982212995e-01 1.273354106537949093e+01 2.547596433549577739e+02
-2.258957641983028175e-01 1.273354106537952646e+01 2.547621820116577851e+02
1.781446398017942079e-01 1.273354106537952291e+01 2.547647206683577963e+02
5.821850439018304568e-01 1.273354106537952823e+01 2.547672593249577915e+02
9.862254479019092468e-01 1.273354106537952113e+01 2.547697979816577742e+02
1.390265851901771432e+00 1.273354106537952291e+01 2.547723366383577854e+02
1.794306256001701350e+00 1.273354106537952468e+01 2.547748752949577806e+02
2.198346660001685660e+00 1.273354106537949804e+01 2.547774139516577918e+02
-6.299361682982407284e-01 1.313758146937949967e+01 2.547589768509577937e+02
-2.258957641983193321e-01 1.313758146937950677e+01 2.547615155076577764e+02
1.781446398017942079e-01 1.313758146937952276e+01 2.547640541642578000e+02
5.821850439018135814e-01 1.313758146937951388e+01 2.547665928209577828e+02
9.862254479018914832e-01 1.313758146937951388e+01 2.547691314776577940e+02
1.390265851901830052e+00 1.313758146937953164e+01 2.547716701342577892e+02
1.794306256001741762e+00 1.313758146937949078e+01 2.547742087909578004e+02
2.198346660001686548e+00 1.313758146937949078e+01 2.547767474476577831e+02
2.602387064101827185e+00 1.354162187347949065e+01 2.547786196002577981e+02
