-3.815205808413380417e+00 -1.234271720361559410e+01 2.533180360567913567e+02
-3.411165233413380626e+00 -1.234271720361559410e+01 2.533151063692913567e+02
-3.007124896813380577e+00 -1.234271720361559410e+01 2.533121766817913567e+02
-2.603084560213380527e+00 -1.234271720361559410e+01 2.533092469942913567e+02
-2.199044223613380478e+00 -1.234271720361559410e+01 2.533063325655913616e+02
-1.795003767813380557e+00 -1.234271720361559410e+01 2.533034028780913616e+02
-1.390963311913380407e+00 -1.234271720361559410e+01 2.533004731905913616e+02
-9.869228561133803757e-01 -1.234271720361559410e+01 2.532975435030913616e+02
-5.828825195133803261e-01 -1.234271720361559410e+01 2.532946138155913616e+02
-1.788420935133804013e-01 -1.234271720361559410e+01 2.532916993868913380e+02
2.251983026866195836e-01 -1.234271720361559410e+01 2.532887696993913380e+02
6.292387286866195639e-01 -1.234271720361559410e+01 2.532858400118913380e+02
1.033279065286619502e+00 -1.234271720361559410e+01 2.532829103243913380e+02
1.437319521086619423e+00 -1.234271720361559410e+01 2.532799806368913380e+02
1.841359976986619573e+00 -1.234271720361559410e+01 2.532770662081913429e+02
2.245400432786619493e+00 -1.234271720361559410e+01 2.532741365206913429e+02
2.649440769386619543e+00 -1.234271720361559410e+01 2.532712068331913429e+02
3.053481105986619593e+00 -1.234271720361559410e+01 2.532682771456913429e+02
3.457521442586619642e+00 -1.234271720361559410e+01 2.532653474581913429e+02
3.861562017586619433e+00 -1.234271720361559410e+01 2.532624330293913602e+02
4.265602115786619741e+00 -1.234271720361559410e+01 2.532595033418913602e+02
4.669642929286619726e+00 -1.234271720361559410e+01 2.532565736543913602e+02
5.073683265886620219e+00 -1.234271720361559410e+01 2.532536439668913602e+02
5.477723602486619825e+00 -1.234271720361559410e+01 2.532507142793913602e+02
5.881763939086620319e+00 -1.234271720361559410e+01 2.532477998506913650e+02
6.285804275686619924e+00 -1.234271720361559410e+01 2.532448701631913650e+02
6.689844612286619530e+00 -1.234271720361559410e+01 2.532419404756913650e+02
7.093884948886620023e+00 -1.234271720361559410e+01 2.532390107881913650e+02
7.497925762386620008e+00 -1.234271720361559410e+01 2.532360811006913650e+02
-4.623286720113379822e+00 -1.193867686691559449e+01 2.533263520967913394e+02
-4.219245906613379837e+00 -1.193867686691559449e+01 2.533234224092913394e+02
-3.815205808413380417e+00 -1.193867686691559449e+01 2.533204927217913394e+02
-3.411165233413380626e+00 -1.193867686691559449e+01 2.533175630342913394e+02
-3.007124896813380577e+00 -1.193867686691559449e+01 2.533146333467913394e+02
-2.603084560213380527e+00 -1.193867686691559449e+01 2.533117189180913442e+02
-2.199044223613380478e+00 -1.193867686691559449e+01 2.533087892305913442e+02
-1.795003767813380557e+00 -1.193867686691559449e+01 2.533058595430913442e+02
-1.390963311913380407e+00 -1.193867686691559449e+01 2.533029298555913442e+02
-9.869228561133803757e-01 -1.193867686691559449e+01 2.533000001680913442e+02
-5.828825195133803261e-01 -1.193867686691559449e+01 2.532970857393913491e+02
-1.788420935133804013e-01 -1.193867686691559449e+01 2.532941560518913491e+02
2.251983026866195836e-01 -1.193867686691559449e+01 2.532912263643913491e+02
6.292387286866195639e-01 -1.193867686691559449e+01 2.532882966768913491e+02
1.033279065286619502e+00 -1.193867686691559449e+01 2.532853669893913491e+02
1.437319521086619423e+00 -1.193867686691559449e+01 2.532824525606913539e+02
1.841359976986619573e+00 -1.193867686691559449e+01 2.532795228731913539e+02
2.245400432786619493e+00 -1.193867686691559449e+01 2.532765931856913539e+02
2.649440769386619543e+00 -1.193867686691559449e+01 2.532736634981913539e+02
3.053481105986619593e+00 -1.193867686691559449e+01 2.532707338106913539e+02
3.457521442586619642e+00 -1.193867686691559449e+01 2.532678193819913588e+02
3.861562017586619433e+00 -1.193867686691559449e+01 2.532648896944913588e+02
4.265602115786619741e+00 -1.193867686691559449e+01 2.532619600069913588e+02
4.669642929286619726e+00 -1.193867686691559449e+01 2.532590303194913588e+02
5.073683265886620219e+00 -1.193867686691559449e+01 2.532561006319913588e+02
5.477723602486619825e+00 -1.193867686691559449e+01 2.532531862032913637e+02
5.881763939086620319e+00 -1.193867686691559449e+01 2.532502565157913637e+02
6.285804275686619924e+00 -1.193867686691559449e+01 2.532473268282913637e+02
6.689844612286619530e+00 -1.193867686691559449e+01 2.532443971407913637e+02
7.093884948886620023e+00 -1.193867686691559449e+01 2.532414674532913637e+02
-4.623286720113379822e+00 -1.153463653031559488e+01 2.533288087618913380e+02
-4.219245906613379837e+00 -1.153463653031559488e+01 2.533258790743913380e+02
-3.815205808413380417e+00 -1.153463653031559488e+01 2.533229493868913380e+02
-3.411165233413380626e+00 -1.153463653031559488e+01 2.533200349581913429e+02
-3.007124896813380577e+00 -1.153463653031559488e+01 2.533171052706913429e+02
-2.603084560213380527e+00 -1.153463653031559488e+01 2.533141755831913429e+02
-2.199044223613380478e+00 -1.153463653031559488e+01 2.533112458956913429e+02
-1.795003767813380557e+00 -1.153463653031559488e+01 2.533083162081913429e+02
-1.390963311913380407e+00 -1.153463653031559488e+01 2.533054017793913602e+02
-9.869228561133803757e-01 -1.153463653031559488e+01 2.533024720918913602e+02
-5.828825195133803261e-01 -1.153463653031559488e+01 2.532995424043913602e+02
-1.788420935133804013e-01 -1.153463653031559488e+01 2.532966127168913602e+02
2.251983026866195836e-01 -1.153463653031559488e+01 2.532936830293913602e+02
6.292387286866195639e-01 -1.153463653031559488e+01 2.532907686006913650e+02
1.033279065286619502e+00 -1.153463653031559488e+01 2.532878389131913650e+02
1.437319521086619423e+00 -1.153463653031559488e+01 2.532849092256913650e+02
1.841359976986619573e+00 -1.153463653031559488e+01 2.532819795381913650e+02
2.245400432786619493e+00 -1.153463653031559488e+01 2.532790498506913650e+02
2.649440769386619543e+00 -1.153463653031559488e+01 2.532761354219913414e+02
3.053481105986619593e+00 -1.153463653031559488e+01 2.532732057344913414e+02
3.457521442586619642e+00 -1.153463653031559488e+01 2.532702760469913414e+02
3.861562017586619433e+00 -1.153463653031559488e+01 2.532673463594913414e+02
4.265602115786619741e+00 -1.153463653031559488e+01 2.532644166719913414e+02
4.669642929286619726e+00 -1.153463653031559488e+01 2.532615022432913463e+02
5.073683265886620219e+00 -1.153463653031559488e+01 2.532585725557913463e+02
5.477723602486619825e+00 -1.153463653031559488e+01 2.532556428682913463e+02
5.881763939086620319e+00 -1.153463653031559488e+01 2.532527131807913463e+02
6.285804275686619924e+00 -1.153463653031559488e+01 2.532497834932913463e+02
6.689844612286619530e+00 -1.153463653031559488e+01 2.532468538057913463e+02
7.093884948886620023e+00 -1.153463653031559488e+01 2.532439393770913512e+02
-4.623286720113379822e+00 -1.113059524011559454e+01 2.533312654268913491e+02
-4.219245906613379837e+00 -1.113059524011559454e+01 2.533283357393913491e+02
-3.815205808413380417e+00 -1.113059524011559454e+01 2.533254213106913539e+02
-3.411165233413380626e+00 -1.113059524011559454e+01 2.533224916231913539e+02
-3.007124896813380577e+00 -1.113059524011559454e+01 2.533195619356913539e+02
-2.603084560213380527e+00 -1.113059524011559454e+01 2.533166322481913539e+02
-2.199044223613380478e+00 -1.113059524011559454e+01 2.533137025606913539e+02
-1.795003767813380557e+00 -1.113059524011559454e+01 2.533107881319913588e+02
-1.390963311913380407e+00 -1.113059524011559454e+01 2.533078584444913588e+02
-9.869228561133803757e-01 -1.113059524011559454e+01 2.533049287569913588e+02
-5.828825195133803261e-01 -1.113059524011559454e+01 2.533019990694913588e+02
-1.788420935133804013e-01 -1.113059524011559454e+01 2.532990693819913588e+02
2.251983026866195836e-01 -1.113059524011559454e+01 2.532961549532913637e+02
6.292387286866195639e-01 -1.113059524011559454e+01 2.532932252657913637e+02
1.033279065286619502e+00 -1.113059524011559454e+01 2.532902955782913637e+02
1.437319521086619423e+00 -1.113059524011559454e+01 2.532873658907913637e+02
1.841359976986619573e+00 -1.113059524011559454e+01 2.532844362032913637e+02
2.245400432786619493e+00 -1.113059524011559454e+01 2.532815217745913401e+02
2.649440769386619543e+00 -1.113059524011559454e+01 2.532785920870913401e+02
3.053481105986619593e+00 -1.113059524011559454e+01 2.532756623995913401e+02
3.457521442586619642e+00 -1.113059524011559454e+01 2.532727327120913401e+02
3.861562017586619433e+00 -1.113059524011559454e+01 2.532698030245913401e+02
4.265602115786619741e+00 -1.113059524011559454e+01 2.532668885958913449e+02
4.669642929286619726e+00 -1.113059524011559454e+01 2.532639589083913449e+02
5.073683265886620219e+00 -1.113059524011559454e+01 2.532610292208913449e+02
5.477723602486619825e+00 -1.113059524011559454e+01 2.532580995333913449e+02
5.881763939086620319e+00 -1.113059524011559454e+01 2.532551698458913449e+02
6.285804275686619924e+00 -1.113059524011559454e+01 2.532522554170913622e+02
6.689844612286619530e+00 -1.113059524011559454e+01 2.532493257295913622e+02
7.093884948886620023e+00 -1.113059524011559454e+01 2.532463960420913622e+02
7.497925762386620008e+00 -1.113059524011559454e+01 2.532434663545913622e+02
-5.027327056713380316e+00 -1.072655490341559492e+01 2.533366517793913602e+02
-4.623286720113379822e+00 -1.072655490341559492e+01 2.533337220918913602e+02
-4.219245906613379837e+00 -1.072655490341559492e+01 2.533308076631913650e+02
-3.815205808413380417e+00 -1.072655490341559492e+01 2.533278779756913650e+02
-3.411165233413380626e+00 -1.072655490341559492e+01 2.533249482881913650e+02
-3.007124896813380577e+00 -1.072655490341559492e+01 2.533220186006913650e+02
-2.603084560213380527e+00 -1.072655490341559492e+01 2.533190889131913650e+02
-2.199044223613380478e+00 -1.072655490341559492e+01 2.533161744844913414e+02
-1.795003767813380557e+00 -1.072655490341559492e+01 2.533132447969913414e+02
-1.390963311913380407e+00 -1.072655490341559492e+01 2.533103151094913414e+02
-9.869228561133803757e-01 -1.072655490341559492e+01 2.533073854219913414e+02
-5.828825195133803261e-01 -1.072655490341559492e+01 2.533044557344913414e+02
-1.788420935133804013e-01 -1.072655490341559492e+01 2.533015413057913463e+02
2.251983026866195836e-01 -1.072655490341559492e+01 2.532986116182913463e+02
6.292387286866195639e-01 -1.072655490341559492e+01 2.532956819307913463e+02
1.033279065286619502e+00 -1.072655490341559492e+01 2.532927522432913463e+02
1.437319521086619423e+00 -1.072655490341559492e+01 2.532898225557913463e+02
1.841359976986619573e+00 -1.072655490341559492e+01 2.532869081270913512e+02
2.245400432786619493e+00 -1.072655490341559492e+01 2.532839784395913512e+02
2.649440769386619543e+00 -1.072655490341559492e+01 2.532810487520913512e+02
3.053481105986619593e+00 -1.072655490341559492e+01 2.532781190645913512e+02
3.457521442586619642e+00 -1.072655490341559492e+01 2.532751893770913512e+02
3.861562017586619433e+00 -1.072655490341559492e+01 2.532722749483913560e+02
4.265602115786619741e+00 -1.072655490341559492e+01 2.532693452608913560e+02
4.669642929286619726e+00 -1.072655490341559492e+01 2.532664155733913560e+02
5.073683265886620219e+00 -1.072655490341559492e+01 2.532634858858913560e+02
5.477723602486619825e+00 -1.072655490341559492e+01 2.532605561983913560e+02
5.881763939086620319e+00 -1.072655490341559492e+01 2.532576417696913609e+02
6.285804275686619924e+00 -1.072655490341559492e+01 2.532547120821913609e+02
6.689844612286619530e+00 -1.072655490341559492e+01 2.532517823946913609e+02
7.093884948886620023e+00 -1.072655490341559492e+01 2.532488527071913609e+02
7.497925762386620008e+00 -1.072655490341559492e+01 2.532459230196913609e+02
-4.623286720113379822e+00 -1.032251456681559532e+01 2.533361940157913637e+02
-4.219245906613379837e+00 -1.032251456681559532e+01 2.533332643282913637e+02
-3.815205808413380417e+00 -1.032251456681559532e+01 2.533303346407913637e+02
-3.411165233413380626e+00 -1.032251456681559532e+01 2.533274049532913637e+02
-3.007124896813380577e+00 -1.032251456681559532e+01 2.533244752657913637e+02
-2.603084560213380527e+00 -1.032251456681559532e+01 2.533215608370913401e+02
-2.199044223613380478e+00 -1.032251456681559532e+01 2.533186311495913401e+02
-1.795003767813380557e+00 -1.032251456681559532e+01 2.533157014620913401e+02
-1.390963311913380407e+00 -1.032251456681559532e+01 2.533127717745913401e+02
-9.869228561133803757e-01 -1.032251456681559532e+01 2.533098420870913401e+02
-5.828825195133803261e-01 -1.032251456681559532e+01 2.533069276583913449e+02
-1.788420935133804013e-01 -1.032251456681559532e+01 2.533039979708913449e+02
2.251983026866195836e-01 -1.032251456681559532e+01 2.533010682833913449e+02
6.292387286866195639e-01 -1.032251456681559532e+01 2.532981385958913449e+02
1.033279065286619502e+00 -1.032251456681559532e+01 2.532952089083913449e+02
1.437319521086619423e+00 -1.032251456681559532e+01 2.532922944795913622e+02
1.841359976986619573e+00 -1.032251456681559532e+01 2.532893647920913622e+02
2.245400432786619493e+00 -1.032251456681559532e+01 2.532864351045913622e+02
2.649440769386619543e+00 -1.032251456681559532e+01 2.532835054170913622e+02
3.053481105986619593e+00 -1.032251456681559532e+01 2.532805757295913622e+02
3.457521442586619642e+00 -1.032251456681559532e+01 2.532776613008913387e+02
3.861562017586619433e+00 -1.032251456681559532e+01 2.532747316133913387e+02
4.265602115786619741e+00 -1.032251456681559532e+01 2.532718019258913387e+02
4.669642929286619726e+00 -1.032251456681559532e+01 2.532688722383913387e+02
5.073683265886620219e+00 -1.032251456681559532e+01 2.532659425508913387e+02
5.477723602486619825e+00 -1.032251456681559532e+01 2.532630281221913435e+02
5.881763939086620319e+00 -1.032251456681559532e+01 2.532600984346913435e+02
6.285804275686619924e+00 -1.032251456681559532e+01 2.532571687471913435e+02
6.689844612286619530e+00 -1.032251456681559532e+01 2.532542390596913435e+02
7.093884948886620023e+00 -1.032251456681559532e+01 2.532513093721913435e+02
7.497925762386620008e+00 -1.032251456681559532e+01 2.532483949434913484e+02
-4.623286720113379822e+00 -9.918474230215593934e+00 2.533386506807913463e+02
-4.219245906613379837e+00 -9.918474230215593934e+00 2.533357209932913463e+02
-3.815205808413380417e+00 -9.918474230215593934e+00 2.533327913057913463e+02
-3.411165233413380626e+00 -9.918474230215593934e+00 2.533298616182913463e+02
-3.007124896813380577e+00 -9.918474230215593934e+00 2.533269471895913512e+02
-2.603084560213380527e+00 -9.918474230215593934e+00 2.533240175020913512e+02
-2.199044223613380478e+00 -9.918474230215593934e+00 2.533210878145913512e+02
-1.795003767813380557e+00 -9.918474230215593934e+00 2.533181581270913512e+02
-1.390963311913380407e+00 -9.918474230215593934e+00 2.533152284395913512e+02
-9.869228561133803757e-01 -9.918474230215593934e+00 2.533123140108913560e+02
-5.828825195133803261e-01 -9.918474230215593934e+00 2.533093843233913560e+02
-1.788420935133804013e-01 -9.918474230215593934e+00 2.533064546358913560e+02
2.251983026866195836e-01 -9.918474230215593934e+00 2.533035249483913560e+02
6.292387286866195639e-01 -9.918474230215593934e+00 2.533005952608913560e+02
1.033279065286619502e+00 -9.918474230215593934e+00 2.532976808321913609e+02
1.437319521086619423e+00 -9.918474230215593934e+00 2.532947511446913609e+02
1.841359976986619573e+00 -9.918474230215593934e+00 2.532918214571913609e+02
2.245400432786619493e+00 -9.918474230215593934e+00 2.532888917696913609e+02
2.649440769386619543e+00 -9.918474230215593934e+00 2.532859620821913609e+02
3.053481105986619593e+00 -9.918474230215593934e+00 2.532830476534913657e+02
3.457521442586619642e+00 -9.918474230215593934e+00 2.532801179659913657e+02
3.861562017586619433e+00 -9.918474230215593934e+00 2.532771882784913657e+02
4.265602115786619741e+00 -9.918474230215593934e+00 2.532742585909913657e+02
4.669642929286619726e+00 -9.918474230215593934e+00 2.532713289034913657e+02
5.073683265886620219e+00 -9.918474230215593934e+00 2.532684144747913422e+02
5.477723602486619825e+00 -9.918474230215593934e+00 2.532654847872913422e+02
5.881763939086620319e+00 -9.918474230215593934e+00 2.532625550997913422e+02
6.285804275686619924e+00 -9.918474230215593934e+00 2.532596254122913422e+02
6.689844612286619530e+00 -9.918474230215593934e+00 2.532566957247913422e+02
7.093884948886620023e+00 -9.918474230215593934e+00 2.532537812959913595e+02
7.497925762386620008e+00 -9.918474230215593934e+00 2.532508516084913595e+02
-4.623286720113379822e+00 -9.514433893615594329e+00 2.533411073458913449e+02
-4.219245906613379837e+00 -9.514433893615594329e+00 2.533381776583913449e+02
-3.815205808413380417e+00 -9.514433893615594329e+00 2.533352632295913622e+02
-3.411165233413380626e+00 -9.514433893615594329e+00 2.533323335420913622e+02
-3.007124896813380577e+00 -9.514433893615594329e+00 2.533294038545913622e+02
-2.603084560213380527e+00 -9.514433893615594329e+00 2.533264741670913622e+02
-2.199044223613380478e+00 -9.514433893615594329e+00 2.533235444795913622e+02
-1.795003767813380557e+00 -9.514433893615594329e+00 2.533206300508913387e+02
-1.390963311913380407e+00 -9.514433893615594329e+00 2.533177003633913387e+02
-9.869228561133803757e-01 -9.514433893615594329e+00 2.533147706758913387e+02
-5.828825195133803261e-01 -9.514433893615594329e+00 2.533118409883913387e+02
-1.788420935133804013e-01 -9.514433893615594329e+00 2.533089113008913387e+02
2.251983026866195836e-01 -9.514433893615594329e+00 2.533059968721913435e+02
6.292387286866195639e-01 -9.514433893615594329e+00 2.533030671846913435e+02
1.033279065286619502e+00 -9.514433893615594329e+00 2.533001374971913435e+02
1.437319521086619423e+00 -9.514433893615594329e+00 2.532972078096913435e+02
1.841359976986619573e+00 -9.514433893615594329e+00 2.532942781221913435e+02
2.245400432786619493e+00 -9.514433893615594329e+00 2.532913484346913435e+02
2.649440769386619543e+00 -9.514433893615594329e+00 2.532884340059913484e+02
3.053481105986619593e+00 -9.514433893615594329e+00 2.532855043184913484e+02
3.457521442586619642e+00 -9.514433893615594329e+00 2.532825746309913484e+02
3.861562017586619433e+00 -9.514433893615594329e+00 2.532796449434913484e+02
4.265602115786619741e+00 -9.514433893615594329e+00 2.532767152559913484e+02
4.669642929286619726e+00 -9.514433893615594329e+00 2.532738008272913532e+02
5.073683265886620219e+00 -9.514433893615594329e+00 2.532708711397913532e+02
5.477723602486619825e+00 -9.514433893615594329e+00 2.532679414522913532e+02
5.881763939086620319e+00 -9.514433893615594329e+00 2.532650117647913532e+02
6.285804275686619924e+00 -9.514433893615594329e+00 2.532620820772913532e+02
6.689844612286619530e+00 -9.514433893615594329e+00 2.532591676485913581e+02
7.093884948886620023e+00 -9.514433893615594329e+00 2.532562379610913581e+02
-4.623286720113379822e+00 -9.110393557015594723e+00 2.533435640108913560e+02
-4.219245906613379837e+00 -9.110393557015594723e+00 2.533406495821913609e+02
-3.815205808413380417e+00 -9.110393557015594723e+00 2.533377198946913609e+02
-3.411165233413380626e+00 -9.110393557015594723e+00 2.533347902071913609e+02
-3.007124896813380577e+00 -9.110393557015594723e+00 2.533318605196913609e+02
-2.603084560213380527e+00 -9.110393557015594723e+00 2.533289308321913609e+02
-2.199044223613380478e+00 -9.110393557015594723e+00 2.533260164034913657e+02
-1.795003767813380557e+00 -9.110393557015594723e+00 2.533230867159913657e+02
-1.390963311913380407e+00 -9.110393557015594723e+00 2.533201570284913657e+02
-9.869228561133803757e-01 -9.110393557015594723e+00 2.533172273409913657e+02
-5.828825195133803261e-01 -9.110393557015594723e+00 2.533142976534913657e+02
-1.788420935133804013e-01 -9.110393557015594723e+00 2.533113832247913422e+02
2.251983026866195836e-01 -9.110393557015594723e+00 2.533084535372913422e+02
6.292387286866195639e-01 -9.110393557015594723e+00 2.533055238497913422e+02
1.033279065286619502e+00 -9.110393557015594723e+00 2.533025941622913422e+02
1.437319521086619423e+00 -9.110393557015594723e+00 2.532996644747913422e+02
1.841359976986619573e+00 -9.110393557015594723e+00 2.532967500459913595e+02
2.245400432786619493e+00 -9.110393557015594723e+00 2.532938203584913595e+02
2.649440769386619543e+00 -9.110393557015594723e+00 2.532908906709913595e+02
3.053481105986619593e+00 -9.110393557015594723e+00 2.532879609834913595e+02
3.457521442586619642e+00 -9.110393557015594723e+00 2.532850312959913595e+02
3.861562017586619433e+00 -9.110393557015594723e+00 2.532821168672913643e+02
4.265602115786619741e+00 -9.110393557015594723e+00 2.532791871797913643e+02
4.669642929286619726e+00 -9.110393557015594723e+00 2.532762574922913643e+02
5.073683265886620219e+00 -9.110393557015594723e+00 2.532733278047913643e+02
5.477723602486619825e+00 -9.110393557015594723e+00 2.532703981172913643e+02
5.881763939086620319e+00 -9.110393557015594723e+00 2.532674836885913408e+02
6.285804275686619924e+00 -9.110393557015594723e+00 2.532645540010913408e+02
6.689844612286619530e+00 -9.110393557015594723e+00 2.532616243135913408e+02
7.093884948886620023e+00 -9.110393557015594723e+00 2.532586946260913408e+02
7.497925762386620008e+00 -9.110393557015594723e+00 2.532557649385913408e+02
-4.623286720113379822e+00 -8.706353220415595118e+00 2.533460359346913435e+02
-4.219245906613379837e+00 -8.706353220415595118e+00 2.533431062471913435e+02
-3.815205808413380417e+00 -8.706353220415595118e+00 2.533401765596913435e+02
-3.411165233413380626e+00 -8.706353220415595118e+00 2.533372468721913435e+02
-3.007124896813380577e+00 -8.706353220415595118e+00 2.533343171846913435e+02
-2.603084560213380527e+00 -8.706353220415595118e+00 2.533314027559913484e+02
-2.199044223613380478e+00 -8.706353220415595118e+00 2.533284730684913484e+02
-1.795003767813380557e+00 -8.706353220415595118e+00 2.533255433809913484e+02
-1.390963311913380407e+00 -8.706353220415595118e+00 2.533226136934913484e+02
-9.869228561133803757e-01 -8.706353220415595118e+00 2.533196840059913484e+02
-5.828825195133803261e-01 -8.706353220415595118e+00 2.533167695772913532e+02
-1.788420935133804013e-01 -8.706353220415595118e+00 2.533138398897913532e+02
2.251983026866195836e-01 -8.706353220415595118e+00 2.533109102022913532e+02
6.292387286866195639e-01 -8.706353220415595118e+00 2.533079805147913532e+02
1.033279065286619502e+00 -8.706353220415595118e+00 2.533050508272913532e+02
1.437319521086619423e+00 -8.706353220415595118e+00 2.533021363985913581e+02
1.841359976986619573e+00 -8.706353220415595118e+00 2.532992067110913581e+02
2.245400432786619493e+00 -8.706353220415595118e+00 2.532962770235913581e+02
2.649440769386619543e+00 -8.706353220415595118e+00 2.532933473360913581e+02
3.053481105986619593e+00 -8.706353220415595118e+00 2.532904176485913581e+02
3.457521442586619642e+00 -8.706353220415595118e+00 2.532875032198913630e+02
3.861562017586619433e+00 -8.706353220415595118e+00 2.532845735323913630e+02
4.265602115786619741e+00 -8.706353220415595118e+00 2.532816438448913630e+02
4.669642929286619726e+00 -8.706353220415595118e+00 2.532787141573913630e+02
5.073683265886620219e+00 -8.706353220415595118e+00 2.532757844698913630e+02
5.477723602486619825e+00 -8.706353220415595118e+00 2.532728700411913394e+02
5.881763939086620319e+00 -8.706353220415595118e+00 2.532699403536913394e+02
6.285804275686619924e+00 -8.706353220415595118e+00 2.532670106661913394e+02
6.689844612286619530e+00 -8.706353220415595118e+00 2.532640809786913394e+02
7.093884948886620023e+00 -8.706353220415595118e+00 2.532611512911913394e+02
-5.027327056713380316e+00 -8.302312883815593736e+00 2.533514222872913422e+02
-4.623286720113379822e+00 -8.302312883815593736e+00 2.533484925997913422e+02
-4.219245906613379837e+00 -8.302312883815593736e+00 2.533455629122913422e+02
-3.815205808413380417e+00 -8.302312883815593736e+00 2.533426332247913422e+02
-3.411165233413380626e+00 -8.302312883815593736e+00 2.533397035372913422e+02
-3.007124896813380577e+00 -8.302312883815593736e+00 2.533367891084913595e+02
-2.603084560213380527e+00 -8.302312883815593736e+00 2.533338594209913595e+02
-2.199044223613380478e+00 -8.302312883815593736e+00 2.533309297334913595e+02
-1.795003767813380557e+00 -8.302312883815593736e+00 2.533280000459913595e+02
-1.390963311913380407e+00 -8.302312883815593736e+00 2.533250703584913595e+02
-9.869228561133803757e-01 -8.302312883815593736e+00 2.533221559297913643e+02
-5.828825195133803261e-01 -8.302312883815593736e+00 2.533192262422913643e+02
-1.788420935133804013e-01 -8.302312883815593736e+00 2.533162965547913643e+02
2.251983026866195836e-01 -8.302312883815593736e+00 2.533133668672913643e+02
6.292387286866195639e-01 -8.302312883815593736e+00 2.533104371797913643e+02
1.033279065286619502e+00 -8.302312883815593736e+00 2.533075227510913408e+02
1.437319521086619423e+00 -8.302312883815593736e+00 2.533045930635913408e+02
1.841359976986619573e+00 -8.302312883815593736e+00 2.533016633760913408e+02
2.245400432786619493e+00 -8.302312883815593736e+00 2.532987336885913408e+02
2.649440769386619543e+00 -8.302312883815593736e+00 2.532958040010913408e+02
3.053481105986619593e+00 -8.302312883815593736e+00 2.532928895723913456e+02
3.457521442586619642e+00 -8.302312883815593736e+00 2.532899598848913456e+02
3.861562017586619433e+00 -8.302312883815593736e+00 2.532870301973913456e+02
4.265602115786619741e+00 -8.302312883815593736e+00 2.532841005098913456e+02
4.669642929286619726e+00 -8.302312883815593736e+00 2.532811708223913456e+02
5.073683265886620219e+00 -8.302312883815593736e+00 2.532782563936913505e+02
5.477723602486619825e+00 -8.302312883815593736e+00 2.532753267061913505e+02
5.881763939086620319e+00 -8.302312883815593736e+00 2.532723970186913505e+02
6.285804275686619924e+00 -8.302312883815593736e+00 2.532694673311913505e+02
6.689844612286619530e+00 -8.302312883815593736e+00 2.532665376436913505e+02
7.093884948886620023e+00 -8.302312883815593736e+00 2.532636232149913553e+02
-4.623286720113379822e+00 -7.898272547215593242e+00 2.533509492647913532e+02
-4.219245906613379837e+00 -7.898272547215593242e+00 2.533480195772913532e+02
-3.815205808413380417e+00 -7.898272547215593242e+00 2.533450898897913532e+02
-3.411165233413380626e+00 -7.898272547215593242e+00 2.533421754610913581e+02
-3.007124896813380577e+00 -7.898272547215593242e+00 2.533392457735913581e+02
-2.603084560213380527e+00 -7.898272547215593242e+00 2.533363160860913581e+02
-2.199044223613380478e+00 -7.898272547215593242e+00 2.533333863985913581e+02
-1.795003767813380557e+00 -7.898272547215593242e+00 2.533304567110913581e+02
-1.390963311913380407e+00 -7.898272547215593242e+00 2.533275422823913630e+02
-9.869228561133803757e-01 -7.898272547215593242e+00 2.533246125948913630e+02
-5.828825195133803261e-01 -7.898272547215593242e+00 2.533216829073913630e+02
-1.788420935133804013e-01 -7.898272547215593242e+00 2.533187532198913630e+02
2.251983026866195836e-01 -7.898272547215593242e+00 2.533158235323913630e+02
6.292387286866195639e-01 -7.898272547215593242e+00 2.533129091036913394e+02
1.033279065286619502e+00 -7.898272547215593242e+00 2.533099794161913394e+02
1.437319521086619423e+00 -7.898272547215593242e+00 2.533070497286913394e+02
1.841359976986619573e+00 -7.898272547215593242e+00 2.533041200411913394e+02
2.245400432786619493e+00 -7.898272547215593242e+00 2.533011903536913394e+02
2.649440769386619543e+00 -7.898272547215593242e+00 2.532982759249913443e+02
3.053481105986619593e+00 -7.898272547215593242e+00 2.532953462374913443e+02
3.457521442586619642e+00 -7.898272547215593242e+00 2.532924165499913443e+02
3.861562017586619433e+00 -7.898272547215593242e+00 2.532894868624913443e+02
4.265602115786619741e+00 -7.898272547215593242e+00 2.532865571749913443e+02
4.669642929286619726e+00 -7.898272547215593242e+00 2.532836427461913615e+02
5.073683265886620219e+00 -7.898272547215593242e+00 2.532807130586913615e+02
5.477723602486619825e+00 -7.898272547215593242e+00 2.532777833711913615e+02
5.881763939086620319e+00 -7.898272547215593242e+00 2.532748536836913615e+02
6.285804275686619924e+00 -7.898272547215593242e+00 2.532719239961913615e+02
6.689844612286619530e+00 -7.898272547215593242e+00 2.532690095674913380e+02
7.093884948886620023e+00 -7.898272547215593242e+00 2.532660798799913380e+02
-4.219245906613379837e+00 -7.494232210615593637e+00 2.533504915010913408e+02
-3.815205808413380417e+00 -7.494232210615593637e+00 2.533475618135913408e+02
-3.411165233413380626e+00 -7.494232210615593637e+00 2.533446321260913408e+02
-3.007124896813380577e+00 -7.494232210615593637e+00 2.533417024385913408e+02
-2.603084560213380527e+00 -7.494232210615593637e+00 2.533387727510913408e+02
-2.199044223613380478e+00 -7.494232210615593637e+00 2.533358583223913456e+02
-1.795003767813380557e+00 -7.494232210615593637e+00 2.533329286348913456e+02
-1.390963311913380407e+00 -7.494232210615593637e+00 2.533299989473913456e+02
-9.869228561133803757e-01 -7.494232210615593637e+00 2.533270692598913456e+02
-5.828825195133803261e-01 -7.494232210615593637e+00 2.533241395723913456e+02
-1.788420935133804013e-01 -7.494232210615593637e+00 2.533212098848913456e+02
2.251983026866195836e-01 -7.494232210615593637e+00 2.533182954561913505e+02
6.292387286866195639e-01 -7.494232210615593637e+00 2.533153657686913505e+02
1.033279065286619502e+00 -7.494232210615593637e+00 2.533124360811913505e+02
1.437319521086619423e+00 -7.494232210615593637e+00 2.533095063936913505e+02
1.841359976986619573e+00 -7.494232210615593637e+00 2.533065767061913505e+02
2.245400432786619493e+00 -7.494232210615593637e+00 2.533036622774913553e+02
2.649440769386619543e+00 -7.494232210615593637e+00 2.533007325899913553e+02
3.053481105986619593e+00 -7.494232210615593637e+00 2.532978029024913553e+02
3.457521442586619642e+00 -7.494232210615593637e+00 2.532948732149913553e+02
3.861562017586619433e+00 -7.494232210615593637e+00 2.532919435274913553e+02
4.265602115786619741e+00 -7.494232210615593637e+00 2.532890290987913602e+02
4.669642929286619726e+00 -7.494232210615593637e+00 2.532860994112913602e+02
5.073683265886620219e+00 -7.494232210615593637e+00 2.532831697237913602e+02
5.477723602486619825e+00 -7.494232210615593637e+00 2.532802400362913602e+02
5.881763939086620319e+00 -7.494232210615593637e+00 2.532773103487913602e+02
6.285804275686619924e+00 -7.494232210615593637e+00 2.532743959200913650e+02
6.689844612286619530e+00 -7.494232210615593637e+00 2.532714662325913650e+02
7.093884948886620023e+00 -7.494232210615593637e+00 2.532685365450913650e+02
7.497925762386620008e+00 -7.494232210615593637e+00 2.532656068575913650e+02
-4.623286720113379822e+00 -7.090191397115593652e+00 2.533558778536913394e+02
-4.219245906613379837e+00 -7.090191397115593652e+00 2.533529481661913394e+02
-3.815205808413380417e+00 -7.090191397115593652e+00 2.533500184786913394e+02
-3.411165233413380626e+00 -7.090191397115593652e+00 2.533470887911913394e+02
-3.007124896813380577e+00 -7.090191397115593652e+00 2.533441591036913394e+02
-2.603084560213380527e+00 -7.090191397115593652e+00 2.533412446749913443e+02
-2.199044223613380478e+00 -7.090191397115593652e+00 2.533383149874913443e+02
-1.795003767813380557e+00 -7.090191397115593652e+00 2.533353852999913443e+02
-1.390963311913380407e+00 -7.090191397115593652e+00 2.533324556124913443e+02
-9.869228561133803757e-01 -7.090191397115593652e+00 2.533295259249913443e+02
-5.828825195133803261e-01 -7.090191397115593652e+00 2.533266114961913615e+02
-1.788420935133804013e-01 -7.090191397115593652e+00 2.533236818086913615e+02
2.251983026866195836e-01 -7.090191397115593652e+00 2.533207521211913615e+02
6.292387286866195639e-01 -7.090191397115593652e+00 2.533178224336913615e+02
1.033279065286619502e+00 -7.090191397115593652e+00 2.533148927461913615e+02
1.437319521086619423e+00 -7.090191397115593652e+00 2.533119783174913380e+02
1.841359976986619573e+00 -7.090191397115593652e+00 2.533090486299913380e+02
2.245400432786619493e+00 -7.090191397115593652e+00 2.533061189424913380e+02
2.649440769386619543e+00 -7.090191397115593652e+00 2.533031892549913380e+02
3.053481105986619593e+00 -7.090191397115593652e+00 2.533002595674913380e+02
3.457521442586619642e+00 -7.090191397115593652e+00 2.532973451387913428e+02
3.861562017586619433e+00 -7.090191397115593652e+00 2.532944154512913428e+02
4.265602115786619741e+00 -7.090191397115593652e+00 2.532914857637913428e+02
4.669642929286619726e+00 -7.090191397115593652e+00 2.532885560762913428e+02
5.073683265886620219e+00 -7.090191397115593652e+00 2.532856263887913428e+02
5.477723602486619825e+00 -7.090191397115593652e+00 2.532827119600913477e+02
5.881763939086620319e+00 -7.090191397115593652e+00 2.532797822725913477e+02
6.285804275686619924e+00 -7.090191397115593652e+00 2.532768525850913477e+02
6.689844612286619530e+00 -7.090191397115593652e+00 2.532739228975913477e+02
7.093884948886620023e+00 -7.090191397115593652e+00 2.532709932100913477e+02
7.497925762386620008e+00 -7.090191397115593652e+00 2.532680787813913525e+02
-4.623286720113379822e+00 -6.686151060515593159e+00 2.533583345186913505e+02
-4.219245906613379837e+00 -6.686151060515593159e+00 2.533554048311913505e+02
-3.815205808413380417e+00 -6.686151060515593159e+00 2.533524751436913505e+02
-3.411165233413380626e+00 -6.686151060515593159e+00 2.533495454561913505e+02
-3.007124896813380577e+00 -6.686151060515593159e+00 2.533466310274913553e+02
-2.603084560213380527e+00 -6.686151060515593159e+00 2.533437013399913553e+02
-2.199044223613380478e+00 -6.686151060515593159e+00 2.533407716524913553e+02
-1.795003767813380557e+00 -6.686151060515593159e+00 2.533378419649913553e+02
-1.390963311913380407e+00 -6.686151060515593159e+00 2.533349122774913553e+02
-9.869228561133803757e-01 -6.686151060515593159e+00 2.533319978487913602e+02
-5.828825195133803261e-01 -6.686151060515593159e+00 2.533290681612913602e+02
-1.788420935133804013e-01 -6.686151060515593159e+00 2.533261384737913602e+02
2.251983026866195836e-01 -6.686151060515593159e+00 2.533232087862913602e+02
6.292387286866195639e-01 -6.686151060515593159e+00 2.533202790987913602e+02
1.033279065286619502e+00 -6.686151060515593159e+00 2.533173646700913650e+02
1.437319521086619423e+00 -6.686151060515593159e+00 2.533144349825913650e+02
1.841359976986619573e+00 -6.686151060515593159e+00 2.533115052950913650e+02
2.245400432786619493e+00 -6.686151060515593159e+00 2.533085756075913650e+02
2.649440769386619543e+00 -6.686151060515593159e+00 2.533056459200913650e+02
3.053481105986619593e+00 -6.686151060515593159e+00 2.533027314913913415e+02
3.457521442586619642e+00 -6.686151060515593159e+00 2.532998018038913415e+02
3.861562017586619433e+00 -6.686151060515593159e+00 2.532968721163913415e+02
4.265602115786619741e+00 -6.686151060515593159e+00 2.532939424288913415e+02
4.669642929286619726e+00 -6.686151060515593159e+00 2.532910127413913415e+02
5.073683265886620219e+00 -6.686151060515593159e+00 2.532880983125913588e+02
5.477723602486619825e+00 -6.686151060515593159e+00 2.532851686250913588e+02
5.881763939086620319e+00 -6.686151060515593159e+00 2.532822389375913588e+02
6.285804275686619924e+00 -6.686151060515593159e+00 2.532793092500913588e+02
6.689844612286619530e+00 -6.686151060515593159e+00 2.532763795625913588e+02
7.093884948886620023e+00 -6.686151060515593159e+00 2.532734651338913636e+02
-4.623286720113379822e+00 -6.282110723915593553e+00 2.533607911836913615e+02
-4.219245906613379837e+00 -6.282110723915593553e+00 2.533578614961913615e+02
-3.815205808413380417e+00 -6.282110723915593553e+00 2.533549318086913615e+02
-3.411165233413380626e+00 -6.282110723915593553e+00 2.533520173799913380e+02
-3.007124896813380577e+00 -6.282110723915593553e+00 2.533490876924913380e+02
-2.603084560213380527e+00 -6.282110723915593553e+00 2.533461580049913380e+02
-2.199044223613380478e+00 -6.282110723915593553e+00 2.533432283174913380e+02
-1.795003767813380557e+00 -6.282110723915593553e+00 2.533402986299913380e+02
-1.390963311913380407e+00 -6.282110723915593553e+00 2.533373842012913428e+02
-9.869228561133803757e-01 -6.282110723915593553e+00 2.533344545137913428e+02
-5.828825195133803261e-01 -6.282110723915593553e+00 2.533315248262913428e+02
-1.788420935133804013e-01 -6.282110723915593553e+00 2.533285951387913428e+02
2.251983026866195836e-01 -6.282110723915593553e+00 2.533256654512913428e+02
6.292387286866195639e-01 -6.282110723915593553e+00 2.533227510225913477e+02
1.033279065286619502e+00 -6.282110723915593553e+00 2.533198213350913477e+02
1.437319521086619423e+00 -6.282110723915593553e+00 2.533168916475913477e+02
1.841359976986619573e+00 -6.282110723915593553e+00 2.533139619600913477e+02
2.245400432786619493e+00 -6.282110723915593553e+00 2.533110322725913477e+02
2.649440769386619543e+00 -6.282110723915593553e+00 2.533081178438913525e+02
3.053481105986619593e+00 -6.282110723915593553e+00 2.533051881563913525e+02
3.457521442586619642e+00 -6.282110723915593553e+00 2.533022584688913525e+02
3.861562017586619433e+00 -6.282110723915593553e+00 2.532993287813913525e+02
4.265602115786619741e+00 -6.282110723915593553e+00 2.532963990938913525e+02
4.669642929286619726e+00 -6.282110723915593553e+00 2.532934846651913574e+02
5.073683265886620219e+00 -6.282110723915593553e+00 2.532905549776913574e+02
5.477723602486619825e+00 -6.282110723915593553e+00 2.532876252901913574e+02
5.881763939086620319e+00 -6.282110723915593553e+00 2.532846956026913574e+02
6.285804275686619924e+00 -6.282110723915593553e+00 2.532817659151913574e+02
6.689844612286619530e+00 -6.282110723915593553e+00 2.532788514864913623e+02
7.093884948886620023e+00 -6.282110723915593553e+00 2.532759217989913623e+02
-5.027327056713380316e+00 -5.878070387315593948e+00 2.533661775362913602e+02
-4.623286720113379822e+00 -5.878070387315593948e+00 2.533632478487913602e+02
-4.219245906613379837e+00 -5.878070387315593948e+00 2.533603181612913602e+02
-3.815205808413380417e+00 -5.878070387315593948e+00 2.533574037325913650e+02
-3.411165233413380626e+00 -5.878070387315593948e+00 2.533544740450913650e+02
-3.007124896813380577e+00 -5.878070387315593948e+00 2.533515443575913650e+02
-2.603084560213380527e+00 -5.878070387315593948e+00 2.533486146700913650e+02
-2.199044223613380478e+00 -5.878070387315593948e+00 2.533456849825913650e+02
-1.795003767813380557e+00 -5.878070387315593948e+00 2.533427705538913415e+02
-1.390963311913380407e+00 -5.878070387315593948e+00 2.533398408663913415e+02
-9.869228561133803757e-01 -5.878070387315593948e+00 2.533369111788913415e+02
-5.828825195133803261e-01 -5.878070387315593948e+00 2.533339814913913415e+02
-1.788420935133804013e-01 -5.878070387315593948e+00 2.533310518038913415e+02
2.251983026866195836e-01 -5.878070387315593948e+00 2.533281373750913588e+02
6.292387286866195639e-01 -5.878070387315593948e+00 2.533252076875913588e+02
1.033279065286619502e+00 -5.878070387315593948e+00 2.533222780000913588e+02
1.437319521086619423e+00 -5.878070387315593948e+00 2.533193483125913588e+02
1.841359976986619573e+00 -5.878070387315593948e+00 2.533164186250913588e+02
2.245400432786619493e+00 -5.878070387315593948e+00 2.533135041963913636e+02
2.649440769386619543e+00 -5.878070387315593948e+00 2.533105745088913636e+02
3.053481105986619593e+00 -5.878070387315593948e+00 2.533076448213913636e+02
3.457521442586619642e+00 -5.878070387315593948e+00 2.533047151338913636e+02
3.861562017586619433e+00 -5.878070387315593948e+00 2.533017854463913636e+02
4.265602115786619741e+00 -5.878070387315593948e+00 2.532988710176913401e+02
4.669642929286619726e+00 -5.878070387315593948e+00 2.532959413301913401e+02
5.073683265886620219e+00 -5.878070387315593948e+00 2.532930116426913401e+02
5.477723602486619825e+00 -5.878070387315593948e+00 2.532900819551913401e+02
5.881763939086620319e+00 -5.878070387315593948e+00 2.532871522676913401e+02
6.285804275686619924e+00 -5.878070387315593948e+00 2.532842378389913449e+02
6.689844612286619530e+00 -5.878070387315593948e+00 2.532813081514913449e+02
7.093884948886620023e+00 -5.878070387315593948e+00 2.532783784639913449e+02
-5.027327056713380316e+00 -5.474030050715593454e+00 2.533686342012913428e+02
-4.623286720113379822e+00 -5.474030050715593454e+00 2.533657045137913428e+02
-4.219245906613379837e+00 -5.474030050715593454e+00 2.533627900850913477e+02
-3.815205808413380417e+00 -5.474030050715593454e+00 2.533598603975913477e+02
-3.411165233413380626e+00 -5.474030050715593454e+00 2.533569307100913477e+02
-3.007124896813380577e+00 -5.474030050715593454e+00 2.533540010225913477e+02
-2.603084560213380527e+00 -5.474030050715593454e+00 2.533510713350913477e+02
-2.199044223613380478e+00 -5.474030050715593454e+00 2.533481569063913525e+02
-1.795003767813380557e+00 -5.474030050715593454e+00 2.533452272188913525e+02
-1.390963311913380407e+00 -5.474030050715593454e+00 2.533422975313913525e+02
-9.869228561133803757e-01 -5.474030050715593454e+00 2.533393678438913525e+02
-5.828825195133803261e-01 -5.474030050715593454e+00 2.533364381563913525e+02
-1.788420935133804013e-01 -5.474030050715593454e+00 2.533335237276913574e+02
2.251983026866195836e-01 -5.474030050715593454e+00 2.533305940401913574e+02
6.292387286866195639e-01 -5.474030050715593454e+00 2.533276643526913574e+02
1.033279065286619502e+00 -5.474030050715593454e+00 2.533247346651913574e+02
1.437319521086619423e+00 -5.474030050715593454e+00 2.533218049776913574e+02
1.841359976986619573e+00 -5.474030050715593454e+00 2.533188905489913623e+02
2.245400432786619493e+00 -5.474030050715593454e+00 2.533159608614913623e+02
2.649440769386619543e+00 -5.474030050715593454e+00 2.533130311739913623e+02
3.053481105986619593e+00 -5.474030050715593454e+00 2.533101014864913623e+02
3.457521442586619642e+00 -5.474030050715593454e+00 2.533071717989913623e+02
3.861562017586619433e+00 -5.474030050715593454e+00 2.533042573702913387e+02
4.265602115786619741e+00 -5.474030050715593454e+00 2.533013276827913387e+02
4.669642929286619726e+00 -5.474030050715593454e+00 2.532983979952913387e+02
5.073683265886620219e+00 -5.474030050715593454e+00 2.532954683077913387e+02
5.477723602486619825e+00 -5.474030050715593454e+00 2.532925386202913387e+02
5.881763939086620319e+00 -5.474030050715593454e+00 2.532896241915913436e+02
6.285804275686619924e+00 -5.474030050715593454e+00 2.532866945040913436e+02
6.689844612286619530e+00 -5.474030050715593454e+00 2.532837648165913436e+02
7.093884948886620023e+00 -5.474030050715593454e+00 2.532808351290913436e+02
-4.623286720113379822e+00 -5.069989714115593848e+00 2.533681764375913588e+02
-4.219245906613379837e+00 -5.069989714115593848e+00 2.533652467500913588e+02
-3.815205808413380417e+00 -5.069989714115593848e+00 2.533623170625913588e+02
-3.411165233413380626e+00 -5.069989714115593848e+00 2.533593873750913588e+02
-3.007124896813380577e+00 -5.069989714115593848e+00 2.533564729463913636e+02
-2.603084560213380527e+00 -5.069989714115593848e+00 2.533535432588913636e+02
-2.199044223613380478e+00 -5.069989714115593848e+00 2.533506135713913636e+02
-1.795003767813380557e+00 -5.069989714115593848e+00 2.533476838838913636e+02
-1.390963311913380407e+00 -5.069989714115593848e+00 2.533447541963913636e+02
-9.869228561133803757e-01 -5.069989714115593848e+00 2.533418397676913401e+02
-5.828825195133803261e-01 -5.069989714115593848e+00 2.533389100801913401e+02
-1.788420935133804013e-01 -5.069989714115593848e+00 2.533359803926913401e+02
2.251983026866195836e-01 -5.069989714115593848e+00 2.533330507051913401e+02
6.292387286866195639e-01 -5.069989714115593848e+00 2.533301210176913401e+02
1.033279065286619502e+00 -5.069989714115593848e+00 2.533272065889913449e+02
1.437319521086619423e+00 -5.069989714115593848e+00 2.533242769014913449e+02
1.841359976986619573e+00 -5.069989714115593848e+00 2.533213472139913449e+02
2.245400432786619493e+00 -5.069989714115593848e+00 2.533184175264913449e+02
2.649440769386619543e+00 -5.069989714115593848e+00 2.533154878389913449e+02
3.053481105986619593e+00 -5.069989714115593848e+00 2.533125734102913498e+02
3.457521442586619642e+00 -5.069989714115593848e+00 2.533096437227913498e+02
3.861562017586619433e+00 -5.069989714115593848e+00 2.533067140352913498e+02
4.265602115786619741e+00 -5.069989714115593848e+00 2.533037843477913498e+02
4.669642929286619726e+00 -5.069989714115593848e+00 2.533008546602913498e+02
5.073683265886620219e+00 -5.069989714115593848e+00 2.532979249727913498e+02
5.477723602486619825e+00 -5.069989714115593848e+00 2.532950105440913546e+02
5.881763939086620319e+00 -5.069989714115593848e+00 2.532920808565913546e+02
6.285804275686619924e+00 -5.069989714115593848e+00 2.532891511690913546e+02
6.689844612286619530e+00 -5.069989714115593848e+00 2.532862214815913546e+02
-4.623286720113379822e+00 -4.665949377515593355e+00 2.533706331026913574e+02
-4.219245906613379837e+00 -4.665949377515593355e+00 2.533677034151913574e+02
-3.815205808413380417e+00 -4.665949377515593355e+00 2.533647737276913574e+02
-3.411165233413380626e+00 -4.665949377515593355e+00 2.533618592989913623e+02
-3.007124896813380577e+00 -4.665949377515593355e+00 2.533589296114913623e+02
-2.603084560213380527e+00 -4.665949377515593355e+00 2.533559999239913623e+02
-2.199044223613380478e+00 -4.665949377515593355e+00 2.533530702364913623e+02
-1.795003767813380557e+00 -4.665949377515593355e+00 2.533501405489913623e+02
-1.390963311913380407e+00 -4.665949377515593355e+00 2.533472261202913387e+02
-9.869228561133803757e-01 -4.665949377515593355e+00 2.533442964327913387e+02
-5.828825195133803261e-01 -4.665949377515593355e+00 2.533413667452913387e+02
-1.788420935133804013e-01 -4.665949377515593355e+00 2.533384370577913387e+02
2.251983026866195836e-01 -4.665949377515593355e+00 2.533355073702913387e+02
6.292387286866195639e-01 -4.665949377515593355e+00 2.533325929415913436e+02
1.033279065286619502e+00 -4.665949377515593355e+00 2.533296632540913436e+02
1.437319521086619423e+00 -4.665949377515593355e+00 2.533267335665913436e+02
1.841359976986619573e+00 -4.665949377515593355e+00 2.533238038790913436e+02
2.245400432786619493e+00 -4.665949377515593355e+00 2.533208741915913436e+02
2.649440769386619543e+00 -4.665949377515593355e+00 2.533179597627913608e+02
3.053481105986619593e+00 -4.665949377515593355e+00 2.533150300752913608e+02
3.457521442586619642e+00 -4.665949377515593355e+00 2.533121003877913608e+02
3.861562017586619433e+00 -4.665949377515593355e+00 2.533091707002913608e+02
4.265602115786619741e+00 -4.665949377515593355e+00 2.533062410127913608e+02
4.669642929286619726e+00 -4.665949377515593355e+00 2.533033265840913657e+02
5.073683265886620219e+00 -4.665949377515593355e+00 2.533003968965913657e+02
5.477723602486619825e+00 -4.665949377515593355e+00 2.532974672090913657e+02
5.881763939086620319e+00 -4.665949377515593355e+00 2.532945375215913657e+02
6.285804275686619924e+00 -4.665949377515593355e+00 2.532916078340913657e+02
6.689844612286619530e+00 -4.665949377515593355e+00 2.532886934053913421e+02
7.093884948886620023e+00 -4.665949377515593355e+00 2.532857637178913421e+02
-4.623286720113379822e+00 -4.261908564015593370e+00 2.533730897676913401e+02
-4.219245906613379837e+00 -4.261908564015593370e+00 2.533701600801913401e+02
-3.815205808413380417e+00 -4.261908564015593370e+00 2.533672456514913449e+02
-3.411165233413380626e+00 -4.261908564015593370e+00 2.533643159639913449e+02
-3.007124896813380577e+00 -4.261908564015593370e+00 2.533613862764913449e+02
-2.603084560213380527e+00 -4.261908564015593370e+00 2.533584565889913449e+02
-2.199044223613380478e+00 -4.261908564015593370e+00 2.533555269014913449e+02
-1.795003767813380557e+00 -4.261908564015593370e+00 2.533526124727913498e+02
-1.390963311913380407e+00 -4.261908564015593370e+00 2.533496827852913498e+02
-9.869228561133803757e-01 -4.261908564015593370e+00 2.533467530977913498e+02
-5.828825195133803261e-01 -4.261908564015593370e+00 2.533438234102913498e+02
-1.788420935133804013e-01 -4.261908564015593370e+00 2.533408937227913498e+02
2.251983026866195836e-01 -4.261908564015593370e+00 2.533379792940913546e+02
6.292387286866195639e-01 -4.261908564015593370e+00 2.533350496065913546e+02
1.033279065286619502e+00 -4.261908564015593370e+00 2.533321199190913546e+02
1.437319521086619423e+00 -4.261908564015593370e+00 2.533291902315913546e+02
1.841359976986619573e+00 -4.261908564015593370e+00 2.533262605440913546e+02
2.245400432786619493e+00 -4.261908564015593370e+00 2.533233461153913595e+02
2.649440769386619543e+00 -4.261908564015593370e+00 2.533204164278913595e+02
3.053481105986619593e+00 -4.261908564015593370e+00 2.533174867403913595e+02
