-1.027693529614435608e+00 -1.231861354777295325e+01 2.537984490468215029e+02
9.925084905858183593e-01 -1.231861354777297279e+01 2.538111423301215268e+02
1.396548894585856848e+00 -1.231861354777297635e+01 2.538136809868215096e+02
1.800589298685848716e+00 -1.231861354777297457e+01 2.538162196435215208e+02
2.204629702685821258e+00 -1.231861354777297457e+01 2.538187583001215160e+02
-1.027693529614405854e+00 -1.191457314377294985e+01 2.537977825428215226e+02
-6.236531256144274282e-01 -1.191457314377295162e+01 2.538003211994215178e+02
-2.196127215143185984e-01 -1.191457314377297294e+01 2.538028598561215290e+02
1.844276824856544983e-01 -1.191457314377297649e+01 2.538053985128215118e+02
5.884680865858038512e-01 -1.191457314377296584e+01 2.538079371694215070e+02
9.925084905857600726e-01 -1.191457314377296584e+01 2.538104758261215181e+02
1.396548894585818434e+00 -1.191457314377297472e+01 2.538130144828215293e+02
1.800589298685776107e+00 -1.191457314377296228e+01 2.538155531394215245e+02
2.204629702685847459e+00 -1.191457314377296051e+01 2.538180917961215073e+02
-1.027693529614377210e+00 -1.151053273977293578e+01 2.537971160388215139e+02
-6.236531256144154378e-01 -1.151053273977293578e+01 2.537996546954215091e+02
-2.196127215144152434e-01 -1.151053273977293756e+01 2.538021933521215203e+02
1.844276824857173092e-01 -1.151053273977294822e+01 2.538047320088215031e+02
5.884680865858031851e-01 -1.151053273977295888e+01 2.538072706654215267e+02
9.925084905857588513e-01 -1.151053273977295355e+01 2.538098093221215095e+02
1.396548894585744716e+00 -1.151053273977294999e+01 2.538123479788215207e+02
1.800589298685773887e+00 -1.151053273977293934e+01 2.538148866354215158e+02
-1.027693529614295054e+00 -1.110649233567296079e+01 2.537964495347215177e+02
-6.236531256143231783e-01 -1.110649233567293059e+01 2.537989881914215289e+02
-2.196127215143210409e-01 -1.110649233567295013e+01 2.538015268481215116e+02
1.844276824857445929e-01 -1.110649233567294836e+01 2.538040655047215068e+02
5.884680865857361276e-01 -1.110649233567294658e+01 2.538066041614215180e+02
9.925084905857316508e-01 -1.110649233567295369e+01 2.538091428181215292e+02
1.396548894585782907e+00 -1.110649233567294658e+01 2.538116814747215244e+02
1.800589298685728590e+00 -1.110649233567292526e+01 2.538142201314215072e+02
-1.027693529614264190e+00 -1.070245193167299647e+01 2.537957830307215090e+02
-6.236531256143188484e-01 -1.070245193167297160e+01 2.537983216874215202e+02
-2.196127215143229006e-01 -1.070245193167293252e+01 2.538008603440215154e+02
1.844276824857434272e-01 -1.070245193167293785e+01 2.538033990007215266e+02
5.884680865857105925e-01 -1.070245193167296449e+01 2.538059376574215094e+02
9.925084905857589623e-01 -1.070245193167295383e+01 2.538084763140215045e+02
1.396548894585717404e+00 -1.070245193167295028e+01 2.538110149707215157e+02
1.800589298685704609e+00 -1.070245193167295739e+01 2.538135536274215269e+02
-6.236531256142503477e-01 -1.029841152757299838e+01 2.537976551833215240e+02
-2.196127215143322264e-01 -1.029841152757297351e+01 2.538001938400215067e+02
1.844276824856792563e-01 -1.029841152757295397e+01 2.538027324967215179e+02
5.884680865857163656e-01 -1.029841152757296818e+01 2.538052711534215291e+02
9.925084905857607387e-01 -1.029841152757297351e+01 2.538078098100215243e+02
1.396548894585761369e+00 -1.029841152757298062e+01 2.538103484667215071e+02
1.800589298685678408e+00 -1.029841152757299838e+01 2.538128871234215183e+02
2.204629702685695580e+00 -1.029841152757300016e+01 2.538154257800215134e+02
-6.236531256142368029e-01 -9.894371123572998528e+00 2.537969886793215153e+02
-2.196127215143440781e-01 -9.894371123572993199e+00 2.537995273360215265e+02
1.844276824856697916e-01 -9.894371123572994975e+00 2.538020659927215092e+02
5.884680865857311316e-01 -9.894371123572980764e+00 2.538046046493215044e+02
9.925084905856716988e-01 -9.894371123573012738e+00 2.538071433060215156e+02
1.396548894585779355e+00 -9.894371123573021620e+00 2.538096819627215268e+02
1.800589298685706163e+00 -9.894371123573003857e+00 2.538122206193215220e+02
2.204629702685726667e+00 -9.894371123573016291e+00 2.538147592760215048e+02
-1.027693529614343459e+00 -9.490330719472998666e+00 2.537937835186215239e+02
-6.236531256141993884e-01 -9.490330719472988008e+00 2.537963221753215066e+02
-2.196127215143015843e-01 -9.490330719472979126e+00 2.537988608320215178e+02
1.844276824857380703e-01 -9.490330719472966692e+00 2.538013994886215130e+02
5.884680865858095133e-01 -9.490330719472970245e+00 2.538039381453215242e+02
9.925084905857618489e-01 -9.490330719472984455e+00 2.538064768020215070e+02
1.396548894585746936e+00 -9.490330719473003995e+00 2.538090154586215306e+02
1.800589298685771222e+00 -9.490330719472995114e+00 2.538115541153215133e+02
2.204629702685843018e+00 -9.490330719472977350e+00 2.538140927720215245e+02
-1.027693529614414070e+00 -9.086290315473004142e+00 2.537931170146215152e+02
-6.236531256143104107e-01 -9.086290315472973944e+00 2.537956556713215264e+02
-2.196127215142403832e-01 -9.086290315472933088e+00 2.537981943279215216e+02
1.844276824857424557e-01 -9.086290315472927759e+00 2.538007329846215043e+02
5.884680865857374599e-01 -9.086290315472961510e+00 2.538032716413215155e+02
9.925084905858303497e-01 -9.086290315472959733e+00 2.538058102980215267e+02
1.396548894585840861e+00 -9.086290315472982826e+00 2.538083489546215219e+02
1.800589298685884465e+00 -9.086290315472977497e+00 2.538108876113215047e+02
2.204629702685911408e+00 -9.086290315473005919e+00 2.538134262680215159e+02
-1.027693529614385426e+00 -8.682249911473016724e+00 2.537924505106215065e+02
-6.236531256145103619e-01 -8.682249911473000736e+00 2.537949891673215177e+02
-2.196127215144723921e-01 -8.682249911472995407e+00 2.537975278239215129e+02
1.844276824857206121e-01 -8.682249911473011394e+00 2.538000664806215241e+02
5.884680865858671339e-01 -8.682249911473023829e+00 2.538026051373215068e+02
9.925084905860174223e-01 -8.682249911473022053e+00 2.538051437939215589e+02
1.396548894586112866e+00 -8.682249911473046922e+00 2.538076824506215416e+02
1.800589298686061213e+00 -8.682249911473022053e+00 2.538102211073215244e+02
-1.027693529614501777e+00 -8.278209507373004428e+00 2.537917840066215263e+02
-6.236531256144567381e-01 -8.278209507373015086e+00 2.537943226632215215e+02
-2.196127215143563738e-01 -8.278209507373006204e+00 2.537968613199215042e+02
1.844276824858035180e-01 -8.278209507373015086e+00 2.537993999766215154e+02
5.884680865860255627e-01 -8.278209507373020415e+00 2.538019386332215390e+02
9.925084905860834805e-01 -8.278209507373023968e+00 2.538044772899215502e+02
1.396548894586080669e+00 -8.278209507373027520e+00 2.538070159466215330e+02
1.800589298686166684e+00 -8.278209507373011533e+00 2.538095546032215566e+02
-1.027693529614342571e+00 -7.874169103373059642e+00 2.537911175025215300e+02
-6.236531256142813229e-01 -7.874169103373043654e+00 2.537936561592215128e+02
-2.196127215142441857e-01 -7.874169103373029444e+00 2.537961948159215240e+02
1.844276824857868369e-01 -7.874169103373014345e+00 2.537987334725215192e+02
5.884680865858205046e-01 -7.874169103372995693e+00 2.538012721292215303e+02
9.925084905859505868e-01 -7.874169103373009904e+00 2.538038107859215131e+02
1.396548894586045142e+00 -7.874169103373027667e+00 2.538063494425215367e+02
1.800589298685970174e+00 -7.874169103373040102e+00 2.538088880992215195e+02
-1.027693529614146728e+00 -7.470128699273020700e+00 2.537904509985215213e+02
-6.236531256144350888e-01 -7.470128699273010930e+00 2.537929896552215041e+02
-2.196127215143985900e-01 -7.470128699273020700e+00 2.537955283119215153e+02
1.844276824856550256e-01 -7.470128699273011819e+00 2.537980669685215105e+02
5.884680865856977139e-01 -7.470128699273000272e+00 2.538006056252215217e+02
9.925084905857469719e-01 -7.470128699272999384e+00 2.538031442819215044e+02
1.396548894585908585e+00 -7.470128699273030470e+00 2.538056829385215281e+02
1.800589298686022355e+00 -7.470128699273018036e+00 2.538082215952215392e+02
-1.027693529614229329e+00 -7.066088295272989761e+00 2.537897844945215127e+02
-6.236531256143235113e-01 -7.066088295272979103e+00 2.537923231512215239e+02
-2.196127215143892364e-01 -7.066088295272978215e+00 2.537948618078215191e+02
1.844276824855710373e-01 -7.066088295272967557e+00 2.537974004645215302e+02
5.884680865856162235e-01 -7.066088295272979991e+00 2.537999391212215130e+02
9.925084905856780271e-01 -7.066088295272968445e+00 2.538024777778215082e+02
1.396548894585959655e+00 -7.066088295272966668e+00 2.538050164345215194e+02
1.800589298686169126e+00 -7.066088295272980879e+00 2.538075550912215590e+02
2.204629702686062842e+00 -7.066088295272986208e+00 2.538100937478215542e+02
-6.236531256142828772e-01 -6.662047891272976585e+00 2.537916566471215276e+02
-2.196127215143917066e-01 -6.662047891272955269e+00 2.537941953038215104e+02
1.844276824856222463e-01 -6.662047891272957933e+00 2.537967339605215216e+02
5.884680865857859766e-01 -6.662047891272954381e+00 2.537992726171215168e+02
9.925084905858222450e-01 -6.662047891272959710e+00 2.538018112738215279e+02
1.396548894585988076e+00 -6.662047891272979250e+00 2.538043499305215107e+02
1.800589298686081197e+00 -6.662047891272981026e+00 2.538068885871215343e+02
2.204629702685861670e+00 -6.662047891272971256e+00 2.538094272438215171e+02
-6.236531256142165969e-01 -6.258007487172982053e+00 2.537909901431215189e+02
-2.196127215143003908e-01 -6.258007487172938532e+00 2.537935287998215301e+02
1.844276824857681574e-01 -6.258007487172913663e+00 2.537960674565215129e+02
5.884680865858250565e-01 -6.258007487172908334e+00 2.537986061131215081e+02
9.925084905857787243e-01 -6.258007487172910999e+00 2.538011447698215193e+02
1.396548894585883049e+00 -6.258007487172942973e+00 2.538036834265215305e+02
1.800589298685937756e+00 -6.258007487172966954e+00 2.538062220831215257e+02
-1.027693529614163381e+00 -5.853967083172991970e+00 2.537877849824215275e+02
-6.236531256142312518e-01 -5.853967083172969765e+00 2.537903236391215103e+02
-2.196127215141976396e-01 -5.853967083172952002e+00 2.537928622958215215e+02
1.844276824859308883e-01 -5.853967083172951114e+00 2.537954009524215166e+02
5.884680865859878152e-01 -5.853967083172945784e+00 2.537979396091215278e+02
9.925084905859326012e-01 -5.853967083172913810e+00 2.538004782658215106e+02
1.396548894585868839e+00 -5.853967083172936015e+00 2.538030169224215058e+02
1.800589298685842721e+00 -5.853967083172946673e+00 2.538055555791215170e+02
-1.027693529614226442e+00 -5.449926679073019642e+00 2.537871184784215188e+02
-6.236531256141483182e-01 -5.449926679073006319e+00 2.537896571351215300e+02
-2.196127215139321298e-01 -5.449926679073004543e+00 2.537921957917215536e+02
1.844276824860009989e-01 -5.449926679072993885e+00 2.537947344484215080e+02
5.884680865858999965e-01 -5.449926679072996549e+00 2.537972731051215192e+02
9.925084905859273832e-01 -5.449926679072997437e+00 2.537998117617215144e+02
1.396548894585807332e+00 -5.449926679073000990e+00 2.538023504184215255e+02
1.800589298685791206e+00 -5.449926679073005431e+00 2.538048890751215083e+02
2.204629702685729775e+00 -5.449926679073016089e+00 2.538074277317215035e+02
-1.027693529614226886e+00 -5.045886275073014460e+00 2.537864519744215102e+02
-6.236531256141335522e-01 -5.045886275073017124e+00 2.537889906310215054e+02
-2.196127215140616373e-01 -5.045886275072995808e+00 2.537915292877215165e+02
1.844276824859219510e-01 -5.045886275072997584e+00 2.537940679444215277e+02
5.884680865858549215e-01 -5.045886275072984262e+00 2.537966066011215105e+02
9.925084905858496676e-01 -5.045886275072984262e+00 2.537991452577215057e+02
1.396548894585886602e+00 -5.045886275072999361e+00 2.538016839144215169e+02
1.800589298685916440e+00 -5.045886275073025118e+00 2.538042225711215281e+02
2.204629702685803050e+00 -5.045886275073040217e+00 2.538067612277215233e+02
-1.027693529614323031e+00 -4.641845871072985297e+00 2.537857854704215299e+02
-6.236531256143432733e-01 -4.641845871073001284e+00 2.537883241270215251e+02
-2.196127215142593403e-01 -4.641845871072963980e+00 2.537908627837215079e+02
1.844276824858039898e-01 -4.641845871072967533e+00 2.537934014404215191e+02
5.884680865858280541e-01 -4.641845871072987961e+00 2.537959400970215142e+02
9.925084905860225293e-01 -4.641845871072989738e+00 2.537984787537215539e+02
1.396548894586103762e+00 -4.641845871073010166e+00 2.538010174104215366e+02
1.800589298686013251e+00 -4.641845871073033258e+00 2.538035560670215318e+02
-6.236531256144031143e-01 -4.237805466972976554e+00 2.537876576230215164e+02
-2.196127215145272371e-01 -4.237805466973020074e+00 2.537901962797215276e+02
1.844276824857175312e-01 -4.237805466973031621e+00 2.537927349363215228e+02
5.884680865859059917e-01 -4.237805466973056490e+00 2.537952735930215056e+02
9.925084905860878104e-01 -4.237805466973066260e+00 2.537978122497215452e+02
1.396548894586045142e+00 -4.237805466973050272e+00 2.538003509063215120e+02
1.800589298685975947e+00 -4.237805466973068036e+00 2.538028895630215231e+02
-6.236531256145023683e-01 -3.833765062972966930e+00 2.537869911190215078e+02
-2.196127215146074785e-01 -3.833765062972958937e+00 2.537895297756215029e+02
1.844276824854066410e-01 -3.833765062972963378e+00 2.537920684323215141e+02
5.884680865856373178e-01 -3.833765062972971815e+00 2.537946070890215253e+02
9.925084905858326811e-01 -3.833765062972981141e+00 2.537971457456215205e+02
1.396548894585805778e+00 -3.833765062972986470e+00 2.537996844023215033e+02
1.800589298685825623e+00 -3.833765062972988691e+00 2.538022230590215145e+02
-6.236531256147087587e-01 -3.429724658872982612e+00 2.537863246150215275e+02
-2.196127215148271083e-01 -3.429724658872977727e+00 2.537888632716215227e+02
1.844276824852494889e-01 -3.429724658872979948e+00 2.537914019283215055e+02
5.884680865853699760e-01 -3.429724658872981724e+00 2.537939405850215167e+02
9.925084905855232620e-01 -3.429724658872979060e+00 2.537964792416215118e+02
1.396548894585509570e+00 -3.429724658872979504e+00 2.537990178983215230e+02
1.800589298685575601e+00 -3.429724658872983056e+00 2.538015565550215058e+02
-1.027693529614452927e+00 -3.025684254873022283e+00 2.537831194543215076e+02
-6.236531256146056190e-01 -3.025684254873000967e+00 2.537856581109215028e+02
-2.196127215145783074e-01 -3.025684254873001855e+00 2.537881967676215140e+02
1.844276824855335395e-01 -3.025684254873000523e+00 2.537907354243215252e+02
5.884680865855743681e-01 -3.025684254873000079e+00 2.537932740809215204e+02
9.925084905855994233e-01 -3.025684254873000079e+00 2.537958127376215032e+02
1.396548894585432077e+00 -3.025684254872997858e+00 2.537983513943215144e+02
1.800589298685542960e+00 -3.025684254873011625e+00 2.538008900509215096e+02
-1.027693529614524426e+00 -2.621643850873018433e+00 2.537824529502215114e+02
-6.236531256144222102e-01 -2.621643850873027759e+00 2.537849916069215226e+02
-2.196127215144217382e-01 -2.621643850873032644e+00 2.537875302636215054e+02
1.844276824855327346e-01 -2.621643850873044634e+00 2.537900689202215290e+02
5.884680865854914344e-01 -2.621643850873045523e+00 2.537926075769215117e+02
9.925084905853629458e-01 -2.621643850873045967e+00 2.537951462336215229e+02
1.396548894585422307e+00 -2.621643850873037085e+00 2.537976848902215181e+02
1.800589298685395079e+00 -2.621643850873035753e+00 2.538002235469215293e+02
-1.027693529614215340e+00 -2.217603446773018572e+00 2.537817864462215027e+02
-6.236531256142503477e-01 -2.217603446773023013e+00 2.537843251029215139e+02
-2.196127215144511313e-01 -2.217603446773040332e+00 2.537868637596215251e+02
1.844276824855907160e-01 -2.217603446773049658e+00 2.537894024162215203e+02
5.884680865853604281e-01 -2.217603446773045217e+00 2.537919410729215031e+02
9.925084905852583628e-01 -2.217603446773037668e+00 2.537944797296215143e+02
1.396548894585314393e+00 -2.217603446773025233e+00 2.537970183862215094e+02
1.800589298685316475e+00 -2.217603446773015463e+00 2.537995570429215206e+02
-1.027693529614423174e+00 -1.813563042773020051e+00 2.537811199422215225e+02
-6.236531256144530744e-01 -1.813563042773020939e+00 2.537836585989215052e+02
-2.196127215143813538e-01 -1.813563042773028045e+00 2.537861972555215289e+02
1.844276824853944285e-01 -1.813563042773029155e+00 2.537887359122215116e+02
5.884680865853538778e-01 -1.813563042773032707e+00 2.537912745689215228e+02
9.925084905853157613e-01 -1.813563042773037148e+00 2.537938132255215180e+02
1.396548894585433187e+00 -1.813563042773032707e+00 2.537963518822215292e+02
1.800589298685343786e+00 -1.813563042773015610e+00 2.537988905389215120e+02
-6.236531256144209889e-01 -1.409522638672958905e+00 2.537829920948215090e+02
-2.196127215144875744e-01 -1.409522638672950912e+00 2.537855307515215202e+02
1.844276824855913544e-01 -1.409522638672946249e+00 2.537880694082215030e+02
5.884680865853937348e-01 -1.409522638672942030e+00 2.537906080648215266e+02
9.925084905853145401e-01 -1.409522638672942918e+00 2.537931467215215093e+02
1.396548894585041056e+00 -1.409522638672948025e+00 2.537956853782215205e+02
1.800589298685000061e+00 -1.409522638672945583e+00 2.537982240348215157e+02
2.204629702685164006e+00 -1.409522638672948025e+00 2.538007626915215269e+02
-6.236531256143280633e-01 -1.005482234672956832e+00 2.537823255908215287e+02
-2.196127215143287570e-01 -1.005482234672950170e+00 2.537848642475215115e+02
1.844276824856274088e-01 -1.005482234672951058e+00 2.537874029042215227e+02
5.884680865855613785e-01 -1.005482234672947950e+00 2.537899415608215179e+02
9.925084905854022477e-01 -1.005482234672944397e+00 2.537924802175215291e+02
1.396548894585106115e+00 -1.005482234672940178e+00 2.537950188742215119e+02
1.800589298684796224e+00 -1.005482234672934183e+00 2.537975575308215070e+02
2.204629702684757664e+00 -1.005482234672937736e+00 2.538000961875215182e+02
-6.236531256143860169e-01 -6.014418306729519825e-01 2.537816590868215201e+02
-2.196127215143414968e-01 -6.014418306729588659e-01 2.537841977435215028e+02
1.844276824856145858e-01 -6.014418306729580888e-01 2.537867364001215265e+02
5.884680865856146692e-01 -6.014418306729586439e-01 2.537892750568215092e+02
9.925084905853812645e-01 -6.014418306729526487e-01 2.537918137135215204e+02
1.396548894585194489e+00 -6.014418306729476527e-01 2.537943523701215156e+02
1.800589298685062678e+00 -6.014418306729426567e-01 2.537968910268215268e+02
-1.027693529614777557e+00 -1.974014265729551465e-01 2.537784539261215286e+02
-6.236531256145305679e-01 -1.974014265729579776e-01 2.537809925828215114e+02
-2.196127215143851286e-01 -1.974014265729608919e-01 2.537835312394215066e+02
1.844276824856148911e-01 -1.974014265729603368e-01 2.537860698961215178e+02
5.884680865856197762e-01 -1.974014265729582551e-01 2.537886085528215290e+02
9.925084905854416606e-01 -1.974014265729533146e-01 2.537911472094215242e+02
1.396548894585189382e+00 -1.974014265729481243e-01 2.537936858661215069e+02
1.800589298685238981e+00 -1.974014265729517881e-01 2.537962245228215181e+02
-1.027693529614623014e+00 2.066389774270353530e-01 2.537777874221215200e+02
-6.236531256146451430e-01 2.066389774270387669e-01 2.537803260787215152e+02
-2.196127215145823874e-01 2.066389774270377677e-01 2.537828647354215263e+02
1.844276824855110575e-01 2.066389774270344926e-01 2.537854033921215091e+02
5.884680865855715926e-01 2.066389774270332158e-01 2.537879420487215043e+02
9.925084905855307005e-01 2.066389774270335489e-01 2.537904807054215155e+02
1.396548894585538880e+00 2.066389774270341317e-01 2.537930193621215267e+02
1.800589298685681072e+00 2.066389774270338542e-01 2.537955580188215094e+02
2.204629702685812376e+00 2.066389774270334101e-01 2.537980966754215046e+02
-1.027693529614609913e+00 6.106793815270391557e-01 2.537771209181215113e+02
-6.236531256147169744e-01 6.106793815270452619e-01 2.537796595747215065e+02
-2.196127215149146494e-01 6.106793815270494807e-01 2.537821982314215177e+02
1.844276824853377794e-01 6.106793815270431525e-01 2.537847368881215289e+02
5.884680865854917675e-01 6.106793815270369352e-01 2.537872755447215241e+02
9.925084905855304784e-01 6.106793815270358250e-01 2.537898142014215068e+02
1.396548894585676104e+00 6.106793815270311621e-01 2.537923528581215180e+02
1.800589298685449036e+00 6.106793815270326053e-01 2.537948915147215132e+02
2.204629702685612980e+00 6.106793815270301629e-01 2.537974301714215244e+02
-6.236531256149125957e-01 1.014719785527057994e+00 2.537789930707215262e+02
-2.196127215149342171e-01 1.014719785527054885e+00 2.537815317274215090e+02
1.844276824852882635e-01 1.014719785527046225e+00 2.537840703840215042e+02
5.884680865853542109e-01 1.014719785527044893e+00 2.537866090407215154e+02
9.925084905855927619e-01 1.014719785527041562e+00 2.537891476974215266e+02
1.396548894585696754e+00 1.014719785527042228e+00 2.537916863540215218e+02
1.800589298685699946e+00 1.014719785527040674e+00 2.537942250107215045e+02
-6.236531256144572932e-01 1.418760189527048299e+00 2.537783265667215176e+02
-2.196127215145498024e-01 1.418760189527043414e+00 2.537808652233215128e+02
1.844276824855572428e-01 1.418760189527039417e+00 2.537834038800215239e+02
5.884680865855270726e-01 1.418760189527039417e+00 2.537859425367215067e+02
9.925084905855054984e-01 1.418760189527036752e+00 2.537884811933215303e+02
1.396548894585444511e+00 1.418760189527046300e+00 2.537910198500215131e+02
1.800589298685370432e+00 1.418760189527048077e+00 2.537935585067215243e+02
-6.236531256145460000e-01 1.822800593627058818e+00 2.537776600627215089e+02
-2.196127215145284306e-01 1.822800593627049492e+00 2.537801987193215041e+02
1.844276824854189645e-01 1.822800593627054599e+00 2.537827373760215153e+02
5.884680865856096732e-01 1.822800593627061261e+00 2.537852760327215265e+02
9.925084905855546813e-01 1.822800593627065480e+00 2.537878146893215217e+02
1.396548894585539768e+00 1.822800593627077692e+00 2.537903533460215044e+02
1.800589298685620454e+00 1.822800593627066368e+00 2.537928920027215156e+02
-6.236531256140699364e-01 2.226840997627061558e+00 2.537769935586215126e+02
-2.196127215139924704e-01 2.226840997627052232e+00 2.537795322153215238e+02
1.844276824857359887e-01 2.226840997627059782e+00 2.537820708720215066e+02
5.884680865855296261e-01 2.226840997627066443e+00 2.537846095286215302e+02
9.925084905853444051e-01 2.226840997627061114e+00 2.537871481853215130e+02
1.396548894585227574e+00 2.226840997627077545e+00 2.537896868420215242e+02
1.800589298685359108e+00 2.226840997627077101e+00 2.537922254986215194e+02
-1.027693529614185808e+00 2.630881401727100943e+00 2.537737883979215212e+02
-6.236531256143088564e-01 2.630881401727098723e+00 2.537763270546215040e+02
-2.196127215143615086e-01 2.630881401727104052e+00 2.537788657113215152e+02
1.844276824855219932e-01 2.630881401727089397e+00 2.537814043679215104e+02
5.884680865854863274e-01 2.630881401727091617e+00 2.537839430246215215e+02
9.925084905855937611e-01 2.630881401727084512e+00 2.537864816813215043e+02
1.396548894585387446e+00 2.630881401727094726e+00 2.537890203379215279e+02
1.800589298685551398e+00 2.630881401727097391e+00 2.537915589946215107e+02
-1.027693529614037704e+00 3.034921805727070598e+00 2.537731218939215125e+02
-6.236531256139660195e-01 3.034921805727064825e+00 2.537756605506215237e+02
-2.196127215141495115e-01 3.034921805727062605e+00 2.537781992073215065e+02
1.844276824855112795e-01 3.034921805727060828e+00 2.537807378639215301e+02
5.884680865852705001e-01 3.034921805727057720e+00 2.537832765206215129e+02
9.925084905854376638e-01 3.034921805727057276e+00 2.537858151773215241e+02
1.396548894585353473e+00 3.034921805727050614e+00 2.537883538339215193e+02
1.800589298685475903e+00 3.034921805727061273e+00 2.537908924906215304e+02
2.204629702685615200e+00 3.034921805727062605e+00 2.537934311473215132e+02
-1.027693529614850609e+00 3.438962209727042918e+00 2.537724553899215039e+02
-6.236531256147577196e-01 3.438962209727044250e+00 2.537749940466215151e+02
-2.196127215145680933e-01 3.438962209727038033e+00 2.537775327032215102e+02
1.844276824856459496e-01 3.438962209727031372e+00 2.537800713599215214e+02
5.884680865857083720e-01 3.438962209727035368e+00 2.537826100166215042e+02
9.925084905857326500e-01 3.438962209727036257e+00 2.537851486732215278e+02
1.396548894585654343e+00 3.438962209727050912e+00 2.537876873299215106e+02
1.800589298685481898e+00 3.438962209727054020e+00 2.537902259866215218e+02
2.204629702685383386e+00 3.438962209727052244e+00 2.537927646432215170e+02
-1.027693529614593038e+00 3.843002613826956626e+00 2.537717888859215236e+02
-6.236531256144519642e-01 3.843002613826944192e+00 2.537743275425215188e+02
-2.196127215145703970e-01 3.843002613826926872e+00 2.537768661992215300e+02
1.844276824854702568e-01 3.843002613826929093e+00 2.537794048559215128e+02
5.884680865855547172e-01 3.843002613826932201e+00 2.537819435125215080e+02
9.925084905855665607e-01 3.843002613826921099e+00 2.537844821692215191e+02
1.396548894585371681e+00 3.843002613826925096e+00 2.537870208259215303e+02
1.800589298685372208e+00 3.843002613826897118e+00 2.537895594825215255e+02
2.204629702685587667e+00 3.843002613826901115e+00 2.537920981392215083e+02
-6.236531256146808921e-01 4.247043017826883649e+00 2.537736610385215101e+02
-2.196127215144854927e-01 4.247043017826902300e+00 2.537761996952215213e+02
1.844276824857930264e-01 4.247043017826906741e+00 2.537787383518215165e+02
5.884680865858248344e-01 4.247043017826914735e+00 2.537812770085215277e+02
9.925084905859038464e-01 4.247043017826919176e+00 2.537838156652215105e+02
1.396548894585676770e+00 4.247043017826912958e+00 2.537863543219215217e+02
1.800589298685417727e+00 4.247043017826881872e+00 2.537888929785215169e+02
-6.236531256146812252e-01 4.651083421926967887e+00 2.537729945345215299e+02
-2.196127215148850620e-01 4.651083421926979433e+00 2.537755331912215127e+02
1.844276824851266428e-01 4.651083421926946571e+00 2.537780718478215078e+02
5.884680865852676135e-01 4.651083421926928807e+00 2.537806105045215190e+02
9.925084905854657524e-01 4.651083421926944794e+00 2.537831491612215302e+02
1.396548894585551315e+00 4.651083421926912820e+00 2.537856878178215254e+02
1.800589298685860928e+00 4.651083421926909267e+00 2.537882264745215082e+02
-6.236531256147802571e-01 5.055123825926946424e+00 2.537723280305215212e+02
-2.196127215146891631e-01 5.055123825926910897e+00 2.537748666871215164e+02
1.844276824854834684e-01 5.055123825926909120e+00 2.537774053438215276e+02
5.884680865854725607e-01 5.055123825926905567e+00 2.537799440005215104e+02
9.925084905856449424e-01 5.055123825926908232e+00 2.537824826571215056e+02
1.396548894585498024e+00 5.055123825926901127e+00 2.537850213138215167e+02
1.800589298685580486e+00 5.055123825926894909e+00 2.537875599705215279e+02
-1.027693529614913892e+00 5.459164229926913414e+00 2.537691228698215298e+02
-6.236531256148336588e-01 5.459164229926905421e+00 2.537716615264215250e+02
-2.196127215147608280e-01 5.459164229926888545e+00 2.537742001831215077e+02
1.844276824853471608e-01 5.459164229926904532e+00 2.537767388398215189e+02
5.884680865853897380e-01 5.459164229926887657e+00 2.537792774964215141e+02
9.925084905854574258e-01 5.459164229926893874e+00 2.537818161531215253e+02
1.396548894585527112e+00 5.459164229926883216e+00 2.537843548098215081e+02
1.800589298685548290e+00 5.459164229926860123e+00 2.537868934665215193e+02
2.204629702685816817e+00 5.459164229926856571e+00 2.537894321231215145e+02
-1.027693529614847057e+00 5.863204634026873308e+00 2.537684563658215211e+02
-6.236531256148589719e-01 5.863204634026857320e+00 2.537709950224215163e+02
-2.196127215147070100e-01 5.863204634026871531e+00 2.537735336791215275e+02
1.844276824854362007e-01 5.863204634026861761e+00 2.537760723358215103e+02
5.884680865853803011e-01 5.863204634026845774e+00 2.537786109924215054e+02
9.925084905854230088e-01 5.863204634026828899e+00 2.537811496491215166e+02
1.396548894585462275e+00 5.863204634026820905e+00 2.537836883058215278e+02
1.800589298685577822e+00 5.863204634026816464e+00 2.537862269624215230e+02
2.204629702685775960e+00 5.863204634026825346e+00 2.537887656191215058e+02
-1.027693529614658097e+00 6.267245038026846515e+00 2.537677898617215249e+02
-6.236531256146021773e-01 6.267245038026860726e+00 2.537703285184215076e+02
-2.196127215146073675e-01 6.267245038026859838e+00 2.537728671751215188e+02
1.844276824854361174e-01 6.267245038026863391e+00 2.537754058317215140e+02
5.884680865854954313e-01 6.267245038026845627e+00 2.537779444884215252e+02
9.925084905855056094e-01 6.267245038026827864e+00 2.537804831451215080e+02
1.396548894585403433e+00 6.267245038026835857e+00 2.537830218017215032e+02
1.800589298685333350e+00 6.267245038026849180e+00 2.537855604584215143e+02
-1.027693529614429835e+00 6.671285442126860588e+00 2.537671233577215162e+02
-6.236531256144571822e-01 6.671285442126862364e+00 2.537696620144215274e+02
-2.196127215144417777e-01 6.671285442126844600e+00 2.537722006710215226e+02
1.844276824856657948e-01 6.671285442126865917e+00 2.537747393277215053e+02
5.884680865854360343e-01 6.671285442126863252e+00 2.537772779844215165e+02
9.925084905853500672e-01 6.671285442126848153e+00 2.537798166410215117e+02
1.396548894585120770e+00 6.671285442126840159e+00 2.537823552977215229e+02
1.800589298685090434e+00 6.671285442126842824e+00 2.537848939544215057e+02
-1.027693529614391199e+00 7.075325846126911955e+00 2.537664568537215075e+02
-6.236531256143467150e-01 7.075325846126907514e+00 2.537689955104215187e+02
-2.196127215143190425e-01 7.075325846126903073e+00 2.537715341670215139e+02
1.844276824856958541e-01 7.075325846126890639e+00 2.537740728237215251e+02
5.884680865854770015e-01 7.075325846126863105e+00 2.537766114804215078e+02
9.925084905852745720e-01 7.075325846126861329e+00 2.537791501370215030e+02
1.396548894584978884e+00 7.075325846126861329e+00 2.537816887937215142e+02
1.800589298685067341e+00 7.075325846126855112e+00 2.537842274504215254e+02
-6.236531256142702206e-01 7.479366250126934901e+00 2.537683290063215225e+02
-2.196127215142569256e-01 7.479366250126937565e+00 2.537708676630215052e+02
1.844276824856636299e-01 7.479366250126938453e+00 2.537734063197215164e+02
5.884680865855129728e-01 7.479366250126910920e+00 2.537759449763215116e+02
9.925084905852405992e-01 7.479366250126927795e+00 2.537784836330215228e+02
1.396548894585126321e+00 7.479366250126918914e+00 2.537810222897215056e+02
1.800589298685232764e+00 7.479366250126923354e+00 2.537835609463215292e+02
-1.027693529614467804e+00 7.883406654226964960e+00 2.537651238456215026e+02
-6.236531256143170721e-01 7.883406654226964960e+00 2.537676625023215138e+02
-2.196127215143161837e-01 7.883406654226956078e+00 2.537702011590215250e+02
1.844276824856324881e-01 7.883406654226948085e+00 2.537727398156215202e+02
5.884680865855105303e-01 7.883406654226934762e+00 2.537752784723215029e+02
9.925084905854393291e-01 7.883406654226936539e+00 2.537778171290215141e+02
1.396548894585446954e+00 7.883406654226942756e+00 2.537803557856215093e+02
1.800589298685328021e+00 7.883406654226951638e+00 2.537828944423215205e+02
-1.027693529614480461e+00 8.287447058226957708e+00 2.537644573416215223e+02
-6.236531256144539626e-01 8.287447058226964813e+00 2.537669959983215051e+02
-2.196127215143592881e-01 8.287447058226948826e+00 2.537695346549215287e+02
1.844276824855689556e-01 8.287447058226925733e+00 2.537720733116215115e+02
5.884680865855659304e-01 8.287447058226954155e+00 2.537746119683215227e+02
9.925084905856101924e-01 8.287447058226952379e+00 2.537771506250215054e+02
1.396548894585612599e+00 8.287447058226957708e+00 2.537796892816215291e+02
1.800589298685564721e+00 8.287447058226968366e+00 2.537822279383215118e+02
2.204629702685633408e+00 8.287447058226961261e+00 2.537847665950215230e+02
-1.027693529614720269e+00 8.691487462326943358e+00 2.537637908376215137e+02
-6.236531256145416702e-01 8.691487462326966451e+00 2.537663294943215249e+02
-2.196127215145002032e-01 8.691487462326987767e+00 2.537688681509215201e+02
1.844276824855361485e-01 8.691487462326980662e+00 2.537714068076215028e+02
5.884680865856876109e-01 8.691487462326970004e+00 2.537739454643215140e+02
9.925084905858024831e-01 8.691487462326973557e+00 2.537764841209215092e+02
1.396548894585655898e+00 8.691487462326962898e+00 2.537790227776215204e+02
1.800589298685679740e+00 8.691487462326966451e+00 2.537815614343215032e+02
2.204629702685696913e+00 8.691487462326955793e+00 2.537841000909215268e+02
-1.027693529614722046e+00 9.095527866326962751e+00 2.537631243336215050e+02
-6.236531256145223523e-01 9.095527866326960975e+00 2.537656629902215286e+02
-2.196127215144889622e-01 9.095527866326929001e+00 2.537682016469215114e+02
1.844276824856775354e-01 9.095527866326936106e+00 2.537707403036215226e+02
5.884680865857767618e-01 9.095527866326927224e+00 2.537732789602215178e+02
9.925084905857615158e-01 9.095527866326943212e+00 2.537758176169215290e+02
1.396548894585728506e+00 9.095527866326918343e+00 2.537783562736215117e+02
1.800589298685717266e+00 9.095527866326895250e+00 2.537808949302215069e+02
-1.027693529614541079e+00 9.499568270326957276e+00 2.537624578295215088e+02
-6.236531256145946278e-01 9.499568270326973263e+00 2.537649964862215199e+02
-2.196127215144469125e-01 9.499568270326948394e+00 2.537675351429215027e+02
1.844276824855381747e-01 9.499568270326960828e+00 2.537700737995215263e+02
5.884680865856225518e-01 9.499568270326964381e+00 2.537726124562215091e+02
9.925084905856730311e-01 9.499568270326951946e+00 2.537751511129215203e+02
1.396548894585639466e+00 9.499568270326960828e+00 2.537776897696215030e+02
1.800589298685603801e+00 9.499568270326932407e+00 2.537802284262215267e+02
2.204629702685763526e+00 9.499568270326946617e+00 2.537827670829215094e+02
-1.027693529614591483e+00 9.903608674426969571e+00 2.537617913255215285e+02
-6.236531256145113611e-01 9.903608674426964242e+00 2.537643299822215113e+02
-2.196127215146361777e-01 9.903608674426980230e+00 2.537668686389215225e+02
1.844276824854651775e-01 9.903608674426980230e+00 2.537694072955215177e+02
5.884680865855079768e-01 9.903608674426960690e+00 2.537719459522215288e+02
9.925084905855746653e-01 9.903608674426951808e+00 2.537744846089215116e+02
1.396548894585567746e+00 9.903608674426966019e+00 2.537770232655215068e+02
1.800589298685609796e+00 9.903608674426955361e+00 2.537795619222215180e+02
2.204629702685749315e+00 9.903608674426953584e+00 2.537821005789215292e+02
-6.236531256144989266e-01 1.030764907842697475e+01 2.537636634782215026e+02
-2.196127215144492995e-01 1.030764907842697120e+01 2.537662021348215262e+02
1.844276824855255459e-01 1.030764907842694988e+01 2.537687407915215090e+02
5.884680865855399512e-01 1.030764907842694278e+01 2.537712794482215202e+02
9.925084905855738882e-01 1.030764907842695699e+01 2.537738181048215154e+02
1.396548894585502021e+00 1.030764907842691436e+01 2.537763567615215266e+02
1.800589298685616679e+00 1.030764907842691791e+01 2.537788954182215093e+02
2.204629702685750203e+00 1.030764907842694278e+01 2.537814340748215045e+02
-6.236531256144532964e-01 1.071168948252695685e+01 2.537629969741215064e+02
-2.196127215144332845e-01 1.071168948252697639e+01 2.537655356308215175e+02
1.844276824855239083e-01 1.071168948252696751e+01 2.537680742875215287e+02
5.884680865855221876e-01 1.071168948252698350e+01 2.537706129441215239e+02
9.925084905856429440e-01 1.071168948252697994e+01 2.537731516008215067e+02
1.396548894585610379e+00 1.071168948252697817e+01 2.537756902575215179e+02
1.800589298685439044e+00 1.071168948252696929e+01 2.537782289141215131e+02
2.204629702685718229e+00 1.071168948252696218e+01 2.537807675708215243e+02
-6.236531256144834945e-01 1.111572988652698513e+01 2.537623304701215261e+02
-2.196127215144202116e-01 1.111572988652698157e+01 2.537648691268215089e+02
1.844276824855671792e-01 1.111572988652697269e+01 2.537674077835215201e+02
5.884680865854888809e-01 1.111572988652701355e+01 2.537699464401215153e+02
9.925084905856100814e-01 1.111572988652700467e+01 2.537724850968215264e+02
1.396548894585539324e+00 1.111572988652697802e+01 2.537750237535215092e+02
1.800589298685498330e+00 1.111572988652697802e+01 2.537775624101215044e+02
2.204629702685733772e+00 1.111572988652697092e+01 2.537801010668215156e+02
-1.027693529614468471e+00 1.151977029062697078e+01 2.537591253094215062e+02
-6.236531256144608459e-01 1.151977029062697966e+01 2.537616639661215174e+02
-2.196127215144633160e-01 1.151977029062697433e+01 2.537642026228215286e+02
1.844276824855368146e-01 1.151977029062697255e+01 2.537667412794215238e+02
5.884680865854784448e-01 1.151977029062698143e+01 2.537692799361215066e+02
9.925084905855855455e-01 1.151977029062697788e+01 2.537718185928215178e+02
1.396548894585550871e+00 1.151977029062699742e+01 2.537743572494215130e+02
1.800589298685512318e+00 1.151977029062697433e+01 2.537768959061215241e+02
2.204629702685569015e+00 1.151977029062695479e+01 2.537794345628215069e+02
-1.027693529614584156e+00 1.192381069462697774e+01 2.537584588054215260e+02
-6.236531256144727253e-01 1.192381069462696352e+01 2.537609974621215088e+02
-2.196127215145073364e-01 1.192381069462700438e+01 2.537635361187215040e+02
1.844276824856413977e-01 1.192381069462702214e+01 2.537660747754215151e+02
5.884680865856399823e-01 1.192381069462700616e+01 2.537686134321215263e+02
9.925084905855723338e-01 1.192381069462702570e+01 2.537711520887215215e+02
1.396548894585504463e+00 1.192381069462702214e+01 2.537736907454215043e+02
1.800589298685508099e+00 1.192381069462701504e+01 2.537762294021215155e+02
-1.027693529614526646e+00 1.232785109862697759e+01 2.537577923014215173e+02
-6.236531256144776103e-01 1.232785109862700956e+01 2.537603309580215125e+02
-2.196127215145531331e-01 1.232785109862702377e+01 2.537628696147215237e+02
1.844276824856251329e-01 1.232785109862701844e+01 2.537654082714215065e+02
5.884680865856369847e-01 1.232785109862703621e+01 2.537679469281215177e+02
9.925084905855574569e-01 1.232785109862703798e+01 2.537704855847215129e+02
1.396548894585601719e+00 1.232785109862703088e+01 2.537730242414215240e+02
1.800589298685490336e+00 1.232785109862702733e+01 2.537755628981215068e+02
-1.027693529614600809e+00 1.273189150272700942e+01 2.537571257974215087e+02
-6.236531256144788316e-01 1.273189150272699344e+01 2.537596644540215038e+02
-2.196127215145389222e-01 1.273189150272702008e+01 2.537622031107215150e+02
1.844276824855325958e-01 1.273189150272701653e+01 2.537647417674215262e+02
5.884680865855592691e-01 1.273189150272702186e+01 2.537672804240215214e+02
9.925084905856174089e-01 1.273189150272701475e+01 2.537698190807215042e+02
1.396548894585515788e+00 1.273189150272701831e+01 2.537723577374215154e+02
1.800589298685464135e+00 1.273189150272701831e+01 2.537748963940215106e+02
2.204629702685452664e+00 1.273189150272699877e+01 2.537774350507215217e+02
-6.236531256144931534e-01 1.313593190672700040e+01 2.537589979500215236e+02
-2.196127215145510791e-01 1.313593190672700572e+01 2.537615366067215064e+02
1.844276824855325958e-01 1.313593190672701638e+01 2.537640752633215300e+02
5.884680865855468346e-01 1.313593190672701105e+01 2.537666139200215127e+02
9.925084905856041972e-01 1.313593190672701105e+01 2.537691525767215239e+02
1.396548894585559086e+00 1.313593190672702349e+01 2.537716912333215191e+02
1.800589298685493889e+00 1.313593190672699329e+01 2.537742298900215303e+02
2.204629702685453108e+00 1.313593190672699329e+01 2.537767685467215131e+02
1.844276824855337060e-01 1.353997231082700381e+01 2.537634087593215213e+02
5.884680865855195231e-01 1.353997231082701092e+01 2.537659474160215041e+02
9.925084905855603434e-01 1.353997231082701092e+01 2.537684860727215153e+02
2.608670106785556886e+00 1.353997231082699315e+01 2.537786406993215280e+02
