5.070786002813292725e+00 -7.087755828013644788e+00 2.528856442968549345e+02
5.474826339413292331e+00 -7.087755828013644788e+00 2.528827298681549394e+02
5.878866676013292825e+00 -7.087755828013644788e+00 2.528798001806549394e+02
6.282907012613292430e+00 -7.087755828013644788e+00 2.528768704931549394e+02
6.686947349213292036e+00 -7.087755828013644788e+00 2.528739408056549394e+02
7.090987685813292529e+00 -7.087755828013644788e+00 2.528710111181549394e+02
7.495028499313292514e+00 -7.087755828013644788e+00 2.528680966894549442e+02
-4.626183983186707316e+00 -6.683715491413644294e+00 2.529583524267549421e+02
-4.222143169686707331e+00 -6.683715491413644294e+00 2.529554227392549421e+02
-3.818103071486707911e+00 -6.683715491413644294e+00 2.529524930517549421e+02
-3.414062496486708120e+00 -6.683715491413644294e+00 2.529495633642549421e+02
-3.010022159886708071e+00 -6.683715491413644294e+00 2.529466489355549470e+02
-2.605981823286708021e+00 -6.683715491413644294e+00 2.529437192480549470e+02
-2.201941486686707972e+00 -6.683715491413644294e+00 2.529407895605549470e+02
-1.797901030886707829e+00 -6.683715491413644294e+00 2.529378598730549470e+02
-1.393860574986707679e+00 -6.683715491413644294e+00 2.529349301855549470e+02
-9.898201191867078697e-01 -6.683715491413644294e+00 2.529320157568549519e+02
-5.857797825867078201e-01 -6.683715491413644294e+00 2.529290860693549519e+02
-1.817393565867078398e-01 -6.683715491413644294e+00 2.529261563818549519e+02
2.223010396132921451e-01 -6.683715491413644294e+00 2.529232266943549519e+02
6.263414656132920699e-01 -6.683715491413644294e+00 2.529202970068549519e+02
1.030381802213292231e+00 -6.683715491413644294e+00 2.529173825781549567e+02
1.434422258013292151e+00 -6.683715491413644294e+00 2.529144528906549567e+02
1.838462713913292301e+00 -6.683715491413644294e+00 2.529115232031549567e+02
2.242503169713291999e+00 -6.683715491413644294e+00 2.529085935156549567e+02
2.646543506313292049e+00 -6.683715491413644294e+00 2.529056638281549567e+02
3.050583842913292099e+00 -6.683715491413644294e+00 2.529027493994549332e+02
3.454624179513292148e+00 -6.683715491413644294e+00 2.528998197119549332e+02
3.858664754513291939e+00 -6.683715491413644294e+00 2.528968900244549332e+02
4.262704852713292247e+00 -6.683715491413644294e+00 2.528939603369549332e+02
4.666745666213292232e+00 -6.683715491413644294e+00 2.528910306494549332e+02
5.070786002813292725e+00 -6.683715491413644294e+00 2.528881162206549504e+02
5.474826339413292331e+00 -6.683715491413644294e+00 2.528851865331549504e+02
5.878866676013292825e+00 -6.683715491413644294e+00 2.528822568456549504e+02
6.282907012613292430e+00 -6.683715491413644294e+00 2.528793271581549504e+02
6.686947349213292036e+00 -6.683715491413644294e+00 2.528763974706549504e+02
7.090987685813292529e+00 -6.683715491413644294e+00 2.528734830419549553e+02
7.495028499313292514e+00 -6.683715491413644294e+00 2.528705533544549553e+02
-5.030224319786707809e+00 -6.279675154813644689e+00 2.529637387792549532e+02
-4.626183983186707316e+00 -6.279675154813644689e+00 2.529608090917549532e+02
-4.222143169686707331e+00 -6.279675154813644689e+00 2.529578794042549532e+02
-3.818103071486707911e+00 -6.279675154813644689e+00 2.529549497167549532e+02
-3.414062496486708120e+00 -6.279675154813644689e+00 2.529520352880549297e+02
-3.010022159886708071e+00 -6.279675154813644689e+00 2.529491056005549297e+02
-2.605981823286708021e+00 -6.279675154813644689e+00 2.529461759130549297e+02
-2.201941486686707972e+00 -6.279675154813644689e+00 2.529432462255549297e+02
-1.797901030886707829e+00 -6.279675154813644689e+00 2.529403165380549297e+02
-1.393860574986707679e+00 -6.279675154813644689e+00 2.529374021093549345e+02
-9.898201191867078697e-01 -6.279675154813644689e+00 2.529344724218549345e+02
-5.857797825867078201e-01 -6.279675154813644689e+00 2.529315427343549345e+02
-1.817393565867078398e-01 -6.279675154813644689e+00 2.529286130468549345e+02
2.223010396132921451e-01 -6.279675154813644689e+00 2.529256833593549345e+02
6.263414656132920699e-01 -6.279675154813644689e+00 2.529227689306549394e+02
1.030381802213292231e+00 -6.279675154813644689e+00 2.529198392431549394e+02
1.434422258013292151e+00 -6.279675154813644689e+00 2.529169095556549394e+02
1.838462713913292301e+00 -6.279675154813644689e+00 2.529139798681549394e+02
2.242503169713291999e+00 -6.279675154813644689e+00 2.529110501806549394e+02
2.646543506313292049e+00 -6.279675154813644689e+00 2.529081357519549442e+02
3.050583842913292099e+00 -6.279675154813644689e+00 2.529052060644549442e+02
3.454624179513292148e+00 -6.279675154813644689e+00 2.529022763769549442e+02
3.858664754513291939e+00 -6.279675154813644689e+00 2.528993466894549442e+02
4.262704852713292247e+00 -6.279675154813644689e+00 2.528964170019549442e+02
4.666745666213292232e+00 -6.279675154813644689e+00 2.528935025732549491e+02
5.070786002813292725e+00 -6.279675154813644689e+00 2.528905728857549491e+02
5.474826339413292331e+00 -6.279675154813644689e+00 2.528876431982549491e+02
5.878866676013292825e+00 -6.279675154813644689e+00 2.528847135107549491e+02
6.282907012613292430e+00 -6.279675154813644689e+00 2.528817838232549491e+02
6.686947349213292036e+00 -6.279675154813644689e+00 2.528788693945549539e+02
7.090987685813292529e+00 -6.279675154813644689e+00 2.528759397070549539e+02
7.495028499313292514e+00 -6.279675154813644689e+00 2.528730100195549539e+02
-5.030224319786707809e+00 -5.875634818213645083e+00 2.529661954443549519e+02
-4.626183983186707316e+00 -5.875634818213645083e+00 2.529632657568549519e+02
-4.222143169686707331e+00 -5.875634818213645083e+00 2.529603360693549519e+02
-3.818103071486707911e+00 -5.875634818213645083e+00 2.529574216406549567e+02
-3.414062496486708120e+00 -5.875634818213645083e+00 2.529544919531549567e+02
-3.010022159886708071e+00 -5.875634818213645083e+00 2.529515622656549567e+02
-2.605981823286708021e+00 -5.875634818213645083e+00 2.529486325781549567e+02
-2.201941486686707972e+00 -5.875634818213645083e+00 2.529457028906549567e+02
-1.797901030886707829e+00 -5.875634818213645083e+00 2.529427884619549332e+02
-1.393860574986707679e+00 -5.875634818213645083e+00 2.529398587744549332e+02
-9.898201191867078697e-01 -5.875634818213645083e+00 2.529369290869549332e+02
-5.857797825867078201e-01 -5.875634818213645083e+00 2.529339993994549332e+02
-1.817393565867078398e-01 -5.875634818213645083e+00 2.529310697119549332e+02
2.223010396132921451e-01 -5.875634818213645083e+00 2.529281552831549504e+02
6.263414656132920699e-01 -5.875634818213645083e+00 2.529252255956549504e+02
1.030381802213292231e+00 -5.875634818213645083e+00 2.529222959081549504e+02
1.434422258013292151e+00 -5.875634818213645083e+00 2.529193662206549504e+02
1.838462713913292301e+00 -5.875634818213645083e+00 2.529164365331549504e+02
2.242503169713291999e+00 -5.875634818213645083e+00 2.529135221044549553e+02
2.646543506313292049e+00 -5.875634818213645083e+00 2.529105924169549553e+02
3.050583842913292099e+00 -5.875634818213645083e+00 2.529076627294549553e+02
3.454624179513292148e+00 -5.875634818213645083e+00 2.529047330419549553e+02
3.858664754513291939e+00 -5.875634818213645083e+00 2.529018033544549553e+02
4.262704852713292247e+00 -5.875634818213645083e+00 2.528988889257549317e+02
4.666745666213292232e+00 -5.875634818213645083e+00 2.528959592382549317e+02
5.070786002813292725e+00 -5.875634818213645083e+00 2.528930295507549317e+02
5.474826339413292331e+00 -5.875634818213645083e+00 2.528900998632549317e+02
5.878866676013292825e+00 -5.875634818213645083e+00 2.528871701757549317e+02
6.282907012613292430e+00 -5.875634818213645083e+00 2.528842557470549366e+02
6.686947349213292036e+00 -5.875634818213645083e+00 2.528813260595549366e+02
7.090987685813292529e+00 -5.875634818213645083e+00 2.528783963720549366e+02
7.495028499313292514e+00 -5.875634818213645083e+00 2.528754666845549366e+02
-5.030224319786707809e+00 -5.471594481613644589e+00 2.529686521093549345e+02
-4.626183983186707316e+00 -5.471594481613644589e+00 2.529657224218549345e+02
-4.222143169686707331e+00 -5.471594481613644589e+00 2.529628079931549394e+02
-3.818103071486707911e+00 -5.471594481613644589e+00 2.529598783056549394e+02
-3.414062496486708120e+00 -5.471594481613644589e+00 2.529569486181549394e+02
-3.010022159886708071e+00 -5.471594481613644589e+00 2.529540189306549394e+02
-2.605981823286708021e+00 -5.471594481613644589e+00 2.529510892431549394e+02
-2.201941486686707972e+00 -5.471594481613644589e+00 2.529481748144549442e+02
-1.797901030886707829e+00 -5.471594481613644589e+00 2.529452451269549442e+02
-1.393860574986707679e+00 -5.471594481613644589e+00 2.529423154394549442e+02
-9.898201191867078697e-01 -5.471594481613644589e+00 2.529393857519549442e+02
-5.857797825867078201e-01 -5.471594481613644589e+00 2.529364560644549442e+02
-1.817393565867078398e-01 -5.471594481613644589e+00 2.529335416357549491e+02
2.223010396132921451e-01 -5.471594481613644589e+00 2.529306119482549491e+02
6.263414656132920699e-01 -5.471594481613644589e+00 2.529276822607549491e+02
1.030381802213292231e+00 -5.471594481613644589e+00 2.529247525732549491e+02
1.434422258013292151e+00 -5.471594481613644589e+00 2.529218228857549491e+02
1.838462713913292301e+00 -5.471594481613644589e+00 2.529189084570549539e+02
2.242503169713291999e+00 -5.471594481613644589e+00 2.529159787695549539e+02
2.646543506313292049e+00 -5.471594481613644589e+00 2.529130490820549539e+02
3.050583842913292099e+00 -5.471594481613644589e+00 2.529101193945549539e+02
3.454624179513292148e+00 -5.471594481613644589e+00 2.529071897070549539e+02
3.858664754513291939e+00 -5.471594481613644589e+00 2.529042752783549304e+02
4.262704852713292247e+00 -5.471594481613644589e+00 2.529013455908549304e+02
4.666745666213292232e+00 -5.471594481613644589e+00 2.528984159033549304e+02
5.070786002813292725e+00 -5.471594481613644589e+00 2.528954862158549304e+02
5.474826339413292331e+00 -5.471594481613644589e+00 2.528925565283549304e+02
5.878866676013292825e+00 -5.471594481613644589e+00 2.528896420996549352e+02
6.282907012613292430e+00 -5.471594481613644589e+00 2.528867124121549352e+02
6.686947349213292036e+00 -5.471594481613644589e+00 2.528837827246549352e+02
7.090987685813292529e+00 -5.471594481613644589e+00 2.528808530371549352e+02
-4.626183983186707316e+00 -5.067554145013644984e+00 2.529681943456549504e+02
-4.222143169686707331e+00 -5.067554145013644984e+00 2.529652646581549504e+02
-3.818103071486707911e+00 -5.067554145013644984e+00 2.529623349706549504e+02
-3.414062496486708120e+00 -5.067554145013644984e+00 2.529594052831549504e+02
-3.010022159886708071e+00 -5.067554145013644984e+00 2.529564908544549553e+02
-2.605981823286708021e+00 -5.067554145013644984e+00 2.529535611669549553e+02
-2.201941486686707972e+00 -5.067554145013644984e+00 2.529506314794549553e+02
-1.797901030886707829e+00 -5.067554145013644984e+00 2.529477017919549553e+02
-1.393860574986707679e+00 -5.067554145013644984e+00 2.529447721044549553e+02
-9.898201191867078697e-01 -5.067554145013644984e+00 2.529418576757549317e+02
-5.857797825867078201e-01 -5.067554145013644984e+00 2.529389279882549317e+02
-1.817393565867078398e-01 -5.067554145013644984e+00 2.529359983007549317e+02
2.223010396132921451e-01 -5.067554145013644984e+00 2.529330686132549317e+02
6.263414656132920699e-01 -5.067554145013644984e+00 2.529301389257549317e+02
1.030381802213292231e+00 -5.067554145013644984e+00 2.529272244970549366e+02
1.434422258013292151e+00 -5.067554145013644984e+00 2.529242948095549366e+02
1.838462713913292301e+00 -5.067554145013644984e+00 2.529213651220549366e+02
2.242503169713291999e+00 -5.067554145013644984e+00 2.529184354345549366e+02
2.646543506313292049e+00 -5.067554145013644984e+00 2.529155057470549366e+02
3.050583842913292099e+00 -5.067554145013644984e+00 2.529125913183549414e+02
3.454624179513292148e+00 -5.067554145013644984e+00 2.529096616308549414e+02
3.858664754513291939e+00 -5.067554145013644984e+00 2.529067319433549414e+02
4.262704852713292247e+00 -5.067554145013644984e+00 2.529038022558549414e+02
4.666745666213292232e+00 -5.067554145013644984e+00 2.529008725683549414e+02
5.070786002813292725e+00 -5.067554145013644984e+00 2.528979428808549414e+02
5.474826339413292331e+00 -5.067554145013644984e+00 2.528950284521549463e+02
5.878866676013292825e+00 -5.067554145013644984e+00 2.528920987646549463e+02
6.282907012613292430e+00 -5.067554145013644984e+00 2.528891690771549463e+02
6.686947349213292036e+00 -5.067554145013644984e+00 2.528862393896549463e+02
7.090987685813292529e+00 -5.067554145013644984e+00 2.528833097021549463e+02
-4.626183983186707316e+00 -4.663513808413644490e+00 2.529706510107549491e+02
-4.222143169686707331e+00 -4.663513808413644490e+00 2.529677213232549491e+02
-3.818103071486707911e+00 -4.663513808413644490e+00 2.529647916357549491e+02
-3.414062496486708120e+00 -4.663513808413644490e+00 2.529618772070549539e+02
-3.010022159886708071e+00 -4.663513808413644490e+00 2.529589475195549539e+02
-2.605981823286708021e+00 -4.663513808413644490e+00 2.529560178320549539e+02
-2.201941486686707972e+00 -4.663513808413644490e+00 2.529530881445549539e+02
-1.797901030886707829e+00 -4.663513808413644490e+00 2.529501584570549539e+02
-1.393860574986707679e+00 -4.663513808413644490e+00 2.529472440283549304e+02
-9.898201191867078697e-01 -4.663513808413644490e+00 2.529443143408549304e+02
-5.857797825867078201e-01 -4.663513808413644490e+00 2.529413846533549304e+02
-1.817393565867078398e-01 -4.663513808413644490e+00 2.529384549658549304e+02
2.223010396132921451e-01 -4.663513808413644490e+00 2.529355252783549304e+02
6.263414656132920699e-01 -4.663513808413644490e+00 2.529326108496549352e+02
1.030381802213292231e+00 -4.663513808413644490e+00 2.529296811621549352e+02
1.434422258013292151e+00 -4.663513808413644490e+00 2.529267514746549352e+02
1.838462713913292301e+00 -4.663513808413644490e+00 2.529238217871549352e+02
2.242503169713291999e+00 -4.663513808413644490e+00 2.529208920996549352e+02
2.646543506313292049e+00 -4.663513808413644490e+00 2.529179776708549525e+02
3.050583842913292099e+00 -4.663513808413644490e+00 2.529150479833549525e+02
3.454624179513292148e+00 -4.663513808413644490e+00 2.529121182958549525e+02
3.858664754513291939e+00 -4.663513808413644490e+00 2.529091886083549525e+02
4.262704852713292247e+00 -4.663513808413644490e+00 2.529062589208549525e+02
4.666745666213292232e+00 -4.663513808413644490e+00 2.529033444921549574e+02
5.070786002813292725e+00 -4.663513808413644490e+00 2.529004148046549574e+02
5.474826339413292331e+00 -4.663513808413644490e+00 2.528974851171549574e+02
5.878866676013292825e+00 -4.663513808413644490e+00 2.528945554296549574e+02
6.282907012613292430e+00 -4.663513808413644490e+00 2.528916257421549574e+02
6.686947349213292036e+00 -4.663513808413644490e+00 2.528887113134549338e+02
7.090987685813292529e+00 -4.663513808413644490e+00 2.528857816259549338e+02
-4.626183983186707316e+00 -4.259472994913644506e+00 2.529731076757549317e+02
-4.222143169686707331e+00 -4.259472994913644506e+00 2.529701779882549317e+02
-3.818103071486707911e+00 -4.259472994913644506e+00 2.529672635595549366e+02
-3.414062496486708120e+00 -4.259472994913644506e+00 2.529643338720549366e+02
-3.010022159886708071e+00 -4.259472994913644506e+00 2.529614041845549366e+02
-2.605981823286708021e+00 -4.259472994913644506e+00 2.529584744970549366e+02
-2.201941486686707972e+00 -4.259472994913644506e+00 2.529555448095549366e+02
-1.797901030886707829e+00 -4.259472994913644506e+00 2.529526303808549414e+02
-1.393860574986707679e+00 -4.259472994913644506e+00 2.529497006933549414e+02
-9.898201191867078697e-01 -4.259472994913644506e+00 2.529467710058549414e+02
-5.857797825867078201e-01 -4.259472994913644506e+00 2.529438413183549414e+02
-1.817393565867078398e-01 -4.259472994913644506e+00 2.529409116308549414e+02
2.223010396132921451e-01 -4.259472994913644506e+00 2.529379972021549463e+02
6.263414656132920699e-01 -4.259472994913644506e+00 2.529350675146549463e+02
1.030381802213292231e+00 -4.259472994913644506e+00 2.529321378271549463e+02
1.434422258013292151e+00 -4.259472994913644506e+00 2.529292081396549463e+02
1.838462713913292301e+00 -4.259472994913644506e+00 2.529262784521549463e+02
2.242503169713291999e+00 -4.259472994913644506e+00 2.529233640234549512e+02
2.646543506313292049e+00 -4.259472994913644506e+00 2.529204343359549512e+02
3.050583842913292099e+00 -4.259472994913644506e+00 2.529175046484549512e+02
3.454624179513292148e+00 -4.259472994913644506e+00 2.529145749609549512e+02
3.858664754513291939e+00 -4.259472994913644506e+00 2.529116452734549512e+02
4.262704852713292247e+00 -4.259472994913644506e+00 2.529087308447549560e+02
4.666745666213292232e+00 -4.259472994913644506e+00 2.529058011572549560e+02
5.070786002813292725e+00 -4.259472994913644506e+00 2.529028714697549560e+02
5.474826339413292331e+00 -4.259472994913644506e+00 2.528999417822549560e+02
5.878866676013292825e+00 -4.259472994913644506e+00 2.528970120947549560e+02
6.282907012613292430e+00 -4.259472994913644506e+00 2.528940976660549325e+02
6.686947349213292036e+00 -4.259472994913644506e+00 2.528911679785549325e+02
7.090987685813292529e+00 -4.259472994913644506e+00 2.528882382910549325e+02
7.495028499313292514e+00 -4.259472994913644506e+00 2.528853086035549325e+02
-5.030224319786707809e+00 -3.855432896713644197e+00 2.529784940283549304e+02
-4.626183983186707316e+00 -3.855432896713644197e+00 2.529755643408549304e+02
-4.222143169686707331e+00 -3.855432896713644197e+00 2.529726499121549352e+02
-3.818103071486707911e+00 -3.855432896713644197e+00 2.529697202246549352e+02
-3.414062496486708120e+00 -3.855432896713644197e+00 2.529667905371549352e+02
-3.010022159886708071e+00 -3.855432896713644197e+00 2.529638608496549352e+02
-2.605981823286708021e+00 -3.855432896713644197e+00 2.529609311621549352e+02
-2.201941486686707972e+00 -3.855432896713644197e+00 2.529580167333549525e+02
-1.797901030886707829e+00 -3.855432896713644197e+00 2.529550870458549525e+02
-1.393860574986707679e+00 -3.855432896713644197e+00 2.529521573583549525e+02
-9.898201191867078697e-01 -3.855432896713644197e+00 2.529492276708549525e+02
-5.857797825867078201e-01 -3.855432896713644197e+00 2.529462979833549525e+02
-1.817393565867078398e-01 -3.855432896713644197e+00 2.529433835546549574e+02
2.223010396132921451e-01 -3.855432896713644197e+00 2.529404538671549574e+02
6.263414656132920699e-01 -3.855432896713644197e+00 2.529375241796549574e+02
1.030381802213292231e+00 -3.855432896713644197e+00 2.529345944921549574e+02
1.434422258013292151e+00 -3.855432896713644197e+00 2.529316648046549574e+02
1.838462713913292301e+00 -3.855432896713644197e+00 2.529287503759549338e+02
2.242503169713291999e+00 -3.855432896713644197e+00 2.529258206884549338e+02
2.646543506313292049e+00 -3.855432896713644197e+00 2.529228910009549338e+02
3.050583842913292099e+00 -3.855432896713644197e+00 2.529199613134549338e+02
3.454624179513292148e+00 -3.855432896713644197e+00 2.529170316259549338e+02
3.858664754513291939e+00 -3.855432896713644197e+00 2.529141171972549387e+02
4.262704852713292247e+00 -3.855432896713644197e+00 2.529111875097549387e+02
4.666745666213292232e+00 -3.855432896713644197e+00 2.529082578222549387e+02
5.070786002813292725e+00 -3.855432896713644197e+00 2.529053281347549387e+02
5.474826339413292331e+00 -3.855432896713644197e+00 2.529023984472549387e+02
5.878866676013292825e+00 -3.855432896713644197e+00 2.528994840185549435e+02
6.282907012613292430e+00 -3.855432896713644197e+00 2.528965543310549435e+02
6.686947349213292036e+00 -3.855432896713644197e+00 2.528936246435549435e+02
7.090987685813292529e+00 -3.855432896713644197e+00 2.528906949560549435e+02
7.495028499313292514e+00 -3.855432896713644197e+00 2.528877652685549435e+02
-4.626183983186707316e+00 -3.451392321713644407e+00 2.529780362646549463e+02
-4.222143169686707331e+00 -3.451392321713644407e+00 2.529751065771549463e+02
-3.818103071486707911e+00 -3.451392321713644407e+00 2.529721768896549463e+02
-3.414062496486708120e+00 -3.451392321713644407e+00 2.529692472021549463e+02
-3.010022159886708071e+00 -3.451392321713644407e+00 2.529663175146549463e+02
-2.605981823286708021e+00 -3.451392321713644407e+00 2.529634030859549512e+02
-2.201941486686707972e+00 -3.451392321713644407e+00 2.529604733984549512e+02
-1.797901030886707829e+00 -3.451392321713644407e+00 2.529575437109549512e+02
-1.393860574986707679e+00 -3.451392321713644407e+00 2.529546140234549512e+02
-9.898201191867078697e-01 -3.451392321713644407e+00 2.529516843359549512e+02
-5.857797825867078201e-01 -3.451392321713644407e+00 2.529487699072549560e+02
-1.817393565867078398e-01 -3.451392321713644407e+00 2.529458402197549560e+02
2.223010396132921451e-01 -3.451392321713644407e+00 2.529429105322549560e+02
6.263414656132920699e-01 -3.451392321713644407e+00 2.529399808447549560e+02
1.030381802213292231e+00 -3.451392321713644407e+00 2.529370511572549560e+02
1.434422258013292151e+00 -3.451392321713644407e+00 2.529341367285549325e+02
1.838462713913292301e+00 -3.451392321713644407e+00 2.529312070410549325e+02
2.242503169713291999e+00 -3.451392321713644407e+00 2.529282773535549325e+02
2.646543506313292049e+00 -3.451392321713644407e+00 2.529253476660549325e+02
3.050583842913292099e+00 -3.451392321713644407e+00 2.529224179785549325e+02
3.454624179513292148e+00 -3.451392321713644407e+00 2.529195035498549373e+02
3.858664754513291939e+00 -3.451392321713644407e+00 2.529165738623549373e+02
4.262704852713292247e+00 -3.451392321713644407e+00 2.529136441748549373e+02
4.666745666213292232e+00 -3.451392321713644407e+00 2.529107144873549373e+02
5.070786002813292725e+00 -3.451392321713644407e+00 2.529077847998549373e+02
5.474826339413292331e+00 -3.451392321713644407e+00 2.529048703710549546e+02
5.878866676013292825e+00 -3.451392321713644407e+00 2.529019406835549546e+02
6.282907012613292430e+00 -3.451392321713644407e+00 2.528990109960549546e+02
6.686947349213292036e+00 -3.451392321713644407e+00 2.528960813085549546e+02
7.090987685813292529e+00 -3.451392321713644407e+00 2.528931516210549546e+02
7.495028499313292514e+00 -3.451392321713644407e+00 2.528902371923549310e+02
-4.222143169686707331e+00 -3.047351985113644357e+00 2.529775632421549574e+02
-3.818103071486707911e+00 -3.047351985113644357e+00 2.529746335546549574e+02
-3.414062496486708120e+00 -3.047351985113644357e+00 2.529717191259549338e+02
-3.010022159886708071e+00 -3.047351985113644357e+00 2.529687894384549338e+02
-2.605981823286708021e+00 -3.047351985113644357e+00 2.529658597509549338e+02
-2.201941486686707972e+00 -3.047351985113644357e+00 2.529629300634549338e+02
-1.797901030886707829e+00 -3.047351985113644357e+00 2.529600003759549338e+02
-1.393860574986707679e+00 -3.047351985113644357e+00 2.529570859472549387e+02
-9.898201191867078697e-01 -3.047351985113644357e+00 2.529541562597549387e+02
-5.857797825867078201e-01 -3.047351985113644357e+00 2.529512265722549387e+02
-1.817393565867078398e-01 -3.047351985113644357e+00 2.529482968847549387e+02
2.223010396132921451e-01 -3.047351985113644357e+00 2.529453671972549387e+02
6.263414656132920699e-01 -3.047351985113644357e+00 2.529424375097549387e+02
1.030381802213292231e+00 -3.047351985113644357e+00 2.529395230810549435e+02
1.434422258013292151e+00 -3.047351985113644357e+00 2.529365933935549435e+02
1.838462713913292301e+00 -3.047351985113644357e+00 2.529336637060549435e+02
2.242503169713291999e+00 -3.047351985113644357e+00 2.529307340185549435e+02
2.646543506313292049e+00 -3.047351985113644357e+00 2.529278043310549435e+02
3.050583842913292099e+00 -3.047351985113644357e+00 2.529248899023549484e+02
3.454624179513292148e+00 -3.047351985113644357e+00 2.529219602148549484e+02
3.858664754513291939e+00 -3.047351985113644357e+00 2.529190305273549484e+02
4.262704852713292247e+00 -3.047351985113644357e+00 2.529161008398549484e+02
4.666745666213292232e+00 -3.047351985113644357e+00 2.529131711523549484e+02
5.070786002813292725e+00 -3.047351985113644357e+00 2.529102567236549532e+02
5.474826339413292331e+00 -3.047351985113644357e+00 2.529073270361549532e+02
5.878866676013292825e+00 -3.047351985113644357e+00 2.529043973486549532e+02
6.282907012613292430e+00 -3.047351985113644357e+00 2.529014676611549532e+02
6.686947349213292036e+00 -3.047351985113644357e+00 2.528985379736549532e+02
7.090987685813292529e+00 -3.047351985113644357e+00 2.528956235449549297e+02
7.495028499313292514e+00 -3.047351985113644357e+00 2.528926938574549297e+02
-4.222143169686707331e+00 -2.643311648513644307e+00 2.529800199072549560e+02
-3.818103071486707911e+00 -2.643311648513644307e+00 2.529771054785549325e+02
-3.414062496486708120e+00 -2.643311648513644307e+00 2.529741757910549325e+02
-3.010022159886708071e+00 -2.643311648513644307e+00 2.529712461035549325e+02
-2.605981823286708021e+00 -2.643311648513644307e+00 2.529683164160549325e+02
-2.201941486686707972e+00 -2.643311648513644307e+00 2.529653867285549325e+02
-1.797901030886707829e+00 -2.643311648513644307e+00 2.529624722998549373e+02
-1.393860574986707679e+00 -2.643311648513644307e+00 2.529595426123549373e+02
-9.898201191867078697e-01 -2.643311648513644307e+00 2.529566129248549373e+02
-5.857797825867078201e-01 -2.643311648513644307e+00 2.529536832373549373e+02
-1.817393565867078398e-01 -2.643311648513644307e+00 2.529507535498549373e+02
2.223010396132921451e-01 -2.643311648513644307e+00 2.529478391210549546e+02
6.263414656132920699e-01 -2.643311648513644307e+00 2.529449094335549546e+02
1.030381802213292231e+00 -2.643311648513644307e+00 2.529419797460549546e+02
1.434422258013292151e+00 -2.643311648513644307e+00 2.529390500585549546e+02
1.838462713913292301e+00 -2.643311648513644307e+00 2.529361203710549546e+02
2.242503169713291999e+00 -2.643311648513644307e+00 2.529332059423549310e+02
2.646543506313292049e+00 -2.643311648513644307e+00 2.529302762548549310e+02
3.050583842913292099e+00 -2.643311648513644307e+00 2.529273465673549310e+02
3.454624179513292148e+00 -2.643311648513644307e+00 2.529244168798549310e+02
3.858664754513291939e+00 -2.643311648513644307e+00 2.529214871923549310e+02
4.262704852713292247e+00 -2.643311648513644307e+00 2.529185727636549359e+02
4.666745666213292232e+00 -2.643311648513644307e+00 2.529156430761549359e+02
5.070786002813292725e+00 -2.643311648513644307e+00 2.529127133886549359e+02
5.474826339413292331e+00 -2.643311648513644307e+00 2.529097837011549359e+02
5.878866676013292825e+00 -2.643311648513644307e+00 2.529068540136549359e+02
6.282907012613292430e+00 -2.643311648513644307e+00 2.529039395849549408e+02
6.686947349213292036e+00 -2.643311648513644307e+00 2.529010098974549408e+02
7.090987685813292529e+00 -2.643311648513644307e+00 2.528980802099549408e+02
7.495028499313292514e+00 -2.643311648513644307e+00 2.528951505224549408e+02
-4.222143169686707331e+00 -2.239271311913644258e+00 2.529824918310549435e+02
-3.818103071486707911e+00 -2.239271311913644258e+00 2.529795621435549435e+02
-3.414062496486708120e+00 -2.239271311913644258e+00 2.529766324560549435e+02
-3.010022159886708071e+00 -2.239271311913644258e+00 2.529737027685549435e+02
-2.605981823286708021e+00 -2.239271311913644258e+00 2.529707730810549435e+02
-2.201941486686707972e+00 -2.239271311913644258e+00 2.529678586523549484e+02
-1.797901030886707829e+00 -2.239271311913644258e+00 2.529649289648549484e+02
-1.393860574986707679e+00 -2.239271311913644258e+00 2.529619992773549484e+02
-9.898201191867078697e-01 -2.239271311913644258e+00 2.529590695898549484e+02
-5.857797825867078201e-01 -2.239271311913644258e+00 2.529561399023549484e+02
-1.817393565867078398e-01 -2.239271311913644258e+00 2.529532254736549532e+02
2.223010396132921451e-01 -2.239271311913644258e+00 2.529502957861549532e+02
6.263414656132920699e-01 -2.239271311913644258e+00 2.529473660986549532e+02
1.030381802213292231e+00 -2.239271311913644258e+00 2.529444364111549532e+02
1.434422258013292151e+00 -2.239271311913644258e+00 2.529415067236549532e+02
1.838462713913292301e+00 -2.239271311913644258e+00 2.529385922949549297e+02
2.242503169713291999e+00 -2.239271311913644258e+00 2.529356626074549297e+02
2.646543506313292049e+00 -2.239271311913644258e+00 2.529327329199549297e+02
3.050583842913292099e+00 -2.239271311913644258e+00 2.529298032324549297e+02
3.454624179513292148e+00 -2.239271311913644258e+00 2.529268735449549297e+02
3.858664754513291939e+00 -2.239271311913644258e+00 2.529239591162549345e+02
4.262704852713292247e+00 -2.239271311913644258e+00 2.529210294287549345e+02
4.666745666213292232e+00 -2.239271311913644258e+00 2.529180997412549345e+02
5.070786002813292725e+00 -2.239271311913644258e+00 2.529151700537549345e+02
5.474826339413292331e+00 -2.239271311913644258e+00 2.529122403662549345e+02
5.878866676013292825e+00 -2.239271311913644258e+00 2.529093259374549518e+02
6.282907012613292430e+00 -2.239271311913644258e+00 2.529063962499549518e+02
6.686947349213292036e+00 -2.239271311913644258e+00 2.529034665624549518e+02
7.090987685813292529e+00 -2.239271311913644258e+00 2.529005368749549518e+02
7.495028499313292514e+00 -2.239271311913644258e+00 2.528976071874549518e+02
-4.626183983186707316e+00 -1.835230856113644560e+00 2.529878781835549546e+02
-4.222143169686707331e+00 -1.835230856113644560e+00 2.529849484960549546e+02
-3.818103071486707911e+00 -1.835230856113644560e+00 2.529820188085549546e+02
-3.414062496486708120e+00 -1.835230856113644560e+00 2.529790891210549546e+02
-3.010022159886708071e+00 -1.835230856113644560e+00 2.529761594335549546e+02
-2.605981823286708021e+00 -1.835230856113644560e+00 2.529732450048549310e+02
-2.201941486686707972e+00 -1.835230856113644560e+00 2.529703153173549310e+02
-1.797901030886707829e+00 -1.835230856113644560e+00 2.529673856298549310e+02
-1.393860574986707679e+00 -1.835230856113644560e+00 2.529644559423549310e+02
-9.898201191867078697e-01 -1.835230856113644560e+00 2.529615262548549310e+02
-5.857797825867078201e-01 -1.835230856113644560e+00 2.529586118261549359e+02
-1.817393565867078398e-01 -1.835230856113644560e+00 2.529556821386549359e+02
2.223010396132921451e-01 -1.835230856113644560e+00 2.529527524511549359e+02
6.263414656132920699e-01 -1.835230856113644560e+00 2.529498227636549359e+02
1.030381802213292231e+00 -1.835230856113644560e+00 2.529468930761549359e+02
1.434422258013292151e+00 -1.835230856113644560e+00 2.529439786474549408e+02
1.838462713913292301e+00 -1.835230856113644560e+00 2.529410489599549408e+02
2.242503169713291999e+00 -1.835230856113644560e+00 2.529381192724549408e+02
2.646543506313292049e+00 -1.835230856113644560e+00 2.529351895849549408e+02
3.050583842913292099e+00 -1.835230856113644560e+00 2.529322598974549408e+02
3.454624179513292148e+00 -1.835230856113644560e+00 2.529293454687549456e+02
3.858664754513291939e+00 -1.835230856113644560e+00 2.529264157812549456e+02
4.262704852713292247e+00 -1.835230856113644560e+00 2.529234860937549456e+02
4.666745666213292232e+00 -1.835230856113644560e+00 2.529205564062549456e+02
5.070786002813292725e+00 -1.835230856113644560e+00 2.529176267187549456e+02
5.474826339413292331e+00 -1.835230856113644560e+00 2.529147122900549505e+02
5.878866676013292825e+00 -1.835230856113644560e+00 2.529117826025549505e+02
6.282907012613292430e+00 -1.835230856113644560e+00 2.529088529150549505e+02
6.686947349213292036e+00 -1.835230856113644560e+00 2.529059232275549505e+02
7.090987685813292529e+00 -1.835230856113644560e+00 2.529029935400549505e+02
-4.626183983186707316e+00 -1.431190400213644409e+00 2.529903348486549532e+02
-4.222143169686707331e+00 -1.431190400213644409e+00 2.529874051611549532e+02
-3.818103071486707911e+00 -1.431190400213644409e+00 2.529844754736549532e+02
-3.414062496486708120e+00 -1.431190400213644409e+00 2.529815457861549532e+02
-3.010022159886708071e+00 -1.431190400213644409e+00 2.529786313574549297e+02
-2.605981823286708021e+00 -1.431190400213644409e+00 2.529757016699549297e+02
-2.201941486686707972e+00 -1.431190400213644409e+00 2.529727719824549297e+02
-1.797901030886707829e+00 -1.431190400213644409e+00 2.529698422949549297e+02
-1.393860574986707679e+00 -1.431190400213644409e+00 2.529669126074549297e+02
-9.898201191867078697e-01 -1.431190400213644409e+00 2.529639981787549345e+02
-5.857797825867078201e-01 -1.431190400213644409e+00 2.529610684912549345e+02
-1.817393565867078398e-01 -1.431190400213644409e+00 2.529581388037549345e+02
2.223010396132921451e-01 -1.431190400213644409e+00 2.529552091162549345e+02
6.263414656132920699e-01 -1.431190400213644409e+00 2.529522794287549345e+02
1.030381802213292231e+00 -1.431190400213644409e+00 2.529493649999549518e+02
1.434422258013292151e+00 -1.431190400213644409e+00 2.529464353124549518e+02
1.838462713913292301e+00 -1.431190400213644409e+00 2.529435056249549518e+02
2.242503169713291999e+00 -1.431190400213644409e+00 2.529405759374549518e+02
2.646543506313292049e+00 -1.431190400213644409e+00 2.529376462499549518e+02
3.050583842913292099e+00 -1.431190400213644409e+00 2.529347318212549567e+02
3.454624179513292148e+00 -1.431190400213644409e+00 2.529318021337549567e+02
3.858664754513291939e+00 -1.431190400213644409e+00 2.529288724462549567e+02
4.262704852713292247e+00 -1.431190400213644409e+00 2.529259427587549567e+02
4.666745666213292232e+00 -1.431190400213644409e+00 2.529230130712549567e+02
5.070786002813292725e+00 -1.431190400213644409e+00 2.529200986425549331e+02
5.474826339413292331e+00 -1.431190400213644409e+00 2.529171689550549331e+02
5.878866676013292825e+00 -1.431190400213644409e+00 2.529142392675549331e+02
6.282907012613292430e+00 -1.431190400213644409e+00 2.529113095800549331e+02
6.686947349213292036e+00 -1.431190400213644409e+00 2.529083798925549331e+02
7.090987685813292529e+00 -1.431190400213644409e+00 2.529054654638549380e+02
7.495028499313292514e+00 -1.431190400213644409e+00 2.529025357763549380e+02
-4.626183983186707316e+00 -1.027149944413644489e+00 2.529927915136549359e+02
-4.222143169686707331e+00 -1.027149944413644489e+00 2.529898618261549359e+02
-3.818103071486707911e+00 -1.027149944413644489e+00 2.529869321386549359e+02
-3.414062496486708120e+00 -1.027149944413644489e+00 2.529840177099549408e+02
-3.010022159886708071e+00 -1.027149944413644489e+00 2.529810880224549408e+02
-2.605981823286708021e+00 -1.027149944413644489e+00 2.529781583349549408e+02
-2.201941486686707972e+00 -1.027149944413644489e+00 2.529752286474549408e+02
-1.797901030886707829e+00 -1.027149944413644489e+00 2.529722989599549408e+02
-1.393860574986707679e+00 -1.027149944413644489e+00 2.529693845312549456e+02
-9.898201191867078697e-01 -1.027149944413644489e+00 2.529664548437549456e+02
-5.857797825867078201e-01 -1.027149944413644489e+00 2.529635251562549456e+02
-1.817393565867078398e-01 -1.027149944413644489e+00 2.529605954687549456e+02
2.223010396132921451e-01 -1.027149944413644489e+00 2.529576657812549456e+02
6.263414656132920699e-01 -1.027149944413644489e+00 2.529547513525549505e+02
1.030381802213292231e+00 -1.027149944413644489e+00 2.529518216650549505e+02
1.434422258013292151e+00 -1.027149944413644489e+00 2.529488919775549505e+02
1.838462713913292301e+00 -1.027149944413644489e+00 2.529459622900549505e+02
2.242503169713291999e+00 -1.027149944413644489e+00 2.529430326025549505e+02
2.646543506313292049e+00 -1.027149944413644489e+00 2.529401181738549553e+02
3.050583842913292099e+00 -1.027149944413644489e+00 2.529371884863549553e+02
3.454624179513292148e+00 -1.027149944413644489e+00 2.529342587988549553e+02
3.858664754513291939e+00 -1.027149944413644489e+00 2.529313291113549553e+02
4.262704852713292247e+00 -1.027149944413644489e+00 2.529283994238549553e+02
4.666745666213292232e+00 -1.027149944413644489e+00 2.529254849951549318e+02
5.070786002813292725e+00 -1.027149944413644489e+00 2.529225553076549318e+02
5.474826339413292331e+00 -1.027149944413644489e+00 2.529196256201549318e+02
5.878866676013292825e+00 -1.027149944413644489e+00 2.529166959326549318e+02
6.282907012613292430e+00 -1.027149944413644489e+00 2.529137662451549318e+02
6.686947349213292036e+00 -1.027149944413644489e+00 2.529108518164549366e+02
7.090987685813292529e+00 -1.027149944413644489e+00 2.529079221289549366e+02
7.495028499313292514e+00 -1.027149944413644489e+00 2.529049924414549366e+02
-4.626183983186707316e+00 -6.231096078136444394e-01 2.529952481787549345e+02
-4.222143169686707331e+00 -6.231096078136444394e-01 2.529923337499549518e+02
-3.818103071486707911e+00 -6.231096078136444394e-01 2.529894040624549518e+02
-3.414062496486708120e+00 -6.231096078136444394e-01 2.529864743749549518e+02
-3.010022159886708071e+00 -6.231096078136444394e-01 2.529835446874549518e+02
-2.605981823286708021e+00 -6.231096078136444394e-01 2.529806149999549518e+02
-2.201941486686707972e+00 -6.231096078136444394e-01 2.529777005712549567e+02
-1.797901030886707829e+00 -6.231096078136444394e-01 2.529747708837549567e+02
-1.393860574986707679e+00 -6.231096078136444394e-01 2.529718411962549567e+02
-9.898201191867078697e-01 -6.231096078136444394e-01 2.529689115087549567e+02
-5.857797825867078201e-01 -6.231096078136444394e-01 2.529659818212549567e+02
-1.817393565867078398e-01 -6.231096078136444394e-01 2.529630673925549331e+02
2.223010396132921451e-01 -6.231096078136444394e-01 2.529601377050549331e+02
6.263414656132920699e-01 -6.231096078136444394e-01 2.529572080175549331e+02
1.030381802213292231e+00 -6.231096078136444394e-01 2.529542783300549331e+02
1.434422258013292151e+00 -6.231096078136444394e-01 2.529513486425549331e+02
1.838462713913292301e+00 -6.231096078136444394e-01 2.529484342138549380e+02
2.242503169713291999e+00 -6.231096078136444394e-01 2.529455045263549380e+02
2.646543506313292049e+00 -6.231096078136444394e-01 2.529425748388549380e+02
3.050583842913292099e+00 -6.231096078136444394e-01 2.529396451513549380e+02
3.454624179513292148e+00 -6.231096078136444394e-01 2.529367154638549380e+02
3.858664754513291939e+00 -6.231096078136444394e-01 2.529338010351549428e+02
4.262704852713292247e+00 -6.231096078136444394e-01 2.529308713476549428e+02
4.666745666213292232e+00 -6.231096078136444394e-01 2.529279416601549428e+02
5.070786002813292725e+00 -6.231096078136444394e-01 2.529250119726549428e+02
5.474826339413292331e+00 -6.231096078136444394e-01 2.529220822851549428e+02
5.878866676013292825e+00 -6.231096078136444394e-01 2.529191525976549428e+02
6.282907012613292430e+00 -6.231096078136444394e-01 2.529162381689549477e+02
6.686947349213292036e+00 -6.231096078136444394e-01 2.529133084814549477e+02
7.090987685813292529e+00 -6.231096078136444394e-01 2.529103787939549477e+02
-4.222143169686707331e+00 -2.190691818136444313e-01 2.529947904150549505e+02
-3.818103071486707911e+00 -2.190691818136444313e-01 2.529918607275549505e+02
-3.414062496486708120e+00 -2.190691818136444313e-01 2.529889310400549505e+02
-3.010022159886708071e+00 -2.190691818136444313e-01 2.529860013525549505e+02
-2.605981823286708021e+00 -2.190691818136444313e-01 2.529830869238549553e+02
-2.201941486686707972e+00 -2.190691818136444313e-01 2.529801572363549553e+02
-1.797901030886707829e+00 -2.190691818136444313e-01 2.529772275488549553e+02
-1.393860574986707679e+00 -2.190691818136444313e-01 2.529742978613549553e+02
-9.898201191867078697e-01 -2.190691818136444313e-01 2.529713681738549553e+02
-5.857797825867078201e-01 -2.190691818136444313e-01 2.529684537451549318e+02
-1.817393565867078398e-01 -2.190691818136444313e-01 2.529655240576549318e+02
2.223010396132921451e-01 -2.190691818136444313e-01 2.529625943701549318e+02
6.263414656132920699e-01 -2.190691818136444313e-01 2.529596646826549318e+02
1.030381802213292231e+00 -2.190691818136444313e-01 2.529567349951549318e+02
1.434422258013292151e+00 -2.190691818136444313e-01 2.529538205664549366e+02
1.838462713913292301e+00 -2.190691818136444313e-01 2.529508908789549366e+02
2.242503169713291999e+00 -2.190691818136444313e-01 2.529479611914549366e+02
2.646543506313292049e+00 -2.190691818136444313e-01 2.529450315039549366e+02
3.050583842913292099e+00 -2.190691818136444313e-01 2.529421018164549366e+02
3.454624179513292148e+00 -2.190691818136444313e-01 2.529391873876549539e+02
3.858664754513291939e+00 -2.190691818136444313e-01 2.529362577001549539e+02
4.262704852713292247e+00 -2.190691818136444313e-01 2.529333280126549539e+02
4.666745666213292232e+00 -2.190691818136444313e-01 2.529303983251549539e+02
5.070786002813292725e+00 -2.190691818136444313e-01 2.529274686376549539e+02
5.474826339413292331e+00 -2.190691818136444313e-01 2.529245542089549303e+02
5.878866676013292825e+00 -2.190691818136444313e-01 2.529216245214549303e+02
6.282907012613292430e+00 -2.190691818136444313e-01 2.529186948339549303e+02
6.686947349213292036e+00 -2.190691818136444313e-01 2.529157651464549303e+02
7.090987685813292529e+00 -2.190691818136444313e-01 2.529128354589549303e+02
-4.222143169686707331e+00 1.849712143863555536e-01 2.529972470800549331e+02
-3.818103071486707911e+00 1.849712143863555536e-01 2.529943173925549331e+02
-3.414062496486708120e+00 1.849712143863555536e-01 2.529913877050549331e+02
-3.010022159886708071e+00 1.849712143863555536e-01 2.529884732763549380e+02
-2.605981823286708021e+00 1.849712143863555536e-01 2.529855435888549380e+02
-2.201941486686707972e+00 1.849712143863555536e-01 2.529826139013549380e+02
-1.797901030886707829e+00 1.849712143863555536e-01 2.529796842138549380e+02
-1.393860574986707679e+00 1.849712143863555536e-01 2.529767545263549380e+02
-9.898201191867078697e-01 1.849712143863555536e-01 2.529738400976549428e+02
-5.857797825867078201e-01 1.849712143863555536e-01 2.529709104101549428e+02
-1.817393565867078398e-01 1.849712143863555536e-01 2.529679807226549428e+02
2.223010396132921451e-01 1.849712143863555536e-01 2.529650510351549428e+02
6.263414656132920699e-01 1.849712143863555536e-01 2.529621213476549428e+02
1.030381802213292231e+00 1.849712143863555536e-01 2.529592069189549477e+02
1.434422258013292151e+00 1.849712143863555536e-01 2.529562772314549477e+02
1.838462713913292301e+00 1.849712143863555536e-01 2.529533475439549477e+02
2.242503169713291999e+00 1.849712143863555536e-01 2.529504178564549477e+02
2.646543506313292049e+00 1.849712143863555536e-01 2.529474881689549477e+02
3.050583842913292099e+00 1.849712143863555536e-01 2.529445737402549526e+02
3.454624179513292148e+00 1.849712143863555536e-01 2.529416440527549526e+02
3.858664754513291939e+00 1.849712143863555536e-01 2.529387143652549526e+02
4.262704852713292247e+00 1.849712143863555536e-01 2.529357846777549526e+02
4.666745666213292232e+00 1.849712143863555536e-01 2.529328549902549526e+02
5.070786002813292725e+00 1.849712143863555536e-01 2.529299405615549574e+02
5.474826339413292331e+00 1.849712143863555536e-01 2.529270108740549574e+02
5.878866676013292825e+00 1.849712143863555536e-01 2.529240811865549574e+02
6.282907012613292430e+00 1.849712143863555536e-01 2.529211514990549574e+02
6.686947349213292036e+00 1.849712143863555536e-01 2.529182218115549574e+02
7.090987685813292529e+00 1.849712143863555536e-01 2.529153073828549338e+02
-4.626183983186707316e+00 5.890116403863554506e-01 2.530026334326549318e+02
-4.222143169686707331e+00 5.890116403863554506e-01 2.529997037451549318e+02
-3.818103071486707911e+00 5.890116403863554506e-01 2.529967740576549318e+02
-3.414062496486708120e+00 5.890116403863554506e-01 2.529938596289549366e+02
-3.010022159886708071e+00 5.890116403863554506e-01 2.529909299414549366e+02
-2.605981823286708021e+00 5.890116403863554506e-01 2.529880002539549366e+02
-2.201941486686707972e+00 5.890116403863554506e-01 2.529850705664549366e+02
-1.797901030886707829e+00 5.890116403863554506e-01 2.529821408789549366e+02
-1.393860574986707679e+00 5.890116403863554506e-01 2.529792264501549539e+02
-9.898201191867078697e-01 5.890116403863554506e-01 2.529762967626549539e+02
-5.857797825867078201e-01 5.890116403863554506e-01 2.529733670751549539e+02
-1.817393565867078398e-01 5.890116403863554506e-01 2.529704373876549539e+02
2.223010396132921451e-01 5.890116403863554506e-01 2.529675077001549539e+02
6.263414656132920699e-01 5.890116403863554506e-01 2.529645932714549303e+02
1.030381802213292231e+00 5.890116403863554506e-01 2.529616635839549303e+02
1.434422258013292151e+00 5.890116403863554506e-01 2.529587338964549303e+02
1.838462713913292301e+00 5.890116403863554506e-01 2.529558042089549303e+02
2.242503169713291999e+00 5.890116403863554506e-01 2.529528745214549303e+02
2.646543506313292049e+00 5.890116403863554506e-01 2.529499600927549352e+02
3.050583842913292099e+00 5.890116403863554506e-01 2.529470304052549352e+02
3.454624179513292148e+00 5.890116403863554506e-01 2.529441007177549352e+02
3.858664754513291939e+00 5.890116403863554506e-01 2.529411710302549352e+02
4.262704852713292247e+00 5.890116403863554506e-01 2.529382413427549352e+02
4.666745666213292232e+00 5.890116403863554506e-01 2.529353269140549401e+02
5.070786002813292725e+00 5.890116403863554506e-01 2.529323972265549401e+02
5.474826339413292331e+00 5.890116403863554506e-01 2.529294675390549401e+02
5.878866676013292825e+00 5.890116403863554506e-01 2.529265378515549401e+02
6.282907012613292430e+00 5.890116403863554506e-01 2.529236081640549401e+02
6.686947349213292036e+00 5.890116403863554506e-01 2.529206937353549449e+02
7.090987685813292529e+00 5.890116403863554506e-01 2.529177640478549449e+02
-4.626183983186707316e+00 9.930519769863555002e-01 2.530050900976549428e+02
-4.222143169686707331e+00 9.930519769863555002e-01 2.530021604101549428e+02
-3.818103071486707911e+00 9.930519769863555002e-01 2.529992459814549477e+02
-3.414062496486708120e+00 9.930519769863555002e-01 2.529963162939549477e+02
-3.010022159886708071e+00 9.930519769863555002e-01 2.529933866064549477e+02
-2.605981823286708021e+00 9.930519769863555002e-01 2.529904569189549477e+02
-2.201941486686707972e+00 9.930519769863555002e-01 2.529875272314549477e+02
-1.797901030886707829e+00 9.930519769863555002e-01 2.529846128027549526e+02
-1.393860574986707679e+00 9.930519769863555002e-01 2.529816831152549526e+02
-9.898201191867078697e-01 9.930519769863555002e-01 2.529787534277549526e+02
-5.857797825867078201e-01 9.930519769863555002e-01 2.529758237402549526e+02
-1.817393565867078398e-01 9.930519769863555002e-01 2.529728940527549526e+02
2.223010396132921451e-01 9.930519769863555002e-01 2.529699796240549574e+02
6.263414656132920699e-01 9.930519769863555002e-01 2.529670499365549574e+02
1.030381802213292231e+00 9.930519769863555002e-01 2.529641202490549574e+02
1.434422258013292151e+00 9.930519769863555002e-01 2.529611905615549574e+02
1.838462713913292301e+00 9.930519769863555002e-01 2.529582608740549574e+02
2.242503169713291999e+00 9.930519769863555002e-01 2.529553464453549338e+02
2.646543506313292049e+00 9.930519769863555002e-01 2.529524167578549338e+02
3.050583842913292099e+00 9.930519769863555002e-01 2.529494870703549338e+02
3.454624179513292148e+00 9.930519769863555002e-01 2.529465573828549338e+02
3.858664754513291939e+00 9.930519769863555002e-01 2.529436276953549338e+02
4.262704852713292247e+00 9.930519769863555002e-01 2.529407132665549511e+02
4.666745666213292232e+00 9.930519769863555002e-01 2.529377835790549511e+02
5.070786002813292725e+00 9.930519769863555002e-01 2.529348538915549511e+02
5.474826339413292331e+00 9.930519769863555002e-01 2.529319242040549511e+02
5.878866676013292825e+00 9.930519769863555002e-01 2.529289945165549511e+02
6.282907012613292430e+00 9.930519769863555002e-01 2.529260800878549560e+02
6.686947349213292036e+00 9.930519769863555002e-01 2.529231504003549560e+02
7.090987685813292529e+00 9.930519769863555002e-01 2.529202207128549560e+02
-4.626183983186707316e+00 1.397092432786355420e+00 2.530075620214549303e+02
-4.222143169686707331e+00 1.397092432786355420e+00 2.530046323339549303e+02
-3.818103071486707911e+00 1.397092432786355420e+00 2.530017026464549303e+02
-3.414062496486708120e+00 1.397092432786355420e+00 2.529987729589549303e+02
-3.010022159886708071e+00 1.397092432786355420e+00 2.529958432714549303e+02
-2.605981823286708021e+00 1.397092432786355420e+00 2.529929288427549352e+02
-2.201941486686707972e+00 1.397092432786355420e+00 2.529899991552549352e+02
-1.797901030886707829e+00 1.397092432786355420e+00 2.529870694677549352e+02
-1.393860574986707679e+00 1.397092432786355420e+00 2.529841397802549352e+02
-9.898201191867078697e-01 1.397092432786355420e+00 2.529812100927549352e+02
-5.857797825867078201e-01 1.397092432786355420e+00 2.529782956640549401e+02
-1.817393565867078398e-01 1.397092432786355420e+00 2.529753659765549401e+02
