-6.123436487836426689e-01 -9.493299932247495576e+00 2.519963601536362603e+02
-2.083032446836791396e-01 -9.493299932247492023e+00 2.519988988103362715e+02
1.957371593163350354e-01 -9.493299932247488471e+00 2.520014374669362667e+02
5.997775634163605707e-01 -9.493299932247490247e+00 2.520039761236362779e+02
1.003817967416343659e+00 -9.493299932247493800e+00 2.520065147803362606e+02
1.407858371416338183e+00 -9.493299932247500905e+00 2.520090534369362842e+02
1.811898775516346927e+00 -9.493299932247499129e+00 2.520115920936362670e+02
2.215939179516372537e+00 -9.493299932247492023e+00 2.520141307503362782e+02
2.619979583616342200e+00 -9.493299932247502682e+00 2.520166694069362734e+02
3.024019987616368255e+00 -9.493299932247508011e+00 2.520192080636362562e+02
-1.016384052783719349e+00 -9.089259528247501052e+00 2.519931549929362689e+02
-6.123436487836823039e-01 -9.089259528247490394e+00 2.519956936496362800e+02
-2.083032446836572960e-01 -9.089259528247476183e+00 2.519982323062362752e+02
1.957371593163365897e-01 -9.089259528247474407e+00 2.520007709629362580e+02
5.997775634163348135e-01 -9.089259528247486841e+00 2.520033096196362692e+02
1.003817967416368084e+00 -9.089259528247485065e+00 2.520058482763362804e+02
1.407858371416371712e+00 -9.089259528247493947e+00 2.520083869329362756e+02
1.811898775516387339e+00 -9.089259528247492170e+00 2.520109255896362583e+02
2.215939179516396962e+00 -9.089259528247502828e+00 2.520134642463362695e+02
2.619979583616337315e+00 -9.089259528247502828e+00 2.520160029029362647e+02
3.024019987616356708e+00 -9.089259528247504605e+00 2.520185415596362759e+02
-1.016384052783709135e+00 -8.685219124247506528e+00 2.519924884889362602e+02
-6.123436487837536912e-01 -8.685219124247501199e+00 2.519950271456362714e+02
-2.083032446837401463e-01 -8.685219124247497646e+00 2.519975658022362666e+02
1.957371593163287904e-01 -8.685219124247504752e+00 2.520001044589362778e+02
5.997775634163811098e-01 -8.685219124247508304e+00 2.520026431156362605e+02
1.003817967416434920e+00 -8.685219124247508304e+00 2.520051817722362841e+02
1.407858371416468746e+00 -8.685219124247517186e+00 2.520077204289362669e+02
1.811898775516450399e+00 -8.685219124247508304e+00 2.520102590856362781e+02
2.215939179516409396e+00 -8.685219124247515410e+00 2.520127977422362733e+02
2.619979583616336871e+00 -8.685219124247501199e+00 2.520153363989362560e+02
3.024019987616308747e+00 -8.685219124247511857e+00 2.520178750556362672e+02
-1.420424456783750289e+00 -8.281178720147504890e+00 2.519892833282362687e+02
-1.016384052783750658e+00 -8.281178720147501338e+00 2.519918219849362799e+02
-6.123436487837345954e-01 -8.281178720147504890e+00 2.519943606415362751e+02
-2.083032446836987073e-01 -8.281178720147503114e+00 2.519968992982362579e+02
1.957371593163584056e-01 -8.281178720147506667e+00 2.519994379549362691e+02
5.997775634164377312e-01 -8.281178720147508443e+00 2.520019766115362643e+02
1.003817967416458456e+00 -8.281178720147508443e+00 2.520045152682362755e+02
1.407858371416457421e+00 -8.281178720147510219e+00 2.520070539249362582e+02
1.811898775516488147e+00 -8.281178720147504890e+00 2.520095925815362818e+02
2.215939179516393853e+00 -8.281178720147506667e+00 2.520121312382362646e+02
2.619979583616371510e+00 -8.281178720147513772e+00 2.520146698949362758e+02
3.024019987616339833e+00 -8.281178720147510219e+00 2.520172085515362710e+02
-1.420424456783723199e+00 -7.877138316147510366e+00 2.519886168242362601e+02
-1.016384052783693814e+00 -7.877138316147521024e+00 2.519911554808362837e+02
-6.123436487836719788e-01 -7.877138316147515695e+00 2.519936941375362665e+02
-2.083032446836586560e-01 -7.877138316147510366e+00 2.519962327942362776e+02
1.957371593163524381e-01 -7.877138316147505037e+00 2.519987714508362728e+02
5.997775634163644565e-01 -7.877138316147498820e+00 2.520013101075362840e+02
1.003817967416410939e+00 -7.877138316147503261e+00 2.520038487642362668e+02
1.407858371416444765e+00 -7.877138316147509478e+00 2.520063874208362620e+02
1.811898775516417981e+00 -7.877138316147513919e+00 2.520089260775362732e+02
2.215939179516423163e+00 -7.877138316147517472e+00 2.520114647342362559e+02
2.619979583616414587e+00 -7.877138316147521024e+00 2.520140033909362671e+02
3.024019987616431759e+00 -7.877138316147520136e+00 2.520165420475362623e+02
-1.420424456783648814e+00 -7.473097912047501623e+00 2.519879503202362798e+02
-1.016384052783623870e+00 -7.473097912047507840e+00 2.519904889768362750e+02
-6.123436487837268238e-01 -7.473097912047504288e+00 2.519930276335362578e+02
-2.083032446837137786e-01 -7.473097912047506952e+00 2.519955662902362690e+02
1.957371593163053647e-01 -7.473097912047504288e+00 2.519981049468362642e+02
5.997775634163206027e-01 -7.473097912047499847e+00 2.520006436035362754e+02
1.003817967416338330e+00 -7.473097912047499847e+00 2.520031822602362581e+02
1.407858371416395915e+00 -7.473097912047510505e+00 2.520057209168362817e+02
1.811898775516436633e+00 -7.473097912047506952e+00 2.520082595735362645e+02
2.215939179516422719e+00 -7.473097912047514058e+00 2.520107982302362757e+02
2.619979583616468322e+00 -7.473097912047502511e+00 2.520133368868362709e+02
3.024019987616460181e+00 -7.473097912047501623e+00 2.520158755435362821e+02
-1.420424456783582201e+00 -7.069057508047512428e+00 2.519872838161362836e+02
-1.016384052783653402e+00 -7.069057508047496441e+00 2.519898224728362663e+02
-6.123436487836869668e-01 -7.069057508047492888e+00 2.519923611295362775e+02
-2.083032446837104479e-01 -7.069057508047492000e+00 2.519948997861362727e+02
1.957371593162753887e-01 -7.069057508047488447e+00 2.519974384428362839e+02
5.997775634162915148e-01 -7.069057508047492888e+00 2.519999770995362667e+02
1.003817967416313683e+00 -7.069057508047488447e+00 2.520025157561362619e+02
1.407858371416414123e+00 -7.069057508047488447e+00 2.520050544128362731e+02
1.811898775516489035e+00 -7.069057508047492888e+00 2.520075930695362842e+02
2.215939179516451141e+00 -7.069057508047495553e+00 2.520101317261362794e+02
2.619979583616507846e+00 -7.069057508047506211e+00 2.520126703828362622e+02
3.024019987616445526e+00 -7.069057508047510652e+00 2.520152090395362734e+02
-1.420424456783553113e+00 -6.665017104047490371e+00 2.519866173121362749e+02
-1.016384052783627645e+00 -6.665017104047490371e+00 2.519891559688362577e+02
-6.123436487836724229e-01 -6.665017104047492147e+00 2.519916946254362813e+02
-2.083032446837113361e-01 -6.665017104047484153e+00 2.519942332821362641e+02
1.957371593162936518e-01 -6.665017104047485041e+00 2.519967719388362752e+02
5.997775634163521330e-01 -6.665017104047484153e+00 2.519993105954362704e+02
1.003817967416365198e+00 -6.665017104047485930e+00 2.520018492521362816e+02
1.407858371416424337e+00 -6.665017104047493035e+00 2.520043879088362644e+02
1.811898775516457727e+00 -6.665017104047493035e+00 2.520069265654362596e+02
2.215939179516379198e+00 -6.665017104047489482e+00 2.520094652221362708e+02
2.619979583616386165e+00 -6.665017104047493035e+00 2.520120038788362820e+02
-1.824464860883618256e+00 -6.260976699947504720e+00 2.519834121514362835e+02
-1.420424456783658140e+00 -6.260976699947496726e+00 2.519859508081362662e+02
-1.016384052783661174e+00 -6.260976699947497615e+00 2.519884894647362614e+02
-6.123436487836487752e-01 -6.260976699947494062e+00 2.519910281214362726e+02
-2.083032446836787233e-01 -6.260976699947478075e+00 2.519935667781362838e+02
1.957371593163457768e-01 -6.260976699947469193e+00 2.519961054348362666e+02
5.997775634163661218e-01 -6.260976699947467417e+00 2.519986440914362618e+02
1.003817967416349655e+00 -6.260976699947468305e+00 2.520011827481362729e+02
1.407858371416386811e+00 -6.260976699947479851e+00 2.520037214048362841e+02
1.811898775516406435e+00 -6.260976699947488733e+00 2.520062600614362793e+02
2.215939179516358770e+00 -6.260976699947492286e+00 2.520087987181362621e+02
2.619979583616364849e+00 -6.260976699947493174e+00 2.520113373748362733e+02
3.024019987616381577e+00 -6.260976699947490509e+00 2.520138760314362685e+02
-1.420424456783684564e+00 -5.856936295947496873e+00 2.519852843041362576e+02
-1.016384052783629866e+00 -5.856936295947496873e+00 2.519878229607362812e+02
-6.123436487836539932e-01 -5.856936295947488880e+00 2.519903616174362639e+02
-2.083032446836420304e-01 -5.856936295947482662e+00 2.519929002741362751e+02
1.957371593164038970e-01 -5.856936295947482662e+00 2.519954389307362703e+02
5.997775634164241865e-01 -5.856936295947479998e+00 2.519979775874362815e+02
1.003817967416404500e+00 -5.856936295947469340e+00 2.520005162441362643e+02
1.407858371416381704e+00 -5.856936295947477333e+00 2.520030549007362595e+02
1.811898775516372462e+00 -5.856936295947480886e+00 2.520055935574362707e+02
2.215939179516338342e+00 -5.856936295947488880e+00 2.520081322141362818e+02
2.619979583616315555e+00 -5.856936295947491544e+00 2.520106708707362770e+02
3.024019987616367811e+00 -5.856936295947506643e+00 2.520132095274362598e+02
-1.420424456783726752e+00 -5.452895891847504117e+00 2.519846178000362613e+02
-1.016384052783652292e+00 -5.452895891847506782e+00 2.519871564567362725e+02
-6.123436487836244613e-01 -5.452895891847502341e+00 2.519896951134362837e+02
-2.083032446835471896e-01 -5.452895891847501453e+00 2.519922337700362789e+02
1.957371593164289325e-01 -5.452895891847497900e+00 2.519947724267362617e+02
5.997775634163928782e-01 -5.452895891847498788e+00 2.519973110834362728e+02
1.003817967416402723e+00 -5.452895891847498788e+00 2.519998497400362680e+02
1.407858371416359722e+00 -5.452895891847500565e+00 2.520023883967362792e+02
1.811898775516354032e+00 -5.452895891847501453e+00 2.520049270534362620e+02
2.215939179516332125e+00 -5.452895891847505894e+00 2.520074657100362572e+02
2.619979583616326657e+00 -5.452895891847502341e+00 2.520100043667362684e+02
3.024019987616359373e+00 -5.452895891847498788e+00 2.520125430234362796e+02
-1.420424456783687450e+00 -5.048855487847515811e+00 2.519839512960362811e+02
-1.016384052783652514e+00 -5.048855487847505152e+00 2.519864899527362638e+02
-6.123436487836191322e-01 -5.048855487847506041e+00 2.519890286093362590e+02
-2.083032446835934304e-01 -5.048855487847498935e+00 2.519915672660362702e+02
1.957371593164007051e-01 -5.048855487847498935e+00 2.519941059227362814e+02
5.997775634163767799e-01 -5.048855487847494494e+00 2.519966445794362642e+02
1.003817967416374968e+00 -5.048855487847494494e+00 2.519991832360362594e+02
1.407858371416387921e+00 -5.048855487847499823e+00 2.520017218927362705e+02
1.811898775516398663e+00 -5.048855487847508705e+00 2.520042605494362817e+02
2.215939179516358326e+00 -5.048855487847514034e+00 2.520067992060362769e+02
2.619979583616351526e+00 -5.048855487847517587e+00 2.520093378627362597e+02
3.024019987616345606e+00 -5.048855487847518475e+00 2.520118765194362709e+02
-1.420424456783655032e+00 -4.644815083847507964e+00 2.519832847920362724e+02
-1.016384052783686931e+00 -4.644815083847494641e+00 2.519858234487362836e+02
-6.123436487836939612e-01 -4.644815083847500858e+00 2.519883621053362788e+02
-2.083032446836640683e-01 -4.644815083847486648e+00 2.519909007620362615e+02
1.957371593163585721e-01 -4.644815083847488424e+00 2.519934394187362727e+02
5.997775634163671210e-01 -4.644815083847495529e+00 2.519959780753362679e+02
1.003817967416436696e+00 -4.644815083847496417e+00 2.519985167320362791e+02
1.407858371416465637e+00 -4.644815083847503523e+00 2.520010553887362619e+02
1.811898775516433302e+00 -4.644815083847511517e+00 2.520035940453362571e+02
2.215939179516381863e+00 -4.644815083847515069e+00 2.520061327020362683e+02
2.619979583616378616e+00 -4.644815083847522175e+00 2.520086713587362794e+02
-1.420424456783746070e+00 -4.240774679747487674e+00 2.519826182880362637e+02
-1.016384052783783520e+00 -4.240774679747494780e+00 2.519851569446362589e+02
-6.123436487837153885e-01 -4.240774679747492115e+00 2.519876956013362701e+02
-2.083032446837597418e-01 -4.240774679747507214e+00 2.519902342580362813e+02
1.957371593163276802e-01 -4.240774679747511655e+00 2.519927729146362765e+02
5.997775634163949876e-01 -4.240774679747520537e+00 2.519953115713362592e+02
1.003817967416460011e+00 -4.240774679747524090e+00 2.519978502280362704e+02
1.407858371416444765e+00 -4.240774679747517872e+00 2.520003888846362656e+02
1.811898775516419979e+00 -4.240774679747524090e+00 2.520029275413362768e+02
2.215939179516383195e+00 -4.240774679747510767e+00 2.520054661980362596e+02
2.619979583616402152e+00 -4.240774679747506326e+00 2.520080048546362832e+02
-1.420424456783725198e+00 -3.836734275747489153e+00 2.519819517839362675e+02
-1.016384052783745995e+00 -3.836734275747490042e+00 2.519844904406362787e+02
-6.123436487837509157e-01 -3.836734275747488265e+00 2.519870290973362614e+02
-2.083032446837883855e-01 -3.836734275747485157e+00 2.519895677539362566e+02
1.957371593162166579e-01 -3.836734275747486933e+00 2.519921064106362678e+02
5.997775634162990643e-01 -3.836734275747490042e+00 2.519946450673362790e+02
1.003817967416368973e+00 -3.836734275747493150e+00 2.519971837239362742e+02
1.407858371416359278e+00 -3.836734275747495371e+00 2.519997223806362570e+02
1.811898775516366245e+00 -3.836734275747495815e+00 2.520022610373362681e+02
2.215939179516373869e+00 -3.836734275747495371e+00 2.520047996940362793e+02
2.619979583616363961e+00 -3.836734275747497591e+00 2.520073383506362745e+02
-1.824464860883712181e+00 -3.432693871647493733e+00 2.519787466233362636e+02
-1.420424456783802025e+00 -3.432693871647493733e+00 2.519812852799362588e+02
-1.016384052783843250e+00 -3.432693871647493289e+00 2.519838239366362700e+02
-6.123436487838246345e-01 -3.432693871647493733e+00 2.519863625933362812e+02
-2.083032446838668228e-01 -3.432693871647491957e+00 2.519889012499362764e+02
1.957371593161605361e-01 -3.432693871647492845e+00 2.519914399066362591e+02
5.997775634162035852e-01 -3.432693871647493733e+00 2.519939785633362703e+02
1.003817967416258394e+00 -3.432693871647492845e+00 2.519965172199362655e+02
1.407858371416253362e+00 -3.432693871647492845e+00 2.519990558766362767e+02
1.811898775516276983e+00 -3.432693871647494177e+00 2.520015945333362595e+02
2.215939179516315694e+00 -3.432693871647499950e+00 2.520041331899362831e+02
2.619979583616384833e+00 -3.432693871647500394e+00 2.520066718466362659e+02
-1.824464860883745043e+00 -3.028653467647497433e+00 2.519780801192362674e+02
-1.420424456783718536e+00 -3.028653467647507203e+00 2.519806187759362786e+02
-1.016384052783733338e+00 -3.028653467647508091e+00 2.519831574326362613e+02
-6.123436487837877751e-01 -3.028653467647500097e+00 2.519856960892362565e+02
-2.083032446837779772e-01 -3.028653467647500541e+00 2.519882347459362677e+02
1.957371593162619827e-01 -3.028653467647500097e+00 2.519907734026362789e+02
5.997775634162766378e-01 -3.028653467647500097e+00 2.519933120592362741e+02
1.003817967416285484e+00 -3.028653467647500097e+00 2.519958507159362568e+02
1.407858371416225607e+00 -3.028653467647499209e+00 2.519983893726362680e+02
1.811898775516265436e+00 -3.028653467647504094e+00 2.520009280292362632e+02
2.215939179516274837e+00 -3.028653467647508979e+00 2.520034666859362744e+02
2.619979583616343533e+00 -3.028653467647507203e+00 2.520060053426362572e+02
-1.824464860883680428e+00 -2.624613063647499800e+00 2.519774136152362587e+02
-1.420424456783725642e+00 -2.624613063647504241e+00 2.519799522719362699e+02
-1.016384052783758873e+00 -2.624613063647506461e+00 2.519824909285362651e+02
-6.123436487837222719e-01 -2.624613063647510014e+00 2.519850295852362763e+02
-2.083032446837220497e-01 -2.624613063647511790e+00 2.519875682419362590e+02
1.957371593162617052e-01 -2.624613063647515787e+00 2.519901068985362826e+02
5.997775634162469949e-01 -2.624613063647516231e+00 2.519926455552362654e+02
1.003817967416201107e+00 -2.624613063647516231e+00 2.519951842119362766e+02
1.407858371416222276e+00 -2.624613063647513123e+00 2.519977228685362718e+02
1.811898775516212590e+00 -2.624613063647512679e+00 2.520002615252362830e+02
2.215939179516233537e+00 -2.624613063647510014e+00 2.520028001819362657e+02
2.619979583616223628e+00 -2.624613063647510014e+00 2.520053388386362769e+02
-1.824464860883676209e+00 -2.220572659547492833e+00 2.519767471112362784e+02
-1.420424456783631717e+00 -2.220572659547495942e+00 2.519792857678362736e+02
-1.016384052783648295e+00 -2.220572659547506600e+00 2.519818244245362564e+02
-6.123436487836608766e-01 -2.220572659547508376e+00 2.519843630812362676e+02
-2.083032446837325691e-01 -2.220572659547514593e+00 2.519869017379362788e+02
1.957371593162824108e-01 -2.220572659547517702e+00 2.519894403945362740e+02
5.997775634162001435e-01 -2.220572659547516370e+00 2.519919790512362567e+02
1.003817967416163803e+00 -2.220572659547513261e+00 2.519945177079362679e+02
1.407858371416183640e+00 -2.220572659547508820e+00 2.519970563645362631e+02
1.811898775516184390e+00 -2.220572659547505712e+00 2.519995950212362743e+02
2.215939179516286828e+00 -2.220572659547505712e+00 2.520021336779362571e+02
2.619979583616287133e+00 -2.220572659547499050e+00 2.520046723345362807e+02
-1.824464860883750594e+00 -1.816532255547501196e+00 2.519760806072362698e+02
-1.420424456783741407e+00 -1.816532255547503638e+00 2.519786192638362650e+02
-1.016384052783722680e+00 -1.816532255547507191e+00 2.519811579205362762e+02
-6.123436487837332631e-01 -1.816532255547507635e+00 2.519836965772362589e+02
-2.083032446837076168e-01 -1.816532255547510077e+00 2.519862352338362825e+02
1.957371593162123002e-01 -1.816532255547510522e+00 2.519887738905362653e+02
5.997775634161978120e-01 -1.816532255547511632e+00 2.519913125472362765e+02
1.003817967416184231e+00 -1.816532255547513186e+00 2.519938512038362717e+02
1.407858371416226051e+00 -1.816532255547511632e+00 2.519963898605362829e+02
1.811898775516194160e+00 -1.816532255547505637e+00 2.519989285172362656e+02
2.215939179516214441e+00 -1.816532255547505414e+00 2.520014671738362608e+02
2.619979583616271590e+00 -1.816532255547502528e+00 2.520040058305362720e+02
-1.420424456783689449e+00 -1.412491851447486013e+00 2.519779527598362563e+02
-1.016384052783678937e+00 -1.412491851447484681e+00 2.519804914165362675e+02
-6.123436487837218278e-01 -1.412491851447485347e+00 2.519830300731362627e+02
-2.083032446837455587e-01 -1.412491851447482460e+00 2.519855687298362739e+02
1.957371593162826329e-01 -1.412491851447480684e+00 2.519881073865362566e+02
5.997775634162120229e-01 -1.412491851447479352e+00 2.519906460431362802e+02
1.003817967416183787e+00 -1.412491851447479574e+00 2.519931846998362630e+02
1.407858371416086163e+00 -1.412491851447481350e+00 2.519957233565362742e+02
1.811898775516071369e+00 -1.412491851447480462e+00 2.519982620131362694e+02
2.215939179516130064e+00 -1.412491851447481350e+00 2.520008006698362806e+02
2.619979583616257379e+00 -1.412491851447485125e+00 2.520033393265362633e+02
3.024019987616205274e+00 -1.412491851447483571e+00 2.520058779831362585e+02
-1.824464860883808326e+00 -1.008451447447481497e+00 2.519747475991362649e+02
-1.420424456783792477e+00 -1.008451447447482607e+00 2.519772862558362760e+02
-1.016384052783738889e+00 -1.008451447447483496e+00 2.519798249124362712e+02
-6.123436487836886322e-01 -1.008451447447484606e+00 2.519823635691362824e+02
-2.083032446836888540e-01 -1.008451447447482163e+00 2.519849022258362652e+02
1.957371593162955115e-01 -1.008451447447482607e+00 2.519874408825362764e+02
5.997775634162719749e-01 -1.008451447447481497e+00 2.519899795391362716e+02
1.003817967416215096e+00 -1.008451447447480165e+00 2.519925181958362828e+02
1.407858371416109255e+00 -1.008451447447478611e+00 2.519950568525362655e+02
1.811898775515998761e+00 -1.008451447447476612e+00 2.519975955091362607e+02
2.215939179515984847e+00 -1.008451447447477944e+00 2.520001341658362719e+02
2.619979583616004248e+00 -1.008451447447476834e+00 2.520026728225362831e+02
3.024019987616086258e+00 -1.008451447447476612e+00 2.520052114791362783e+02
-1.824464860883699524e+00 -6.044110434474843085e-01 2.519740810951362562e+02
-1.420424456783710099e+00 -6.044110434474843085e-01 2.519766197518362674e+02
-1.016384052783699588e+00 -6.044110434474837534e-01 2.519791584084362626e+02
-6.123436487837092823e-01 -6.044110434474828653e-01 2.519816970651362737e+02
-2.083032446836934060e-01 -6.044110434474853077e-01 2.519842357218362565e+02
1.957371593162909318e-01 -6.044110434474850857e-01 2.519867743784362801e+02
5.997775634162909597e-01 -6.044110434474851967e-01 2.519893130351362629e+02
1.003817967416207546e+00 -6.044110434474830873e-01 2.519918516918362741e+02
1.407858371416140786e+00 -6.044110434474813109e-01 2.519943903484362693e+02
1.811898775516093796e+00 -6.044110434474795346e-01 2.519969290051362805e+02
2.215939179516130064e+00 -6.044110434474798677e-01 2.519994676618362632e+02
2.619979583616138363e+00 -6.044110434474796456e-01 2.520020063184362584e+02
3.024019987616143101e+00 -6.044110434474800897e-01 2.520045449751362696e+02
-1.824464860883914685e+00 -2.003706393474825598e-01 2.519734145911362759e+02
-1.420424456783905720e+00 -2.003706393474833092e-01 2.519759532477362711e+02
-1.016384052783849246e+00 -2.003706393474839753e-01 2.519784919044362823e+02
-6.123436487837609077e-01 -2.003706393474850023e-01 2.519810305611362651e+02
-2.083032446837089768e-01 -2.003706393474860292e-01 2.519835692177362603e+02
1.957371593162910428e-01 -2.003706393474858349e-01 2.519861078744362715e+02
5.997775634162928471e-01 -2.003706393474850855e-01 2.519886465311362826e+02
1.003817967416229306e+00 -2.003706393474833369e-01 2.519911851877362778e+02
1.407858371416139009e+00 -2.003706393474814773e-01 2.519937238444362606e+02
1.811898775516156856e+00 -2.003706393474827818e-01 2.519962625011362718e+02
2.215939179516200674e+00 -2.003706393474827541e-01 2.519988011577362670e+02
2.619979583616214747e+00 -2.003706393474822267e-01 2.520013398144362782e+02
3.024019987616243021e+00 -2.003706393474831704e-01 2.520038784711362609e+02
-1.824464860883868500e+00 2.036697646525156002e-01 2.519727480870362797e+02
-1.420424456783806688e+00 2.036697646525134908e-01 2.519752867437362625e+02
-1.016384052783793956e+00 2.036697646525126304e-01 2.519778254004362736e+02
-6.123436487838018749e-01 2.036697646525138516e-01 2.519803640570362688e+02
-2.083032446837794205e-01 2.036697646525134908e-01 2.519829027137362800e+02
1.957371593162539614e-01 2.036697646525123251e-01 2.519854413704362628e+02
5.997775634162755276e-01 2.036697646525118810e-01 2.519879800270362580e+02
1.003817967416261059e+00 2.036697646525119920e-01 2.519905186837362692e+02
1.407858371416263799e+00 2.036697646525121863e-01 2.519930573404362804e+02
1.811898775516314730e+00 2.036697646525121030e-01 2.519955959971362631e+02
2.215939179516361435e+00 2.036697646525119365e-01 2.519981346537362583e+02
2.619979583616299568e+00 2.036697646525134908e-01 2.520006733104362695e+02
3.024019987616258121e+00 2.036697646525147121e-01 2.520032119671362807e+02
3.428060391616199798e+00 2.036697646525156280e-01 2.520057506237362759e+02
-2.228505264883675618e+00 6.077101687525118257e-01 2.519695429264362758e+02
-1.824464860883721506e+00 6.077101687525124918e-01 2.519720815830362710e+02
-1.420424456783744960e+00 6.077101687525129359e-01 2.519746202397362822e+02
-1.016384052783789294e+00 6.077101687525139351e-01 2.519771588964362650e+02
-6.123436487838275211e-01 6.077101687525161555e-01 2.519796975530362602e+02
-2.083032446838981033e-01 6.077101687525177098e-01 2.519822362097362713e+02
1.957371593161920664e-01 6.077101687525153784e-01 2.519847748664362825e+02
5.997775634162471059e-01 6.077101687525131579e-01 2.519873135230362777e+02
1.003817967416260837e+00 6.077101687525128249e-01 2.519898521797362605e+02
1.407858371416312870e+00 6.077101687525111595e-01 2.519923908364362717e+02
1.811898775516231908e+00 6.077101687525116036e-01 2.519949294930362669e+02
2.215939179516290380e+00 6.077101687525107154e-01 2.519974681497362781e+02
2.619979583616306673e+00 6.077101687525103824e-01 2.520000068064362608e+02
3.024019987616232363e+00 6.077101687525119367e-01 2.520025454630362560e+02
-2.228505264883565040e+00 1.011750572752509791e+00 2.519688764223362796e+02
-1.824464860883644457e+00 1.011750572752514232e+00 2.519714150790362623e+02
-1.420424456783727418e+00 1.011750572752514010e+00 2.519739537357362735e+02
-1.016384052783777747e+00 1.011750572752516897e+00 2.519764923923362687e+02
-6.123436487838973541e-01 1.011750572752520672e+00 2.519790310490362799e+02
-2.083032446839050700e-01 1.011750572752519561e+00 2.519815697057362627e+02
1.957371593161743861e-01 1.011750572752516675e+00 2.519841083623362579e+02
5.997775634161979230e-01 1.011750572752516009e+00 2.519866470190362691e+02
1.003817967416283263e+00 1.011750572752514898e+00 2.519891856757362802e+02
1.407858371416320198e+00 1.011750572752515120e+00 2.519917243323362754e+02
1.811898775516321392e+00 1.011750572752514676e+00 2.519942629890362582e+02
2.215939179516395630e+00 1.011750572752514898e+00 2.519968016457362694e+02
2.619979583616322216e+00 1.011750572752514676e+00 2.519993403023362646e+02
3.024019987616328731e+00 1.011750572752512678e+00 2.520018789590362758e+02
-1.420424456783734080e+00 1.415790976752521413e+00 2.519732872316362773e+02
-1.016384052783727121e+00 1.415790976752518970e+00 2.519758258883362600e+02
-6.123436487837347064e-01 1.415790976752517194e+00 2.519783645450362712e+02
-2.083032446837677909e-01 1.415790976752515418e+00 2.519809032016362664e+02
1.957371593162704482e-01 1.415790976752514085e+00 2.519834418583362776e+02
5.997775634162596514e-01 1.415790976752514085e+00 2.519859805150362604e+02
1.003817967416251955e+00 1.415790976752513197e+00 2.519885191716362840e+02
1.407858371416230270e+00 1.415790976752516528e+00 2.519910578283362668e+02
1.811898775516203708e+00 1.415790976752517194e+00 2.519935964850362780e+02
2.215939179516264179e+00 1.415790976752518748e+00 2.519961351417362607e+02
2.619979583616323104e+00 1.415790976752521857e+00 2.519986737983362559e+02
3.024019987616381577e+00 1.415790976752522967e+00 2.520012124550362671e+02
-1.016384052783717573e+00 1.819831380852519942e+00 2.519751593843362798e+02
-6.123436487837664588e-01 1.819831380852521052e+00 2.519776980410362626e+02
-2.083032446837601581e-01 1.819831380852517722e+00 2.519802366976362578e+02
1.957371593162210710e-01 1.819831380852519498e+00 2.519827753543362689e+02
5.997775634162891834e-01 1.819831380852521940e+00 2.519853140110362801e+02
1.003817967416269497e+00 1.819831380852523495e+00 2.519878526676362753e+02
1.407858371416264243e+00 1.819831380852527714e+00 2.519903913243362581e+02
1.811898775516292970e+00 1.819831380852523717e+00 2.519929299810362693e+02
2.215939179516349000e+00 1.819831380852522607e+00 2.519954686376362645e+02
2.619979583616350638e+00 1.819831380852520164e+00 2.519980072943362757e+02
3.024019987616378913e+00 1.819831380852520164e+00 2.520005459510362584e+02
-1.016384052783619429e+00 2.223871784852526901e+00 2.519744928803362711e+02
-6.123436487835963726e-01 2.223871784852522016e+00 2.519770315369362663e+02
-2.083032446835687557e-01 2.223871784852518463e+00 2.519795701936362775e+02
1.957371593163342860e-01 2.223871784852521571e+00 2.519821088503362603e+02
5.997775634162606506e-01 2.223871784852523792e+00 2.519846475069362839e+02
1.003817967416194445e+00 2.223871784852522016e+00 2.519871861636362667e+02
1.407858371416152554e+00 2.223871784852527789e+00 2.519897248203362778e+02
1.811898775516199711e+00 2.223871784852527789e+00 2.519922634769362730e+02
2.215939179516272173e+00 2.223871784852526012e+00 2.519948021336362842e+02
2.619979583616388386e+00 2.223871784852524680e+00 2.519973407903362670e+02
3.024019987616332283e+00 2.223871784852527789e+00 2.519998794469362622e+02
-1.420424456783650147e+00 2.627912188952533423e+00 2.519712877196362797e+02
-1.016384052783637859e+00 2.627912188952536088e+00 2.519738263762362749e+02
-6.123436487836817488e-01 2.627912188952535200e+00 2.519763650329362576e+02
-2.083032446837005391e-01 2.627912188952536976e+00 2.519789036896362688e+02
1.957371593162578749e-01 2.627912188952532091e+00 2.519814423462362640e+02
5.997775634162451075e-01 2.627912188952532535e+00 2.519839810029362752e+02
1.003817967416283485e+00 2.627912188952530315e+00 2.519865196596362580e+02
1.407858371416209842e+00 2.627912188952533867e+00 2.519890583162362816e+02
1.811898775516268323e+00 2.627912188952534756e+00 2.519915969729362644e+02
2.215939179516272173e+00 2.627912188952534311e+00 2.519941356296362756e+02
2.619979583616382612e+00 2.627912188952530759e+00 2.519966742862362707e+02
3.024019987616386018e+00 2.627912188952527650e+00 2.519992129429362819e+02
-1.420424456783608402e+00 3.031952592952525727e+00 2.519706212155362834e+02
-1.016384052783585012e+00 3.031952592952525283e+00 2.519731598722362662e+02
-6.123436487835592912e-01 3.031952592952523062e+00 2.519756985289362774e+02
-2.083032446836248219e-01 3.031952592952522174e+00 2.519782371856362602e+02
1.957371593162540446e-01 3.031952592952521730e+00 2.519807758422362838e+02
5.997775634161680580e-01 3.031952592952520398e+00 2.519833144989362665e+02
1.003817967416227752e+00 3.031952592952520398e+00 2.519858531556362777e+02
1.407858371416197629e+00 3.031952592952518177e+00 2.519883918122362729e+02
1.811898775516241455e+00 3.031952592952521730e+00 2.519909304689362841e+02
2.215939179516291269e+00 3.031952592952522174e+00 2.519934691256362669e+02
2.619979583616343977e+00 3.031952592952525727e+00 2.519960077822362621e+02
3.024019987616372696e+00 3.031952592952522618e+00 2.519985464389362733e+02
-1.420424456783821565e+00 3.435992996952516698e+00 2.519699547115362748e+02
-1.016384052783875225e+00 3.435992996952515366e+00 2.519724933682362575e+02
-6.123436487838420650e-01 3.435992996952515810e+00 2.519750320249362687e+02
-2.083032446837743135e-01 3.435992996952513590e+00 2.519775706815362639e+02
1.957371593163021450e-01 3.435992996952511369e+00 2.519801093382362751e+02
5.997775634163243774e-01 3.435992996952512701e+00 2.519826479949362579e+02
1.003817967416333223e+00 3.435992996952513145e+00 2.519851866515362815e+02
1.407858371416305099e+00 3.435992996952518475e+00 2.519877253082362643e+02
1.811898775516243454e+00 3.435992996952519363e+00 2.519902639649362754e+02
2.215939179516208224e+00 3.435992996952518919e+00 2.519928026215362706e+02
2.619979583616252938e+00 3.435992996952522027e+00 2.519953412782362818e+02
-1.420424456783750289e+00 3.840033401052479700e+00 2.519692882075362661e+02
-1.016384052783783298e+00 3.840033401052484585e+00 2.519718268642362773e+02
-6.123436487837328190e-01 3.840033401052480144e+00 2.519743655208362725e+02
-2.083032446837751461e-01 3.840033401052473927e+00 2.519769041775362837e+02
1.957371593162393897e-01 3.840033401052474815e+00 2.519794428342362664e+02
5.997775634162695324e-01 3.840033401052475703e+00 2.519819814908362616e+02
1.003817967416273937e+00 3.840033401052471707e+00 2.519845201475362728e+02
1.407858371416204069e+00 3.840033401052473039e+00 2.519870588042362840e+02
1.811898775516204374e+00 3.840033401052463269e+00 2.519895974608362792e+02
2.215939179516281499e+00 3.840033401052464601e+00 2.519921361175362620e+02
2.619979583616285801e+00 3.840033401052474371e+00 2.519946747742362732e+02
-1.420424456783875078e+00 4.244073805052467563e+00 2.519686217035362574e+02
-1.016384052783877667e+00 4.244073805052463122e+00 2.519711603601362810e+02
-6.123436487838146425e-01 4.244073805052458681e+00 2.519736990168362638e+02
-2.083032446837448370e-01 4.244073805052464898e+00 2.519762376735362750e+02
1.957371593163546586e-01 4.244073805052466675e+00 2.519787763301362702e+02
5.997775634163660108e-01 4.244073805052470227e+00 2.519813149868362814e+02
1.003817967416394286e+00 4.244073805052471116e+00 2.519838536435362641e+02
1.407858371416313092e+00 4.244073805052469339e+00 2.519863923002362753e+02
1.811898775516220583e+00 4.244073805052457793e+00 2.519889309568362705e+02
2.215939179516241531e+00 4.244073805052451576e+00 2.519914696135362817e+02
2.619979583616341312e+00 4.244073805052458681e+00 2.519940082702362645e+02
-1.824464860883847406e+00 4.648114209152473641e+00 2.519654165428362660e+02
-1.420424456783857758e+00 4.648114209152479859e+00 2.519679551995362772e+02
-1.016384052783769754e+00 4.648114209152486964e+00 2.519704938561362724e+02
-6.123436487838147535e-01 4.648114209152488741e+00 2.519730325128362836e+02
-2.083032446838875285e-01 4.648114209152493181e+00 2.519755711695362663e+02
1.957371593161166545e-01 4.648114209152480747e+00 2.519781098261362615e+02
5.997775634161670588e-01 4.648114209152474530e+00 2.519806484828362727e+02
1.003817967416237744e+00 4.648114209152480747e+00 2.519831871395362839e+02
1.407858371416268239e+00 4.648114209152469201e+00 2.519857257961362791e+02
1.811898775516378901e+00 4.648114209152467424e+00 2.519882644528362619e+02
2.215939179516436486e+00 4.648114209152467424e+00 2.519908031095362730e+02
2.619979583616392382e+00 4.648114209152467424e+00 2.519933417661362682e+02
-1.824464860883801887e+00 5.052154613152476159e+00 2.519647500388362573e+02
-1.420424456783817124e+00 5.052154613152484153e+00 2.519672886954362809e+02
-1.016384052783809278e+00 5.052154613152483265e+00 2.519698273521362637e+02
-6.123436487838501696e-01 5.052154613152480600e+00 2.519723660088362749e+02
-2.083032446838175566e-01 5.052154613152468166e+00 2.519749046654362701e+02
1.957371593162441081e-01 5.052154613152467277e+00 2.519774433221362813e+02
5.997775634162402225e-01 5.052154613152466389e+00 2.519799819788362640e+02
1.003817967416301915e+00 5.052154613152467277e+00 2.519825206354362592e+02
1.407858371416249144e+00 5.052154613152464613e+00 2.519850592921362704e+02
1.811898775516278759e+00 5.052154613152462836e+00 2.519875979488362816e+02
2.215939179516326352e+00 5.052154613152466389e+00 2.519901366054362768e+02
2.619979583616456775e+00 5.052154613152466389e+00 2.519926752621362596e+02
3.024019987616474392e+00 5.052154613152464613e+00 2.519952139188362708e+02
-1.824464860883819650e+00 5.456195017152468019e+00 2.519640835347362611e+02
-1.420424456783826672e+00 5.456195017152471571e+00 2.519666221914362723e+02
-1.016384052783897873e+00 5.456195017152468907e+00 2.519691608481362834e+02
-6.123436487838691544e-01 5.456195017152466242e+00 2.519716995047362786e+02
-2.083032446838431473e-01 5.456195017152460025e+00 2.519742381614362614e+02
1.957371593161954249e-01 5.456195017152465354e+00 2.519767768181362726e+02
5.997775634162106906e-01 5.456195017152460025e+00 2.519793154747362678e+02
1.003817967416234858e+00 5.456195017152461801e+00 2.519818541314362790e+02
1.407858371416259580e+00 5.456195017152458249e+00 2.519843927881362617e+02
1.811898775516267213e+00 5.456195017152450255e+00 2.519869314448362729e+02
2.215939179516363211e+00 5.456195017152448479e+00 2.519894701014362681e+02
2.619979583616480756e+00 5.456195017152444926e+00 2.519920087581362793e+02
3.024019987616528571e+00 5.456195017152443150e+00 2.519945474148362621e+02
-1.824464860883812101e+00 5.860235421252471433e+00 2.519634170307362808e+02
-1.420424456783831779e+00 5.860235421252464327e+00 2.519659556874362636e+02
-1.016384052783874115e+00 5.860235421252454557e+00 2.519684943441362748e+02
-6.123436487838782583e-01 5.860235421252449228e+00 2.519710330007362700e+02
-2.083032446838239404e-01 5.860235421252453669e+00 2.519735716574362812e+02
1.957371593162272050e-01 5.860235421252451005e+00 2.519761103141362639e+02
5.997775634162072489e-01 5.860235421252444787e+00 2.519786489707362591e+02
1.003817967416222645e+00 5.860235421252438570e+00 2.519811876274362703e+02
1.407858371416236487e+00 5.860235421252435906e+00 2.519837262841362815e+02
1.811898775516277871e+00 5.860235421252434129e+00 2.519862649407362767e+02
2.215939179516348556e+00 5.860235421252437682e+00 2.519888035974362595e+02
2.619979583616379948e+00 5.860235421252443011e+00 2.519913422541362706e+02
-1.420424456783806466e+00 6.264275825252446417e+00 2.519652891834362833e+02
-1.016384052783806613e+00 6.264275825252445529e+00 2.519678278400362785e+02
-6.123436487837864428e-01 6.264275825252450858e+00 2.519703664967362613e+02
-2.083032446837883578e-01 6.264275825252449970e+00 2.519729051534362725e+02
1.957371593162271772e-01 6.264275825252451746e+00 2.519754438100362677e+02
5.997775634162483271e-01 6.264275825252445529e+00 2.519779824667362789e+02
1.003817967416251955e+00 6.264275825252438423e+00 2.519805211234362616e+02
1.407858371416215393e+00 6.264275825252441088e+00 2.519830597800362568e+02
1.811898775516190607e+00 6.264275825252446417e+00 2.519855984367362680e+02
2.215939179516301483e+00 6.264275825252449081e+00 2.519881370934362792e+02
2.619979583616345753e+00 6.264275825252445529e+00 2.519906757500362744e+02
-1.420424456783776934e+00 6.668316229352463154e+00 2.519646226793362587e+02
-1.016384052783724901e+00 6.668316229352450719e+00 2.519671613360362699e+02
-6.123436487837347064e-01 6.668316229352450719e+00 2.519696999927362810e+02
-2.083032446837292107e-01 6.668316229352444502e+00 2.519722386493362762e+02
1.957371593163092227e-01 6.668316229352452496e+00 2.519747773060362590e+02
5.997775634162271219e-01 6.668316229352451607e+00 2.519773159627362702e+02
1.003817967416196444e+00 6.668316229352446278e+00 2.519798546193362654e+02
1.407858371416114585e+00 6.668316229352443614e+00 2.519823932760362766e+02
1.811898775516103788e+00 6.668316229352444502e+00 2.519849319327362593e+02
2.215939179516213997e+00 6.668316229352446278e+00 2.519874705893362830e+02
2.619979583616277807e+00 6.668316229352449831e+00 2.519900092460362657e+02
-1.420424456783749623e+00 7.072356633352472777e+00 2.519639561753362784e+02
-1.016384052783711134e+00 7.072356633352468336e+00 2.519664948320362612e+02
-6.123436487836952935e-01 7.072356633352467448e+00 2.519690334887362724e+02
-2.083032446836853846e-01 7.072356633352465671e+00 2.519715721453362676e+02
1.957371593163199641e-01 7.072356633352461230e+00 2.519741108020362788e+02
5.997775634162417768e-01 7.072356633352451460e+00 2.519766494587362615e+02
1.003817967416169576e+00 7.072356633352450572e+00 2.519791881153362567e+02
1.407858371416063736e+00 7.072356633352450572e+00 2.519817267720362679e+02
1.811898775516095572e+00 7.072356633352447908e+00 2.519842654287362791e+02
2.215939179516196678e+00 7.072356633352450572e+00 2.519868040853362743e+02
2.619979583616308005e+00 7.072356633352459454e+00 2.519893427420362571e+02
-1.420424456783764500e+00 7.476397037352464636e+00 2.519632896713362697e+02
-1.016384052783683156e+00 7.476397037352471742e+00 2.519658283280362809e+02
-6.123436487836679820e-01 7.476397037352477071e+00 2.519683669846362761e+02
-2.083032446836632079e-01 7.476397037352477959e+00 2.519709056413362589e+02
1.957371593163084456e-01 7.476397037352477959e+00 2.519734442980362701e+02
5.997775634162546554e-01 7.476397037352468189e+00 2.519759829546362653e+02
1.003817967416157364e+00 7.476397037352474406e+00 2.519785216113362765e+02
1.407858371416116583e+00 7.476397037352470853e+00 2.519810602680362592e+02
1.811898775516154636e+00 7.476397037352472630e+00 2.519835989246362828e+02
2.215939179516184687e+00 7.476397037352471742e+00 2.519861375813362656e+02
2.619979583616269814e+00 7.476397037352466413e+00 2.519886762380362768e+02
-1.824464860883810768e+00 7.880437441452467162e+00 2.519600845106362783e+02
-1.420424456783744960e+00 7.880437441452474268e+00 2.519626231673362611e+02
-1.016384052783738667e+00 7.880437441452487590e+00 2.519651618239362563e+02
-6.123436487836846354e-01 7.880437441452487590e+00 2.519677004806362675e+02
-2.083032446836843576e-01 7.880437441452484038e+00 2.519702391373362786e+02
1.957371593162973156e-01 7.880437441452481373e+00 2.519727777939362738e+02
5.997775634162537672e-01 7.880437441452476932e+00 2.519753164506362566e+02
1.003817967416228418e+00 7.880437441452477820e+00 2.519778551073362678e+02
1.407858371416230936e+00 7.880437441452479597e+00 2.519803937639362630e+02
1.811898775516188609e+00 7.880437441452482261e+00 2.519829324206362742e+02
2.215939179516194013e+00 7.880437441452488478e+00 2.519854710773362569e+02
2.619979583616274255e+00 7.880437441452474268e+00 2.519880097339362806e+02
-1.824464860883851847e+00 8.284477845452487443e+00 2.519594180066362696e+02
-1.420424456783859091e+00 8.284477845452483891e+00 2.519619566632362648e+02
-1.016384052783743108e+00 8.284477845452485667e+00 2.519644953199362760e+02
-6.123436487837335962e-01 8.284477845452487443e+00 2.519670339766362588e+02
-2.083032446836997620e-01 8.284477845452482114e+00 2.519695726332362824e+02
1.957371593162746393e-01 8.284477845452473233e+00 2.519721112899362652e+02
5.997775634162735292e-01 8.284477845452483891e+00 2.519746499466362764e+02
1.003817967416289481e+00 8.284477845452483891e+00 2.519771886033362591e+02
1.407858371416290222e+00 8.284477845452485667e+00 2.519797272599362827e+02
1.811898775516273208e+00 8.284477845452489220e+00 2.519822659166362655e+02
2.215939179516297930e+00 8.284477845452487443e+00 2.519848045733362767e+02
2.619979583616281804e+00 8.284477845452487443e+00 2.519873432299362719e+02
-1.824464860883871609e+00 8.688518249552489081e+00 2.519587515026362610e+02
-1.420424456783896838e+00 8.688518249552480199e+00 2.519612901592362562e+02
-1.016384052783828817e+00 8.688518249552480199e+00 2.519638288159362673e+02
-6.123436487837649045e-01 8.688518249552487305e+00 2.519663674726362785e+02
-2.083032446837500828e-01 8.688518249552496187e+00 2.519689061292362737e+02
1.957371593162629264e-01 8.688518249552492634e+00 2.519714447859362565e+02
5.997775634163170499e-01 8.688518249552489081e+00 2.519739834426362677e+02
1.003817967416358092e+00 8.688518249552490857e+00 2.519765220992362629e+02
1.407858371416305543e+00 8.688518249552487305e+00 2.519790607559362741e+02
1.811898775516314286e+00 8.688518249552489081e+00 2.519815994126362568e+02
2.215939179516320579e+00 8.688518249552483752e+00 2.519841380692362804e+02
2.619979583616347973e+00 8.688518249552471318e+00 2.519866767259362632e+02
3.024019987616313632e+00 8.688518249552480199e+00 2.519892153826362744e+02
-1.824464860883845851e+00 9.092558653552487158e+00 2.519580849985362647e+02
-1.420424456783894618e+00 9.092558653552485382e+00 2.519606236552362759e+02
-1.016384052783829484e+00 9.092558653552487158e+00 2.519631623119362587e+02
-6.123436487837580211e-01 9.092558653552487158e+00 2.519657009685362823e+02
-2.083032446837460583e-01 9.092558653552474723e+00 2.519682396252362651e+02
1.957371593163134138e-01 9.092558653552478276e+00 2.519707782819362762e+02
5.997775634163488023e-01 9.092558653552474723e+00 2.519733169385362714e+02
1.003817967416343437e+00 9.092558653552480052e+00 2.519758555952362826e+02
1.407858371416331522e+00 9.092558653552471171e+00 2.519783942519362654e+02
1.811898775516327609e+00 9.092558653552462289e+00 2.519809329085362606e+02
2.215939179516321911e+00 9.092558653552469394e+00 2.519834715652362718e+02
2.619979583616333763e+00 9.092558653552483605e+00 2.519860102219362830e+02
3.024019987616355376e+00 9.092558653552492487e+00 2.519885488785362782e+02
3.428060391616369884e+00 9.092558653552494263e+00 2.519910875352362609e+02
-1.824464860883836304e+00 9.496599057552487011e+00 2.519574184945362560e+02
-1.420424456783811351e+00 9.496599057552476353e+00 2.519599571512362672e+02
-1.016384052783764647e+00 9.496599057552485235e+00 2.519624958078362624e+02
-6.123436487837837783e-01 9.496599057552490564e+00 2.519650344645362736e+02
-2.083032446837310425e-01 9.496599057552481682e+00 2.519675731212362564e+02
1.957371593162636481e-01 9.496599057552487011e+00 2.519701117778362800e+02
5.997775634162937353e-01 9.496599057552487011e+00 2.519726504345362628e+02
1.003817967416311907e+00 9.496599057552483458e+00 2.519751890912362740e+02
1.407858371416299770e+00 9.496599057552485235e+00 2.519777277479362567e+02
1.811898775516287197e+00 9.496599057552476353e+00 2.519802664045362803e+02
2.215939179516344115e+00 9.496599057552481682e+00 2.519828050612362631e+02
2.619979583616421692e+00 9.496599057552476353e+00 2.519853437179362743e+02
3.024019987616421101e+00 9.496599057552478129e+00 2.519878823745362695e+02
3.428060391616488456e+00 9.496599057552492340e+00 2.519904210312362807e+02
-1.824464860883758810e+00 9.900639461652486872e+00 2.519567519905362758e+02
-1.420424456783803580e+00 9.900639461652493978e+00 2.519592906472362586e+02
-1.016384052783782632e+00 9.900639461652488649e+00 2.519618293038362822e+02
-6.123436487837540243e-01 9.900639461652486872e+00 2.519643679605362649e+02
-2.083032446837986551e-01 9.900639461652492201e+00 2.519669066172362761e+02
1.957371593162375578e-01 9.900639461652492201e+00 2.519694452738362713e+02
5.997775634162528791e-01 9.900639461652485096e+00 2.519719839305362825e+02
1.003817967416276824e+00 9.900639461652483320e+00 2.519745225872362653e+02
1.407858371416274235e+00 9.900639461652488649e+00 2.519770612438362605e+02
1.811898775516289195e+00 9.900639461652483320e+00 2.519795999005362717e+02
2.215939179516339230e+00 9.900639461652483320e+00 2.519821385572362828e+02
2.619979583616405261e+00 9.900639461652483320e+00 2.519846772138362780e+02
3.024019987616466398e+00 9.900639461652485096e+00 2.519872158705362608e+02
3.428060391616489344e+00 9.900639461652481543e+00 2.519897545272362720e+02
-1.824464860883755035e+00 1.030467986565249561e+01 2.519560854865362671e+02
-1.420424456783783373e+00 1.030467986565249561e+01 2.519586241431362623e+02
-1.016384052783793956e+00 1.030467986565249383e+01 2.519611627998362735e+02
-6.123436487837495834e-01 1.030467986565249205e+01 2.519637014565362563e+02
-2.083032446837319029e-01 1.030467986565249028e+01 2.519662401131362799e+02
1.957371593162591239e-01 1.030467986565248140e+01 2.519687787698362627e+02
5.997775634162643144e-01 1.030467986565247962e+01 2.519713174265362738e+02
1.003817967416276380e+00 1.030467986565248495e+01 2.519738560831362690e+02
1.407858371416250698e+00 1.030467986565246896e+01 2.519763947398362802e+02
1.811898775516291638e+00 1.030467986565247074e+01 2.519789333965362630e+02
2.215939179516339674e+00 1.030467986565247962e+01 2.519814720531362582e+02
2.619979583616401264e+00 1.030467986565248495e+01 2.519840107098362694e+02
3.024019987616450855e+00 1.030467986565248495e+01 2.519865493665362806e+02
-1.420424456783782929e+00 1.070872026975249192e+01 2.519579576391362821e+02
-1.016384052783738223e+00 1.070872026975248481e+01 2.519604962958362648e+02
-6.123436487837333742e-01 1.070872026975248481e+01 2.519630349524362600e+02
-2.083032446837261853e-01 1.070872026975249192e+01 2.519655736091362712e+02
1.957371593162585410e-01 1.070872026975248836e+01 2.519681122658362824e+02
5.997775634162579861e-01 1.070872026975249369e+01 2.519706509224362776e+02
1.003817967416301027e+00 1.070872026975249192e+01 2.519731895791362604e+02
1.407858371416289334e+00 1.070872026975249192e+01 2.519757282358362716e+02
1.811898775516228133e+00 1.070872026975248836e+01 2.519782668924362667e+02
2.215939179516328128e+00 1.070872026975248659e+01 2.519808055491362779e+02
2.619979583616377727e+00 1.070872026975248481e+01 2.519833442058362607e+02
3.024019987616466398e+00 1.070872026975248659e+01 2.519858828625362719e+02
-1.824464860883767248e+00 1.111276067375249177e+01 2.519547524784362622e+02
-1.420424456783760947e+00 1.111276067375247933e+01 2.519572911351362734e+02
-1.016384052783734226e+00 1.111276067375249177e+01 2.519598297918362562e+02
-6.123436487837441433e-01 1.111276067375249532e+01 2.519623684484362798e+02
-2.083032446837215224e-01 1.111276067375249355e+01 2.519649071051362625e+02
1.957371593162740009e-01 1.111276067375248999e+01 2.519674457618362737e+02
5.997775634162459957e-01 1.111276067375250420e+01 2.519699844184362689e+02
1.003817967416289481e+00 1.111276067375250065e+01 2.519725230751362801e+02
1.407858371416264021e+00 1.111276067375249177e+01 2.519750617318362629e+02
1.811898775516249449e+00 1.111276067375249177e+01 2.519776003884362581e+02
2.215939179516333457e+00 1.111276067375248999e+01 2.519801390451362693e+02
2.619979583616387497e+00 1.111276067375248466e+01 2.519826777018362804e+02
3.024019987616412664e+00 1.111276067375248466e+01 2.519852163584362756e+02
-1.824464860883797668e+00 1.151680107785249163e+01 2.519540859744362820e+02
-1.420424456783783373e+00 1.151680107785249518e+01 2.519566246311362647e+02
-1.016384052783738667e+00 1.151680107785248985e+01 2.519591632877362599e+02
-6.123436487837360387e-01 1.151680107785249163e+01 2.519617019444362711e+02
-2.083032446837368989e-01 1.151680107785248985e+01 2.519642406011362823e+02
