-1.035233180834908007e+00 -1.231663407258993459e+01 2.549984237279450383e+02
9.849688393654547625e-01 -1.231663407258996124e+01 2.550111170112450623e+02
1.389009243365509905e+00 -1.231663407258996656e+01 2.550136556679450450e+02
-1.035233180834865596e+00 -1.191259366858992763e+01 2.549977572239450581e+02
-6.311927768348963852e-01 -1.191259366858993118e+01 2.550002958805450533e+02
-2.271523727347408428e-01 -1.191259366858996316e+01 2.550028345372450644e+02
1.768880312652207076e-01 -1.191259366858996671e+01 2.550053731939450472e+02
5.809284353654340372e-01 -1.191259366858995072e+01 2.550079118505450424e+02
9.849688393653716068e-01 -1.191259366858995250e+01 2.550104505072450536e+02
1.389009243365454838e+00 -1.191259366858996316e+01 2.550129891639450648e+02
1.793049647465394525e+00 -1.191259366858994539e+01 2.550155278205450600e+02
2.197090051465496074e+00 -1.191259366858994362e+01 2.550180664772450427e+02
-1.035233180834824518e+00 -1.150855326458990824e+01 2.549970907199450494e+02
-6.311927768348792878e-01 -1.150855326458990824e+01 2.549996293765450446e+02
-2.271523727348789268e-01 -1.150855326458991001e+01 2.550021680332450558e+02
1.768880312653104414e-01 -1.150855326458992600e+01 2.550047066899450385e+02
5.809284353654331490e-01 -1.150855326458994199e+01 2.550072453465450621e+02
9.849688393653697194e-01 -1.150855326458993488e+01 2.550097840032450449e+02
1.389009243365349811e+00 -1.150855326458992955e+01 2.550123226599450561e+02
1.793049647465391194e+00 -1.150855326458991357e+01 2.550148613165450513e+02
-1.035233180834707278e+00 -1.110451286048994390e+01 2.549964242158450531e+02
-6.311927768347472822e-01 -1.110451286048990127e+01 2.549989628725450643e+02
-2.271523727347443400e-01 -1.110451286048992969e+01 2.550015015292450471e+02
1.768880312653494102e-01 -1.110451286048992614e+01 2.550040401858450423e+02
5.809284353653372257e-01 -1.110451286048992259e+01 2.550065788425450535e+02
9.849688393653309726e-01 -1.110451286048993502e+01 2.550091174992450647e+02
1.389009243365403989e+00 -1.110451286048992259e+01 2.550116561558450599e+02
1.793049647465326579e+00 -1.110451286048989417e+01 2.550141948125450426e+02
-1.035233180834663091e+00 -1.070047245648999557e+01 2.549957577118450445e+02
-6.311927768347411760e-01 -1.070047245648996004e+01 2.549982963685450557e+02
-2.271523727347470045e-01 -1.070047245648990319e+01 2.550008350251450508e+02
1.768880312653477449e-01 -1.070047245648991030e+01 2.550033736818450620e+02
5.809284353653009214e-01 -1.070047245648994760e+01 2.550059123385450448e+02
9.849688393653699414e-01 -1.070047245648993517e+01 2.550084509951450400e+02
1.389009243365310731e+00 -1.070047245648992984e+01 2.550109896518450512e+02
1.793049647465292384e+00 -1.070047245648993872e+01 2.550135283085450624e+02
-6.311927768346432543e-01 -1.029643205238999748e+01 2.549976298644450594e+02
-2.271523727347603272e-01 -1.029643205238996373e+01 2.550001685211450422e+02
1.768880312652560682e-01 -1.029643205238993353e+01 2.550027071778450534e+02
5.809284353653091371e-01 -1.029643205238995485e+01 2.550052458345450646e+02
9.849688393653724949e-01 -1.029643205238996195e+01 2.550077844911450597e+02
1.389009243365373347e+00 -1.029643205238997261e+01 2.550103231478450425e+02
1.793049647465254859e+00 -1.029643205238999748e+01 2.550128618045450537e+02
2.197090051465279359e+00 -1.029643205238999926e+01 2.550154004611450489e+02
-6.311927768346240475e-01 -9.892391648389997627e+00 2.549969633604450507e+02
-2.271523727347772581e-01 -9.892391648389988745e+00 2.549995020171450619e+02
1.768880312652425513e-01 -9.892391648389992298e+00 2.550020406738450447e+02
5.809284353653301203e-01 -9.892391648389970982e+00 2.550045793304450399e+02
9.849688393652451524e-01 -9.892391648390017167e+00 2.550071179871450511e+02
1.389009243365399104e+00 -9.892391648390031378e+00 2.550096566438450623e+02
1.793049647465294605e+00 -9.892391648390004733e+00 2.550121953004450575e+02
2.197090051465323768e+00 -9.892391648390024272e+00 2.550147339571450402e+02
-1.035233180834776334e+00 -9.488351244289997766e+00 2.549937581997450593e+02
-6.311927768345705347e-01 -9.488351244289981778e+00 2.549962968564450421e+02
-2.271523727347165289e-01 -9.488351244289969344e+00 2.549988355131450533e+02
1.768880312653400844e-01 -9.488351244289951580e+00 2.550013741697450484e+02
5.809284353654422528e-01 -9.488351244289958686e+00 2.550039128264450596e+02
9.849688393653740492e-01 -9.488351244289978226e+00 2.550064514831450424e+02
1.389009243365352919e+00 -9.488351244290004871e+00 2.550089901397450660e+02
1.793049647465387419e+00 -9.488351244289992437e+00 2.550115287964450488e+02
2.197090051465489857e+00 -9.488351244289965791e+00 2.550140674531450600e+02
-1.035233180834877142e+00 -9.084310840290005018e+00 2.549930916957450506e+02
-6.311927768347290746e-01 -9.084310840289964162e+00 2.549956303524450618e+02
-2.271523727346291266e-01 -9.084310840289905542e+00 2.549981690090450570e+02
1.768880312653463571e-01 -9.084310840289898437e+00 2.550007076657450398e+02
5.809284353653392241e-01 -9.084310840289944622e+00 2.550032463224450510e+02
9.849688393654719709e-01 -9.084310840289941069e+00 2.550057849791450622e+02
1.389009243365487034e+00 -9.084310840289974820e+00 2.550083236357450573e+02
1.793049647465549068e+00 -9.084310840289967715e+00 2.550108622924450401e+02
2.197090051465588001e+00 -9.084310840290008571e+00 2.550134009491450513e+02
-1.035233180834836286e+00 -8.680270436290024705e+00 2.549924251917450420e+02
-6.311927768350148460e-01 -8.680270436289999836e+00 2.549949638484450531e+02
-2.271523727349605559e-01 -8.680270436289992730e+00 2.549975025050450483e+02
1.768880312653151599e-01 -8.680270436290015823e+00 2.550000411617450595e+02
5.809284353655244093e-01 -8.680270436290033587e+00 2.550025798184450423e+02
9.849688393657390906e-01 -8.680270436290031810e+00 2.550051184750450659e+02
1.389009243365875390e+00 -8.680270436290065561e+00 2.550076571317450487e+02
1.793049647465801755e+00 -8.680270436290031810e+00 2.550101957884450599e+02
-1.035233180835002376e+00 -8.276230032190005304e+00 2.549917586877450617e+02
-6.311927768349382406e-01 -8.276230032190021291e+00 2.549942973443450569e+02
-2.271523727347948274e-01 -8.276230032190007080e+00 2.549968360010450397e+02
1.768880312654336207e-01 -8.276230032190023067e+00 2.549993746577450509e+02
5.809284353657507838e-01 -8.276230032190030173e+00 2.550019133143450460e+02
9.849688393658334595e-01 -8.276230032190035502e+00 2.550044519710450572e+02
1.389009243365829649e+00 -8.276230032190039054e+00 2.550069906277450400e+02
1.793049647465952523e+00 -8.276230032190015962e+00 2.550095292843450636e+02
-1.035233180834775002e+00 -7.872189628190085386e+00 2.549910921836450655e+02
-6.311927768346876633e-01 -7.872189628190062294e+00 2.549936308403450482e+02
-2.271523727346345667e-01 -7.872189628190042754e+00 2.549961694970450594e+02
1.768880312654097509e-01 -7.872189628190020549e+00 2.549987081536450546e+02
5.809284353654577959e-01 -7.872189628189993904e+00 2.550012468103450658e+02
9.849688393656436114e-01 -7.872189628190014332e+00 2.550037854670450486e+02
1.389009243365778801e+00 -7.872189628190039201e+00 2.550063241236450438e+02
1.793049647465671637e+00 -7.872189628190056965e+00 2.550088627803450549e+02
-1.035233180834495226e+00 -7.468149224090030458e+00 2.549904256796450568e+02
-6.311927768349072654e-01 -7.468149224090016247e+00 2.549929643363450396e+02
-2.271523727348551125e-01 -7.468149224090028682e+00 2.549955029930450507e+02
1.768880312652214570e-01 -7.468149224090016247e+00 2.549980416496450459e+02
5.809284353652823807e-01 -7.468149224090000260e+00 2.550005803063450571e+02
9.849688393653527330e-01 -7.468149224089999372e+00 2.550031189630450399e+02
1.389009243365583846e+00 -7.468149224090043781e+00 2.550056576196450635e+02
1.793049647465746466e+00 -7.468149224090026017e+00 2.550081962763450463e+02
-1.035233180834613353e+00 -7.064108820089985308e+00 2.549897591756450481e+02
-6.311927768347478374e-01 -7.064108820089970209e+00 2.549922978323450593e+02
-2.271523727348417621e-01 -7.064108820089969321e+00 2.549948364889450545e+02
1.768880312651014697e-01 -7.064108820089954222e+00 2.549973751456450657e+02
5.809284353651660293e-01 -7.064108820089971985e+00 2.549999138023450485e+02
9.849688393652542562e-01 -7.064108820089955110e+00 2.550024524589450436e+02
1.389009243365656454e+00 -7.064108820089952445e+00 2.550049911156450548e+02
1.793049647465955854e+00 -7.064108820089972873e+00 2.550075297723450660e+02
2.197090051465804272e+00 -7.064108820089980867e+00 2.550100684289450612e+02
-6.311927768346897727e-01 -6.660068416089965915e+00 2.549916313282450631e+02
-2.271523727348452870e-01 -6.660068416089935717e+00 2.549941699849450458e+02
1.768880312651746056e-01 -6.660068416089940158e+00 2.549967086416450570e+02
5.809284353654085020e-01 -6.660068416089934829e+00 2.549992472982450522e+02
9.849688393654603136e-01 -6.660068416089942822e+00 2.550017859549450634e+02
1.389009243365697310e+00 -6.660068416089970356e+00 2.550043246116450462e+02
1.793049647465830398e+00 -6.660068416089972132e+00 2.550068632682450414e+02
2.197090051465516947e+00 -6.660068416089958809e+00 2.550094019249450525e+02
-6.311927768345950707e-01 -6.256028011989974047e+00 2.549909648242450544e+02
-2.271523727347148358e-01 -6.256028011989911874e+00 2.549935034809450656e+02
1.768880312653830778e-01 -6.256028011989875459e+00 2.549960421376450483e+02
5.809284353654644573e-01 -6.256028011989868354e+00 2.549985807942450435e+02
9.849688393653980301e-01 -6.256028011989872795e+00 2.550011194509450547e+02
1.389009243365547208e+00 -6.256028011989918092e+00 2.550036581076450659e+02
1.793049647465625229e+00 -6.256028011989952731e+00 2.550061967642450611e+02
-1.035233180834519207e+00 -5.851987607989988405e+00 2.549877596635450629e+02
-6.311927768346160539e-01 -5.851987607989957318e+00 2.549902983202450457e+02
-2.271523727345680366e-01 -5.851987607989931561e+00 2.549928369769450569e+02
1.768880312656155307e-01 -5.851987607989930673e+00 2.549953756335450521e+02
5.809284353656968269e-01 -5.851987607989922680e+00 2.549979142902450633e+02
9.849688393656179652e-01 -5.851987607989877382e+00 2.550004529469450461e+02
1.389009243365527002e+00 -5.851987607989908469e+00 2.550029916035450412e+02
1.793049647465489782e+00 -5.851987607989924456e+00 2.550055302602450524e+02
-1.035233180834609135e+00 -5.447947203890027623e+00 2.549870931595450543e+02
-6.311927768344975931e-01 -5.447947203890008971e+00 2.549896318162450655e+02
-2.271523727341887566e-01 -5.447947203890007195e+00 2.549921704728450607e+02
1.768880312657157006e-01 -5.447947203889991208e+00 2.549947091295450434e+02
5.809284353655713717e-01 -5.447947203889995649e+00 2.549972477862450546e+02
9.849688393656105267e-01 -5.447947203889996537e+00 2.549997864428450498e+02
1.389009243365439072e+00 -5.447947203890000978e+00 2.550023250995450610e+02
1.793049647465416063e+00 -5.447947203890008083e+00 2.550048637562450438e+02
2.197090051465328209e+00 -5.447947203890024070e+00 2.550074024128450390e+02
-1.035233180834609801e+00 -5.043906799890019776e+00 2.549864266555450456e+02
-6.311927768344764988e-01 -5.043906799890024217e+00 2.549889653121450408e+02
-2.271523727343737475e-01 -5.043906799889994019e+00 2.549915039688450520e+02
1.768880312656027631e-01 -5.043906799889995796e+00 2.549940426255450632e+02
5.809284353655070898e-01 -5.043906799889978032e+00 2.549965812822450459e+02
9.849688393654995044e-01 -5.043906799889978032e+00 2.549991199388450411e+02
1.389009243365552315e+00 -5.043906799889999348e+00 2.550016585955450523e+02
1.793049647465595031e+00 -5.043906799890035764e+00 2.550041972522450635e+02
2.197090051465433014e+00 -5.043906799890057968e+00 2.550067359088450587e+02
-1.035233180834747024e+00 -4.639866395889979067e+00 2.549857601515450654e+02
-6.311927768347760370e-01 -4.639866395890002160e+00 2.549882988081450605e+02
-2.271523727346561883e-01 -4.639866395889947981e+00 2.549908374648450433e+02
1.768880312654342590e-01 -4.639866395889954198e+00 2.549933761215450545e+02
5.809284353654685651e-01 -4.639866395889982620e+00 2.549959147781450497e+02
9.849688393657464180e-01 -4.639866395889985284e+00 2.549984534348450609e+02
1.389009243365862512e+00 -4.639866395890013706e+00 2.550009920915450436e+02
1.793049647465733143e+00 -4.639866395890047457e+00 2.550035307481450388e+02
-6.311927768348616352e-01 -4.235825991789966771e+00 2.549876323041450519e+02
-2.271523727350388822e-01 -4.235825991790028944e+00 2.549901709608450631e+02
1.768880312653107467e-01 -4.235825991790044931e+00 2.549927096174450583e+02
5.809284353655799205e-01 -4.235825991790080458e+00 2.549952482741450410e+02
9.849688393658396768e-01 -4.235825991790094669e+00 2.549977869308450522e+02
1.389009243365778801e+00 -4.235825991790072464e+00 2.550003255874450474e+02
1.793049647465679852e+00 -4.235825991790096445e+00 2.550028642441450586e+02
-6.311927768350034107e-01 -3.831785587789953151e+00 2.549869658001450432e+02
-2.271523727351535404e-01 -3.831785587789941161e+00 2.549895044567450100e+02
1.768880312648666020e-01 -3.831785587789947822e+00 2.549920431134450496e+02
5.809284353651961164e-01 -3.831785587789959813e+00 2.549945817701450608e+02
9.849688393654753016e-01 -3.831785587789973135e+00 2.549971204267450560e+02
1.389009243365437074e+00 -3.831785587789980685e+00 2.549996590834450387e+02
1.793049647465465357e+00 -3.831785587789983794e+00 2.550021977401450499e+02
-6.311927768352982859e-01 -3.427745183689975050e+00 2.549862992961450345e+02
-2.271523727354672895e-01 -3.427745183689968389e+00 2.549888379527450297e+02
1.768880312646421149e-01 -3.427745183689971498e+00 2.549913766094450125e+02
5.809284353648141996e-01 -3.427745183689974162e+00 2.549939152661450237e+02
9.849688393650332108e-01 -3.427745183689970165e+00 2.549964539227450473e+02
1.389009243365013635e+00 -3.427745183689971054e+00 2.549989925794450585e+02
1.793049647465108087e+00 -3.427745183689975939e+00 2.550015312361450412e+02
-1.035233180834932876e+00 -3.023704779690032041e+00 2.549830941354450431e+02
-6.311927768351509593e-01 -3.023704779690001843e+00 2.549856327920450099e+02
-2.271523727351118516e-01 -3.023704779690002731e+00 2.549881714487450495e+02
1.768880312650479292e-01 -3.023704779690000954e+00 2.549907101054450607e+02
5.809284353651062993e-01 -3.023704779690000510e+00 2.549932487620450559e+02
9.849688393651420126e-01 -3.023704779690000510e+00 2.549957874187450386e+02
1.389009243364902835e+00 -3.023704779689996958e+00 2.549983260754450498e+02
1.793049647465061458e+00 -3.023704779690016498e+00 2.550008647320450450e+02
-1.035233180835035016e+00 -2.619664375690026414e+00 2.549824276313450468e+02
-6.311927768348889467e-01 -2.619664375690039737e+00 2.549849662880450580e+02
-2.271523727348881971e-01 -2.619664375690046842e+00 2.549875049447450408e+02
1.768880312650467634e-01 -2.619664375690064162e+00 2.549900436013450644e+02
5.809284353649877275e-01 -2.619664375690065050e+00 2.549925822580450472e+02
9.849688393648041718e-01 -2.619664375690065494e+00 2.549951209147450299e+02
1.389009243364889068e+00 -2.619664375690053060e+00 2.549976595713450536e+02
1.793049647464850072e+00 -2.619664375690051283e+00 2.550001982280450648e+02
-1.035233180834593147e+00 -2.215623971590026109e+00 2.549817611273450382e+02
-6.311927768346432543e-01 -2.215623971590033214e+00 2.549842997840450494e+02
-2.271523727349301913e-01 -2.215623971590057639e+00 2.549868384407450606e+02
1.768880312651295861e-01 -2.215623971590070962e+00 2.549893770973450557e+02
5.809284353648005439e-01 -2.215623971590064301e+00 2.549919157540450101e+02
9.849688393646548468e-01 -2.215623971590053642e+00 2.549944544107450213e+02
1.389009243364734969e+00 -2.215623971590035879e+00 2.549969930673450165e+02
1.793049647464737717e+00 -2.215623971590022112e+00 2.549995317240450277e+02
-1.035233180834890021e+00 -1.811583567590028476e+00 2.549810946233450579e+02
-6.311927768349330226e-01 -1.811583567590030031e+00 2.549836332800450407e+02
-2.271523727348304933e-01 -1.811583567590040245e+00 2.549861719366450643e+02
1.768880312648491715e-01 -1.811583567590041799e+00 2.549887105933450471e+02
5.809284353647912180e-01 -1.811583567590046906e+00 2.549912492500450298e+02
9.849688393647367812e-01 -1.811583567590053123e+00 2.549937879066450250e+02
1.389009243364904611e+00 -1.811583567590046684e+00 2.549963265633450646e+02
1.793049647464776797e+00 -1.811583567590022259e+00 2.549988652200450190e+02
-6.311927768348871703e-01 -1.407543163489941351e+00 2.549829667759450444e+02
-2.271523727349822608e-01 -1.407543163489929805e+00 2.549855054326450556e+02
1.768880312651305020e-01 -1.407543163489923366e+00 2.549880440893450384e+02
5.809284353648481725e-01 -1.407543163489917371e+00 2.549905827459450620e+02
9.849688393647350049e-01 -1.407543163489918259e+00 2.549931214026450164e+02
1.389009243364344393e+00 -1.407543163489925808e+00 2.549956600593450275e+02
1.793049647464285856e+00 -1.407543163489922255e+00 2.549981987159450227e+02
2.197090051464519966e+00 -1.407543163489925808e+00 2.550007373726450339e+02
-6.311927768347543877e-01 -1.003502759489938390e+00 2.549823002719450642e+02
-2.271523727347553867e-01 -1.003502759489928842e+00 2.549848389286450470e+02
1.768880312651820441e-01 -1.003502759489930174e+00 2.549873775853450582e+02
5.809284353650876476e-01 -1.003502759489925733e+00 2.549899162419450533e+02
9.849688393648602380e-01 -1.003502759489920626e+00 2.549924548986450645e+02
1.389009243364437429e+00 -1.003502759489914409e+00 2.549949935553450189e+02
1.793049647463994756e+00 -1.003502759489905971e+00 2.549975322119450141e+02
2.197090051463939542e+00 -1.003502759489911078e+00 2.550000708686450253e+02
-6.311927768348370993e-01 -5.994623554899314311e-01 2.549816337679450555e+02
-2.271523727347735666e-01 -5.994623554899412010e-01 2.549841724246450383e+02
1.768880312651637254e-01 -5.994623554899402018e-01 2.549867110812450619e+02
5.809284353651638089e-01 -5.994623554899409790e-01 2.549892497379450447e+02
9.849688393648302620e-01 -5.994623554899323192e-01 2.549917883946450274e+02
1.389009243364563773e+00 -5.994623554899253248e-01 2.549943270512450226e+02
1.793049647464375118e+00 -5.994623554899181084e-01 2.549968657079450338e+02
-1.035233180835396283e+00 -1.954219513899358995e-01 2.549784286072450357e+02
-6.311927768350437118e-01 -1.954219513899399796e-01 2.549809672639450469e+02
-2.271523727348359056e-01 -1.954219513899441429e-01 2.549835059205450420e+02
1.768880312651641140e-01 -1.954219513899433380e-01 2.549860445772450532e+02
5.809284353651711363e-01 -1.954219513899403682e-01 2.549885832339450644e+02
9.849688393649166374e-01 -1.954219513899333183e-01 2.549911218905450596e+02
1.389009243364556223e+00 -1.954219513899258798e-01 2.549936605472450140e+02
1.793049647464627139e+00 -1.954219513899310978e-01 2.549961992039450251e+02
-1.035233180835175792e+00 2.086184526100504921e-01 2.549777621032450270e+02
-6.311927768352074697e-01 2.086184526100553771e-01 2.549803007598450222e+02
-2.271523727351177080e-01 2.086184526100539616e-01 2.549828394165450618e+02
1.768880312650157882e-01 2.086184526100492709e-01 2.549853780732450446e+02
5.809284353651021915e-01 2.086184526100474668e-01 2.549879167298450398e+02
9.849688393650437579e-01 2.086184526100479386e-01 2.549904553865450509e+02
1.389009243365055601e+00 2.086184526100487435e-01 2.549929940432450621e+02
1.793049647465258856e+00 2.086184526100483549e-01 2.549955326999450449e+02
2.197090051465445892e+00 2.086184526100477166e-01 2.549980713565450401e+02
-1.035233180835156919e+00 6.126588567100558214e-01 2.549770955992450467e+02
-6.311927768353100543e-01 6.126588567100647031e-01 2.549796342558450135e+02
-2.271523727355923561e-01 6.126588567100706983e-01 2.549821729125450247e+02
1.768880312647682362e-01 6.126588567100617055e-01 2.549847115692450359e+02
5.809284353649881716e-01 6.126588567100528238e-01 2.549872502258450595e+02
9.849688393650435358e-01 6.126588567100511584e-01 2.549897888825450423e+02
1.389009243365251445e+00 6.126588567100446081e-01 2.549923275392450535e+02
1.793049647464927121e+00 6.126588567100464955e-01 2.549948661958450487e+02
2.197090051465161231e+00 6.126588567100430538e-01 2.549974048525450598e+02
-6.311927768355893864e-01 1.016699260710082875e+00 2.549789677518450333e+02
-2.271523727356202782e-01 1.016699260710078212e+00 2.549815064085450160e+02
1.768880312646975150e-01 1.016699260710066222e+00 2.549840450651450112e+02
5.809284353647916621e-01 1.016699260710064223e+00 2.549865837218450224e+02
9.849688393651324647e-01 1.016699260710059338e+00 2.549891223785450620e+02
1.389009243365281199e+00 1.016699260710060448e+00 2.549916610351450572e+02
1.793049647465285723e+00 1.016699260710058228e+00 2.549941996918450400e+02
-6.311927768349390178e-01 1.420739664710069183e+00 2.549783012478450530e+02
-2.271523727350711341e-01 1.420739664710061856e+00 2.549808399044450198e+02
1.768880312650817910e-01 1.420739664710056305e+00 2.549833785611450594e+02
5.809284353650386867e-01 1.420739664710056305e+00 2.549859172178450422e+02
9.849688393650077867e-01 1.420739664710052530e+00 2.549884558744450658e+02
1.389009243364920820e+00 1.420739664710066075e+00 2.549909945311450201e+02
1.793049647464814988e+00 1.420739664710068739e+00 2.549935331878450597e+02
-6.311927768350656942e-01 1.824780068810083922e+00 2.549776347438450443e+02
-2.271523727350406308e-01 1.824780068810070599e+00 2.549801734004450395e+02
1.768880312648842268e-01 1.824780068810077926e+00 2.549827120571450223e+02
5.809284353651565924e-01 1.824780068810087474e+00 2.549852507138450619e+02
9.849688393650781748e-01 1.824780068810093470e+00 2.549877893704450571e+02
1.389009243365056712e+00 1.824780068810111233e+00 2.549903280271450399e+02
1.793049647465172036e+00 1.824780068810094802e+00 2.549928666838450511e+02
-6.311927768343855716e-01 2.228820472810087772e+00 2.549769682397450481e+02
-2.271523727342749654e-01 2.228820472810074449e+00 2.549795068964450593e+02
1.768880312653371145e-01 2.228820472810085107e+00 2.549820455531450420e+02
5.809284353650423505e-01 2.228820472810095321e+00 2.549845842097450657e+02
9.849688393647776374e-01 2.228820472810087328e+00 2.549871228664450200e+02
1.389009243364610846e+00 2.228820472810110864e+00 2.549896615231450312e+02
1.793049647464798779e+00 2.228820472810109976e+00 2.549922001797450264e+02
-1.035233180834551181e+00 2.632860876910144032e+00 2.549737630790450567e+02
-6.311927768347269652e-01 2.632860876910140924e+00 2.549763017357450394e+02
-2.271523727348021549e-01 2.632860876910148473e+00 2.549788403924450506e+02
1.768880312650314146e-01 2.632860876910127601e+00 2.549813790490450458e+02
5.809284353649804000e-01 2.632860876910131154e+00 2.549839177057450570e+02
9.849688393651339080e-01 2.632860876910120940e+00 2.549864563624450398e+02
1.389009243364839330e+00 2.632860876910135151e+00 2.549889950190450350e+02
1.793049647465073448e+00 2.632860876910139591e+00 2.549915336757450461e+02
-1.035233180834339572e+00 3.036901280910100809e+00 2.549730965750450480e+02
-6.311927768342371348e-01 3.036901280910092371e+00 2.549756352317450592e+02
-2.271523727344992860e-01 3.036901280910089707e+00 2.549781738884450419e+02
1.768880312650161213e-01 3.036901280910087486e+00 2.549807125450450656e+02
5.809284353646722021e-01 3.036901280910082601e+00 2.549832512017450199e+02
9.849688393649109752e-01 3.036901280910082157e+00 2.549857898584450595e+02
1.389009243364790924e+00 3.036901280910072387e+00 2.549883285150450263e+02
1.793049647464965313e+00 3.036901280910087486e+00 2.549908671717450659e+02
2.197090051465164340e+00 3.036901280910089262e+00 2.549934058284450487e+02
-1.035233180835500866e+00 3.440941684910061138e+00 2.549724300710450109e+02
-6.311927768353682300e-01 3.440941684910062914e+00 2.549749687277450221e+02
-2.271523727350972521e-01 3.440941684910054477e+00 2.549775073843450173e+02
1.768880312652084952e-01 3.440941684910044707e+00 2.549800460410450569e+02
5.809284353652975907e-01 3.440941684910050480e+00 2.549825846977450396e+02
9.849688393653323049e-01 3.440941684910051368e+00 2.549851233543450633e+02
1.389009243365220581e+00 3.440941684910073128e+00 2.549876620110450460e+02
1.793049647464973972e+00 3.440941684910077569e+00 2.549902006677450572e+02
2.197090051464833049e+00 3.440941684910074461e+00 2.549927393243450240e+02
-1.035233180835132938e+00 3.844982089009937987e+00 2.549717635670450591e+02
-6.311927768349313572e-01 3.844982089009920667e+00 2.549743022236450543e+02
-2.271523727351005828e-01 3.844982089009895354e+00 2.549768408803450654e+02
1.768880312649575015e-01 3.844982089009898907e+00 2.549793795370450482e+02
5.809284353650780997e-01 3.844982089009902904e+00 2.549819181936450434e+02
9.849688393650951612e-01 3.844982089009887360e+00 2.549844568503450546e+02
1.389009243364816681e+00 3.844982089009892690e+00 2.549869955070450374e+02
1.793049647464817431e+00 3.844982089009852722e+00 2.549895341636450610e+02
2.197090051465124816e+00 3.844982089009858495e+00 2.549920728203450437e+02
-6.311927768352584289e-01 4.249022493009833035e+00 2.549736357196450172e+02
-2.271523727349792632e-01 4.249022493009859680e+00 2.549761743763450568e+02
1.768880312654186326e-01 4.249022493009866785e+00 2.549787130329450520e+02
5.809284353654640132e-01 4.249022493009878332e+00 2.549812516896450632e+02
9.849688393655769980e-01 4.249022493009884549e+00 2.549837903463450459e+02
1.389009243365252777e+00 4.249022493009874779e+00 2.549863290030450571e+02
1.793049647464882268e+00 4.249022493009831258e+00 2.549888676596450523e+02
-6.311927768352588730e-01 4.653062897109954577e+00 2.549729692156450369e+02
-2.271523727355500843e-01 4.653062897109970564e+00 2.549755078723450197e+02
1.768880312644666442e-01 4.653062897109924378e+00 2.549780465289450149e+02
5.809284353646680943e-01 4.653062897109898621e+00 2.549805851856450261e+02
9.849688393649511653e-01 4.653062897109920826e+00 2.549831238423450657e+02
1.389009243365073365e+00 4.653062897109875529e+00 2.549856624989450609e+02
1.793049647465515761e+00 4.653062897109870200e+00 2.549882011556450436e+02
-6.311927768354004264e-01 5.057103301109923343e+00 2.549723027116450282e+02
-2.271523727352702249e-01 5.057103301109872717e+00 2.549748413682450234e+02
1.768880312649764031e-01 5.057103301109870941e+00 2.549773800249450630e+02
5.809284353649607491e-01 5.057103301109865612e+00 2.549799186816450458e+02
9.849688393652069607e-01 5.057103301109869165e+00 2.549824573382450410e+02
1.389009243364996982e+00 5.057103301109858506e+00 2.549849959949450522e+02
1.793049647465114749e+00 5.057103301109850513e+00 2.549875346516450634e+02
-1.035233180835591238e+00 5.461143705109876123e+00 2.549690975509450368e+02
-6.311927768354765877e-01 5.461143705109864577e+00 2.549716362075450320e+02
-2.271523727353726152e-01 5.461143705109840596e+00 2.549741748642450148e+02
1.768880312647816699e-01 5.461143705109863689e+00 2.549767135209450259e+02
5.809284353648425103e-01 5.461143705109839708e+00 2.549792521775450496e+02
9.849688393649390639e-01 5.461143705109847701e+00 2.549817908342450608e+02
1.389009243365038726e+00 5.461143705109832602e+00 2.549843294909450435e+02
1.793049647465069008e+00 5.461143705109800628e+00 2.549868681476450547e+02
2.197090051465452554e+00 5.461143705109795299e+00 2.549894068042450499e+02
-1.035233180835495759e+00 5.865184109209819141e+00 2.549684310469450281e+02
-6.311927768355128920e-01 5.865184109209796937e+00 2.549709697035450233e+02
-2.271523727352957045e-01 5.865184109209817365e+00 2.549735083602450345e+02
1.768880312649088460e-01 5.865184109209803154e+00 2.549760470169450457e+02
5.809284353648290766e-01 5.865184109209780061e+00 2.549785856735450125e+02
9.849688393648899920e-01 5.865184109209756080e+00 2.549811243302450521e+02
1.389009243364946133e+00 5.865184109209744534e+00 2.549836629869450633e+02
1.793049647465110974e+00 5.865184109209738317e+00 2.549862016435450585e+02
2.197090051465393934e+00 5.865184109209750751e+00 2.549887403002450412e+02
-1.035233180835225753e+00 6.269224513209780802e+00 2.549677645428450319e+02
-6.311927768351459633e-01 6.269224513209801231e+00 2.549703031995450431e+02
-2.271523727351533739e-01 6.269224513209799454e+00 2.549728418562450543e+02
1.768880312649087072e-01 6.269224513209804783e+00 2.549753805128450495e+02
5.809284353649935007e-01 6.269224513209779026e+00 2.549779191695450606e+02
9.849688393650080087e-01 6.269224513209754157e+00 2.549804578262450434e+02
1.389009243364861979e+00 6.269224513209764815e+00 2.549829964828450386e+02
1.793049647464761920e+00 6.269224513209784355e+00 2.549855351395450214e+02
-1.035233180834899791e+00 6.673264917309801092e+00 2.549670980388450516e+02
-6.311927768349387957e-01 6.673264917309802868e+00 2.549696366955450628e+02
-2.271523727349168131e-01 6.673264917309777999e+00 2.549721753521450580e+02
1.768880312652368614e-01 6.673264917309808197e+00 2.549747140088450408e+02
5.809284353649085686e-01 6.673264917309804645e+00 2.549772526655450520e+02
9.849688393647857421e-01 6.673264917309783328e+00 2.549797913221450472e+02
1.389009243364458301e+00 6.673264917309771782e+00 2.549823299788450299e+02
1.793049647464414864e+00 6.673264917309775335e+00 2.549848686355450127e+02
-1.035233180834844280e+00 7.077305321309874664e+00 2.549664315348450430e+02
-6.311927768347810330e-01 7.077305321309867558e+00 2.549689701915450541e+02
-2.271523727347415089e-01 7.077305321309861341e+00 2.549715088481450493e+02
1.768880312652797715e-01 7.077305321309843578e+00 2.549740475048450605e+02
5.809284353649670773e-01 7.077305321309804498e+00 2.549765861615450433e+02
9.849688393646779394e-01 7.077305321309802721e+00 2.549791248181450101e+02
1.389009243364255575e+00 7.077305321309801833e+00 2.549816634748450213e+02
1.793049647464382002e+00 7.077305321309792951e+00 2.549842021315450324e+02
-6.311927768346716761e-01 7.481345725309906491e+00 2.549683036874450579e+02
-2.271523727346527466e-01 7.481345725309910932e+00 2.549708423441450407e+02
1.768880312652337528e-01 7.481345725309912709e+00 2.549733810008450519e+02
5.809284353650184807e-01 7.481345725309872741e+00 2.549759196574450471e+02
9.849688393646294227e-01 7.481345725309896721e+00 2.549784583141450298e+02
1.389009243364466295e+00 7.481345725309884287e+00 2.549809969708450126e+02
1.793049647464618257e+00 7.481345725309890504e+00 2.549835356274450362e+02
-1.035233180834953970e+00 7.885386129409950762e+00 2.549650985267450380e+02
-6.311927768347386225e-01 7.885386129409949874e+00 2.549676371834450492e+02
-2.271523727347374011e-01 7.885386129409936551e+00 2.549701758401450604e+02
1.768880312651892606e-01 7.885386129409925893e+00 2.549727144967450556e+02
5.809284353650150390e-01 7.885386129409907241e+00 2.549752531534450384e+02
9.849688393649131957e-01 7.885386129409909906e+00 2.549777918101450496e+02
1.389009243364924151e+00 7.885386129409917899e+00 2.549803304667450448e+02
1.793049647464754370e+00 7.885386129409930334e+00 2.549828691234450275e+02
-1.035233180834972178e+00 8.289426533409937292e+00 2.549644320227450578e+02
-6.311927768349341328e-01 8.289426533409947950e+00 2.549669706794450406e+02
-2.271523727347989907e-01 8.289426533409926634e+00 2.549695093360450642e+02
1.768880312650984998e-01 8.289426533409894660e+00 2.549720479927450469e+02
5.809284353650941979e-01 8.289426533409935516e+00 2.549745866494450581e+02
9.849688393651574447e-01 8.289426533409931963e+00 2.549771253061450409e+02
1.389009243365160851e+00 8.289426533409939069e+00 2.549796639627450645e+02
1.793049647465092544e+00 8.289426533409953279e+00 2.549822026194450473e+02
2.197090051465190541e+00 8.289426533409944398e+00 2.549847412761450585e+02
-1.035233180835314570e+00 8.693466937509919390e+00 2.549637655187450207e+02
-6.311927768350595880e-01 8.693466937509951364e+00 2.549663041754450603e+02
-2.271523727350002742e-01 8.693466937509981562e+00 2.549688428320450555e+02
1.768880312650516484e-01 8.693466937509970904e+00 2.549713814887450383e+02
5.809284353652680588e-01 8.693466937509958470e+00 2.549739201454450495e+02
9.849688393654320029e-01 8.693466937509962023e+00 2.549764588020450446e+02
1.389009243365222579e+00 8.693466937509947812e+00 2.549789974587450558e+02
1.793049647465256857e+00 8.693466937509953141e+00 2.549815361154450386e+02
2.197090051465281135e+00 8.693466937509935377e+00 2.549840747720450622e+02
-1.035233180835317235e+00 9.097507341509945888e+00 2.549630990147450120e+02
-6.311927768350319434e-01 9.097507341509944112e+00 2.549656376713450641e+02
-2.271523727349842037e-01 9.097507341509897927e+00 2.549681763280450468e+02
1.768880312652536257e-01 9.097507341509908585e+00 2.549707149847450580e+02
5.809284353653952904e-01 9.097507341509896150e+00 2.549732536413450532e+02
9.849688393653736052e-01 9.097507341509919243e+00 2.549757922980450644e+02
1.389009243365326496e+00 9.097507341509883716e+00 2.549783309547450472e+02
1.793049647465310370e+00 9.097507341509849965e+00 2.549808696113450424e+02
-1.035233180835058553e+00 9.501547745509938636e+00 2.549624325106450442e+02
-6.311927768351351942e-01 9.501547745509961729e+00 2.549649711673450270e+02
-2.271523727349241684e-01 9.501547745509926202e+00 2.549675098240450382e+02
1.768880312650545350e-01 9.501547745509943965e+00 2.549700484806450618e+02
5.809284353651751331e-01 9.501547745509949294e+00 2.549725871373450445e+02
9.849688393652471508e-01 9.501547745509931531e+00 2.549751257940450557e+02
1.389009243365199264e+00 9.501547745509942189e+00 2.549776644507450385e+02
1.793049647465148499e+00 9.501547745509903109e+00 2.549802031073450621e+02
2.197090051465376614e+00 9.501547745509924425e+00 2.549827417640450449e+02
-1.035233180835130495e+00 9.905588149609958037e+00 2.549617660066450640e+02
-6.311927768350161783e-01 9.905588149609947379e+00 2.549643046633450467e+02
-2.271523727351945354e-01 9.905588149609972248e+00 2.549668433200450295e+02
1.768880312649502573e-01 9.905588149609970472e+00 2.549693819766450531e+02
5.809284353650113752e-01 9.905588149609943827e+00 2.549719206333450643e+02
9.849688393651065965e-01 9.905588149609931392e+00 2.549744592900450471e+02
1.389009243365096902e+00 9.905588149609950932e+00 2.549769979466450422e+02
1.793049647465156937e+00 9.905588149609934945e+00 2.549795366033450534e+02
2.197090051465356186e+00 9.905588149609933168e+00 2.549820752600450646e+02
-6.311927768349985257e-01 1.030962855360996500e+01 2.549636381593450380e+02
-2.271523727349275545e-01 1.030962855360995967e+01 2.549661768159450617e+02
1.768880312650364939e-01 1.030962855360992769e+01 2.549687154726450444e+02
5.809284353650571164e-01 1.030962855360991703e+01 2.549712541293450556e+02
9.849688393651055973e-01 1.030962855360994013e+01 2.549737927859450508e+02
1.389009243365002755e+00 1.030962855360987795e+01 2.549763314426450620e+02
1.793049647465166485e+00 1.030962855360988328e+01 2.549788700993450448e+02
2.197090051465357519e+00 1.030962855360991881e+01 2.549814087559450400e+02
-6.311927768349332446e-01 1.071366895770993821e+01 2.549629716552450418e+02
-2.271523727349046839e-01 1.071366895770996663e+01 2.549655103119450530e+02
1.768880312650341347e-01 1.071366895770995242e+01 2.549680489686450642e+02
5.809284353650316923e-01 1.071366895770997729e+01 2.549705876252450594e+02
9.849688393652040741e-01 1.071366895770997196e+01 2.549731262819450421e+02
1.389009243365157742e+00 1.071366895770996841e+01 2.549756649386450533e+02
1.793049647464912910e+00 1.071366895770995598e+01 2.549782035952450485e+02
2.197090051465311777e+00 1.071366895770994709e+01 2.549807422519450597e+02
-6.311927768349763213e-01 1.111770936170997892e+01 2.549623051512450616e+02
-2.271523727348860044e-01 1.111770936170997359e+01 2.549648438079450443e+02
1.768880312650959741e-01 1.111770936170996116e+01 2.549673824646450555e+02
5.809284353649840638e-01 1.111770936171001978e+01 2.549699211212450507e+02
9.849688393651572227e-01 1.111770936171000734e+01 2.549724597779450619e+02
1.389009243365056046e+00 1.111770936170997004e+01 2.549749984346450447e+02
1.793049647464997731e+00 1.111770936170997004e+01 2.549775370912450398e+02
2.197090051465333982e+00 1.111770936170995938e+01 2.549800757479450510e+02
-1.035233180834954858e+00 1.152174976580995747e+01 2.549590999905450417e+02
-6.311927768349440138e-01 1.152174976580996990e+01 2.549616386472450529e+02
-2.271523727349475941e-01 1.152174976580996280e+01 2.549641773039450641e+02
1.768880312650525921e-01 1.152174976580996102e+01 2.549667159605450593e+02
5.809284353649692978e-01 1.152174976580997345e+01 2.549692546172450420e+02
9.849688393651221396e-01 1.152174976580996812e+01 2.549717932739450532e+02
1.389009243365072699e+00 1.152174976580999655e+01 2.549743319305450484e+02
1.793049647465017715e+00 1.152174976580996280e+01 2.549768705872450596e+02
2.197090051465098615e+00 1.152174976580993437e+01 2.549794092439450424e+02
-1.035233180835120059e+00 1.192579016980996975e+01 2.549584334865450614e+02
-6.311927768349611112e-01 1.192579016980994666e+01 2.549609721432450442e+02
-2.271523727350104882e-01 1.192579016981000706e+01 2.549635107998450394e+02
1.768880312652020004e-01 1.192579016981003193e+01 2.549660494565450506e+02
5.809284353652000021e-01 1.192579016981001061e+01 2.549685881132450618e+02
9.849688393651033769e-01 1.192579016981003726e+01 2.549711267698450570e+02
1.389009243365006530e+00 1.192579016981003015e+01 2.549736654265450397e+02
1.793049647465011720e+00 1.192579016981002304e+01 2.549762040832450509e+02
-1.035233180835037903e+00 1.232983057380996783e+01 2.549577669825450528e+02
-6.311927768349681056e-01 1.232983057381001579e+01 2.549603056391450480e+02
-2.271523727350758803e-01 1.232983057381003356e+01 2.549628442958450592e+02
1.768880312651787690e-01 1.232983057381002645e+01 2.549653829525450419e+02
5.809284353651956723e-01 1.232983057381005132e+01 2.549679216092450531e+02
9.849688393650819496e-01 1.232983057381005487e+01 2.549704602658450483e+02
1.389009243365145529e+00 1.232983057381004421e+01 2.549729989225450595e+02
1.793049647464986185e+00 1.232983057381004066e+01 2.549755375792450423e+02
-1.035233180835144040e+00 1.273387097791001388e+01 2.549571004785450441e+02
-6.311927768349697709e-01 1.273387097790999078e+01 2.549596391351450393e+02
-2.271523727350555910e-01 1.273387097791002631e+01 2.549621777918450505e+02
1.768880312650465414e-01 1.273387097791002276e+01 2.549647164485450617e+02
5.809284353650846500e-01 1.273387097791002986e+01 2.549672551051450569e+02
9.849688393651676588e-01 1.273387097791002098e+01 2.549697937618450396e+02
1.389009243365022517e+00 1.273387097791002454e+01 2.549723324185450508e+02
1.793049647464948881e+00 1.273387097791002631e+01 2.549748710751450460e+02
2.197090051464932081e+00 1.273387097790999789e+01 2.549774097318450572e+02
-6.311927768349901990e-01 1.313791138190999952e+01 2.549589726311450590e+02
-2.271523727350729938e-01 1.313791138191000663e+01 2.549615112878450418e+02
1.768880312650465414e-01 1.313791138191002261e+01 2.549640499444450654e+02
5.809284353650668864e-01 1.313791138191001373e+01 2.549665886011450482e+02
9.849688393651488960e-01 1.313791138191001551e+01 2.549691272578450594e+02
1.389009243365084245e+00 1.313791138191003327e+01 2.549716659144450546e+02
1.793049647464991292e+00 1.313791138190999064e+01 2.549742045711450658e+02
2.197090051464932969e+00 1.313791138190998886e+01 2.549767432278450485e+02
2.601130455565081157e+00 1.354195178600999050e+01 2.549786153804450635e+02
