-1.031463355224671918e+00 -1.231762381018144481e+01 2.543984363873832706e+02
9.887386649756365609e-01 -1.231762381018146790e+01 2.544111296706832945e+02
1.392779068975683376e+00 -1.231762381018147146e+01 2.544136683273832773e+02
-1.031463355224635725e+00 -1.191358340618143785e+01 2.543977698833832903e+02
-6.274229512246618512e-01 -1.191358340618144140e+01 2.544003085399832855e+02
-2.233825471245297067e-01 -1.191358340618146805e+01 2.544028471966832967e+02
1.806578568754375891e-01 -1.191358340618147160e+01 2.544053858533832795e+02
5.846982609756189442e-01 -1.191358340618145739e+01 2.544079245099832747e+02
9.887386649755658397e-01 -1.191358340618145917e+01 2.544104631666832859e+02
1.392779068975636525e+00 -1.191358340618146983e+01 2.544130018233832971e+02
1.796819473075585316e+00 -1.191358340618145384e+01 2.544155404799832922e+02
2.200859877075671545e+00 -1.191358340618145206e+01 2.544180791366832750e+02
-1.031463355224600864e+00 -1.150954300218142201e+01 2.543971033793832817e+02
-6.274229512246474183e-01 -1.150954300218142201e+01 2.543996420359832769e+02
-2.233825471246471128e-01 -1.150954300218142379e+01 2.544021806926832880e+02
1.806578568755138614e-01 -1.150954300218143800e+01 2.544047193493832708e+02
5.846982609756181670e-01 -1.150954300218145043e+01 2.544072580059832944e+02
9.887386649755642853e-01 -1.150954300218144510e+01 2.544097966626832772e+02
1.392779068975547263e+00 -1.150954300218143977e+01 2.544123353193832884e+02
1.796819473075582430e+00 -1.150954300218142556e+01 2.544148739759832836e+02
-1.031463355224501166e+00 -1.110550259808145235e+01 2.543964368752832854e+02
-6.274229512245351748e-01 -1.110550259808141504e+01 2.543989755319832966e+02
-2.233825471245326766e-01 -1.110550259808143991e+01 2.544015141886832794e+02
1.806578568755469738e-01 -1.110550259808143814e+01 2.544040528452832746e+02
5.846982609755366767e-01 -1.110550259808143458e+01 2.544065915019832858e+02
9.887386649755313117e-01 -1.110550259808144524e+01 2.544091301586832969e+02
1.392779068975593448e+00 -1.110550259808143458e+01 2.544116688152832921e+02
1.796819473075527585e+00 -1.110550259808140972e+01 2.544142074719832749e+02
-1.031463355224463641e+00 -1.070146219408149513e+01 2.543957703712832767e+02
-6.274229512245300677e-01 -1.070146219408146671e+01 2.543983090279832879e+02
-2.233825471245349525e-01 -1.070146219408141874e+01 2.544008476845832831e+02
1.806578568755455860e-01 -1.070146219408142407e+01 2.544033863412832943e+02
5.846982609755057014e-01 -1.070146219408145605e+01 2.544059249979832771e+02
9.887386649755643964e-01 -1.070146219408144539e+01 2.544084636545832723e+02
1.392779068975514178e+00 -1.070146219408144006e+01 2.544110023112832835e+02
1.796819473075498497e+00 -1.070146219408144894e+01 2.544135409679832946e+02
-6.274229512244468010e-01 -1.029742178998149704e+01 2.543976425238832917e+02
-2.233825471245462768e-01 -1.029742178998146862e+01 2.544001811805832745e+02
1.806578568754676484e-01 -1.029742178998144375e+01 2.544027198372832856e+02
5.846982609755128069e-01 -1.029742178998146152e+01 2.544052584939832968e+02
9.887386649755666168e-01 -1.029742178998146684e+01 2.544077971505832920e+02
1.392779068975567469e+00 -1.029742178998147573e+01 2.544103358072832748e+02
1.796819473075466744e+00 -1.029742178998149704e+01 2.544128744639832860e+02
2.200859877075487248e+00 -1.029742178998149882e+01 2.544154131205832812e+02
-6.274229512244304807e-01 -9.893381385981497189e+00 2.543969760198832830e+02
-2.233825471245606820e-01 -9.893381385981490084e+00 2.543995146765832942e+02
1.806578568754561853e-01 -9.893381385981493636e+00 2.544020533332832770e+02
5.846982609755305704e-01 -9.893381385981475873e+00 2.544045919898832722e+02
9.887386649754583701e-01 -9.893381385981514953e+00 2.544071306465832834e+02
1.392779068975589229e+00 -9.893381385981525611e+00 2.544096693032832945e+02
1.796819473075500495e+00 -9.893381385981504295e+00 2.544122079598832897e+02
2.200859877075524995e+00 -9.893381385981520282e+00 2.544147466165832725e+02
-1.031463355224560008e+00 -9.489340981881499104e+00 2.543937708591832916e+02
-6.274229512243849616e-01 -9.489340981881484893e+00 2.543963095158832743e+02
-2.233825471245090566e-01 -9.489340981881474235e+00 2.543988481725832855e+02
1.806578568755390912e-01 -9.489340981881460024e+00 2.544013868291832807e+02
5.846982609756259386e-01 -9.489340981881465353e+00 2.544039254858832919e+02
9.887386649755679491e-01 -9.489340981881481341e+00 2.544064641425832747e+02
1.392779068975549928e+00 -9.489340981881504433e+00 2.544090027991832983e+02
1.796819473075579321e+00 -9.489340981881493775e+00 2.544115414558832811e+02
2.200859877075666216e+00 -9.489340981881472459e+00 2.544140801125832922e+02
-1.031463355224645717e+00 -9.085300577881504580e+00 2.543931043551832829e+02
-6.274229512245197427e-01 -9.085300577881469053e+00 2.543956430118832941e+02
-2.233825471244347549e-01 -9.085300577881419315e+00 2.543981816684832893e+02
1.806578568755443925e-01 -9.085300577881412210e+00 2.544007203251832721e+02
5.846982609755383420e-01 -9.085300577881453066e+00 2.544032589818832832e+02
9.887386649756511048e-01 -9.085300577881451289e+00 2.544057976385832944e+02
1.392779068975664059e+00 -9.085300577881479711e+00 2.544083362951832896e+02
1.796819473075716767e+00 -9.085300577881472606e+00 2.544108749518832724e+02
2.200859877075749704e+00 -9.085300577881506356e+00 2.544134136085832836e+02
-1.031463355224610856e+00 -8.681260173881520714e+00 2.543924378511832742e+02
-6.274229512247625484e-01 -8.681260173881501174e+00 2.543949765078832854e+02
-2.233825471247164740e-01 -8.681260173881494069e+00 2.543975151644832806e+02
1.806578568755178860e-01 -8.681260173881513609e+00 2.544000538211832918e+02
5.846982609756957716e-01 -8.681260173881527820e+00 2.544025924778832746e+02
9.887386649758782564e-01 -8.681260173881526043e+00 2.544051311344832982e+02
1.392779068975994239e+00 -8.681260173881556241e+00 2.544076697911832809e+02
1.796819473075931484e+00 -8.681260173881527820e+00 2.544102084478832921e+02
-1.031463355224752076e+00 -8.277219769781504866e+00 2.543917713471832940e+02
-6.274229512246974894e-01 -8.277219769781517300e+00 2.543943100037832892e+02
-2.233825471245756145e-01 -8.277219769781506642e+00 2.543968486604832719e+02
1.806578568756185554e-01 -8.277219769781519076e+00 2.543993873171832831e+02
5.846982609758881733e-01 -8.277219769781526182e+00 2.544019259737832783e+02
9.887386649759585255e-01 -8.277219769781529735e+00 2.544044646304832895e+02
1.392779068975955159e+00 -8.277219769781533287e+00 2.544070032871832723e+02
1.796819473076059603e+00 -8.277219769781513747e+00 2.544095419437832959e+02
-1.031463355224558898e+00 -7.873179365781572514e+00 2.543911048430832977e+02
-6.274229512244845486e-01 -7.873179365781552974e+00 2.543936434997832805e+02
-2.233825471244393901e-01 -7.873179365781536099e+00 2.543961821564832917e+02
1.806578568755982939e-01 -7.873179365781517447e+00 2.543987208130832869e+02
5.846982609756391502e-01 -7.873179365781495243e+00 2.544012594697832981e+02
9.887386649757970991e-01 -7.873179365781512118e+00 2.544037981264832808e+02
1.392779068975912082e+00 -7.873179365781533434e+00 2.544063367830832760e+02
1.796819473075820905e+00 -7.873179365781548533e+00 2.544088754397832872e+02
-1.031463355224321088e+00 -7.469138961681525579e+00 2.543904383390832891e+02
-6.274229512246711771e-01 -7.469138961681514033e+00 2.543929769957832718e+02
-2.233825471246268513e-01 -7.469138961681524691e+00 2.543955156524832830e+02
1.806578568754382275e-01 -7.469138961681514033e+00 2.543980543090832782e+02
5.846982609754900473e-01 -7.469138961681499822e+00 2.544005929657832894e+02
9.887386649755498524e-01 -7.469138961681499822e+00 2.544031316224832722e+02
1.392779068975746215e+00 -7.469138961681537126e+00 2.544056702790832958e+02
1.796819473075884410e+00 -7.469138961681522026e+00 2.544082089357832785e+02
-1.031463355224421452e+00 -7.065098557681487534e+00 2.543897718350832804e+02
-6.274229512245357299e-01 -7.065098557681475100e+00 2.543923104917832916e+02
-2.233825471246154992e-01 -7.065098557681474212e+00 2.543948491483832868e+02
1.806578568753362535e-01 -7.065098557681460889e+00 2.543973878050832980e+02
5.846982609753911264e-01 -7.065098557681475988e+00 2.543999264617832807e+02
9.887386649754661416e-01 -7.065098557681461777e+00 2.544024651183832759e+02
1.392779068975807943e+00 -7.065098557681459113e+00 2.544050037750832871e+02
1.796819473076062490e+00 -7.065098557681476876e+00 2.544075424317832983e+02
2.200859877075933557e+00 -7.065098557681483982e+00 2.544100810883832935e+02
-6.274229512244863249e-01 -6.661058153681471694e+00 2.543916439876832953e+02
-2.233825471246185246e-01 -6.661058153681445937e+00 2.543941826443832781e+02
1.806578568753984260e-01 -6.661058153681449490e+00 2.543967213010832893e+02
5.846982609755972948e-01 -6.661058153681444161e+00 2.543992599576832845e+02
9.887386649756412238e-01 -6.661058153681451266e+00 2.544017986143832957e+02
1.392779068975842804e+00 -6.661058153681474359e+00 2.544043372710832784e+02
1.796819473075955909e+00 -6.661058153681477023e+00 2.544068759276832736e+02
2.200859877075689308e+00 -6.661058153681464589e+00 2.544094145843832848e+02
-6.274229512244058338e-01 -6.257017749581478050e+00 2.543909774836832867e+02
-2.233825471245076133e-01 -6.257017749581424759e+00 2.543935161403832979e+02
1.806578568755756176e-01 -6.257017749581394561e+00 2.543960547970832806e+02
5.846982609756447014e-01 -6.257017749581388344e+00 2.543985934536832758e+02
9.887386649755883772e-01 -6.257017749581391897e+00 2.544011321103832870e+02
1.392779068975715129e+00 -6.257017749581430088e+00 2.544036707670832982e+02
1.796819473075781382e+00 -6.257017749581459398e+00 2.544062094236832934e+02
-1.031463355224341294e+00 -5.852977345581490631e+00 2.543877723229832952e+02
-6.274229512244237084e-01 -5.852977345581463986e+00 2.543903109796832780e+02
-2.233825471243828520e-01 -5.852977345581441782e+00 2.543928496363832892e+02
1.806578568757732095e-01 -5.852977345581440893e+00 2.543953882929832844e+02
5.846982609758423211e-01 -5.852977345581433788e+00 2.543979269496832956e+02
9.887386649757752277e-01 -5.852977345581395596e+00 2.544004656063832783e+02
1.392779068975697809e+00 -5.852977345581422242e+00 2.544030042629832735e+02
1.796819473075666362e+00 -5.852977345581435564e+00 2.544055429196832847e+02
-1.031463355224417677e+00 -5.448936941481523633e+00 2.543871058189832866e+02
-6.274229512243230111e-01 -5.448936941481507645e+00 2.543896444756832977e+02
-2.233825471240604710e-01 -5.448936941481505869e+00 2.543921831322832929e+02
1.806578568758583636e-01 -5.448936941481492546e+00 2.543947217889832757e+02
5.846982609757357396e-01 -5.448936941481496099e+00 2.543972604456832869e+02
9.887386649757690105e-01 -5.448936941481496987e+00 2.543997991022832821e+02
1.392779068975623202e+00 -5.448936941481501428e+00 2.544023377589832933e+02
1.796819473075603746e+00 -5.448936941481506757e+00 2.544048764156832760e+02
2.200859877075528992e+00 -5.448936941481520080e+00 2.544074150722832712e+02
-1.031463355224418343e+00 -5.044896537481516674e+00 2.543864393149832779e+02
-6.274229512243050255e-01 -5.044896537481520227e+00 2.543889779715832731e+02
-2.233825471242176786e-01 -5.044896537481495358e+00 2.543915166282832843e+02
1.806578568757623571e-01 -5.044896537481496246e+00 2.543940552849832955e+02
5.846982609756810056e-01 -5.044896537481481147e+00 2.543965939416832782e+02
9.887386649756745305e-01 -5.044896537481481147e+00 2.543991325982832734e+02
1.392779068975719348e+00 -5.044896537481499799e+00 2.544016712549832846e+02
1.796819473075755624e+00 -5.044896537481529997e+00 2.544042099116832958e+02
2.200859877075618254e+00 -5.044896537481548648e+00 2.544067485682832910e+02
-1.031463355224535139e+00 -4.640856133481482182e+00 2.543857728109832976e+02
-6.274229512245595997e-01 -4.640856133481501722e+00 2.543883114675832928e+02
-2.233825471244577643e-01 -4.640856133481455537e+00 2.543908501242832756e+02
1.806578568756191105e-01 -4.640856133481460866e+00 2.543933887809832868e+02
5.846982609756482541e-01 -4.640856133481485735e+00 2.543959274375832820e+02
9.887386649758844737e-01 -4.640856133481487511e+00 2.543984660942832932e+02
1.392779068975983137e+00 -4.640856133481511492e+00 2.544010047509832759e+02
1.796819473075873308e+00 -4.640856133481539914e+00 2.544035434075832711e+02
-6.274229512246324303e-01 -4.236815729381471662e+00 2.543876449635832842e+02
-2.233825471247830596e-01 -4.236815729381524953e+00 2.543901836202832953e+02
1.806578568755141390e-01 -4.236815729381538276e+00 2.543927222768832905e+02
5.846982609757429561e-01 -4.236815729381568474e+00 2.543952609335832733e+02
9.887386649759637436e-01 -4.236815729381580908e+00 2.543977995902832845e+02
1.392779068975912082e+00 -4.236815729381561368e+00 2.544003382468832797e+02
1.796819473075827789e+00 -4.236815729381582685e+00 2.544028769035832909e+02
-6.274229512247528895e-01 -3.832775325381459819e+00 2.543869784595832755e+02
-2.233825471248805095e-01 -3.832775325381450049e+00 2.543895171161832707e+02
1.806578568751366354e-01 -3.832775325381455822e+00 2.543920557728832819e+02
5.846982609754167726e-01 -3.832775325381466036e+00 2.543945944295832930e+02
9.887386649756539914e-01 -3.832775325381477138e+00 2.543971330861832882e+02
1.392779068975621426e+00 -3.832775325381483800e+00 2.543996717428832710e+02
1.796819473075645490e+00 -3.832775325381486020e+00 2.544022103995832822e+02
-6.274229512250035778e-01 -3.428734921281479053e+00 2.543863119555832952e+02
-2.233825471251471850e-01 -3.428734921281472836e+00 2.543888506121832904e+02
1.806578568749457880e-01 -3.428734921281475501e+00 2.543913892688832732e+02
5.846982609750920323e-01 -3.428734921281477721e+00 2.543939279255832844e+02
9.887386649752782919e-01 -3.428734921281474612e+00 2.543964665821832796e+02
1.392779068975261714e+00 -3.428734921281475057e+00 2.543990052388832908e+02
1.796819473075341733e+00 -3.428734921281479497e+00 2.544015438955832735e+02
-1.031463355224693013e+00 -3.024694517281527162e+00 2.543831067948832754e+02
-6.274229512248783447e-01 -3.024694517281501405e+00 2.543856454514832706e+02
-2.233825471248450933e-01 -3.024694517281502293e+00 2.543881841081832818e+02
1.806578568752907343e-01 -3.024694517281500517e+00 2.543907227648832929e+02
5.846982609753403892e-01 -3.024694517281500517e+00 2.543932614214832881e+02
9.887386649753706624e-01 -3.024694517281500517e+00 2.543958000781832709e+02
1.392779068975167345e+00 -3.024694517281497408e+00 2.543983387348832821e+02
1.796819473075302209e+00 -3.024694517281514283e+00 2.544008773914832773e+02
-1.031463355224779832e+00 -2.620654113281522424e+00 2.543824402907832791e+02
-6.274229512246556340e-01 -2.620654113281533526e+00 2.543849789474832903e+02
-2.233825471246549677e-01 -2.620654113281539743e+00 2.543875176041832731e+02
1.806578568752897351e-01 -2.620654113281554398e+00 2.543900562607832967e+02
5.846982609752395810e-01 -2.620654113281555286e+00 2.543925949174832795e+02
9.887386649750835588e-01 -2.620654113281555730e+00 2.543951335741832906e+02
1.392779068975155798e+00 -2.620654113281545072e+00 2.543976722307832858e+02
1.796819473075122575e+00 -2.620654113281543296e+00 2.544002108874832970e+02
-1.031463355224404355e+00 -2.216613709181522562e+00 2.543817737867832705e+02
-6.274229512244468010e-01 -2.216613709181528336e+00 2.543843124434832816e+02
-2.233825471246906613e-01 -2.216613709181549208e+00 2.543868511001832928e+02
1.806578568753601510e-01 -2.216613709181560310e+00 2.543893897567832880e+02
5.846982609750804860e-01 -2.216613709181554981e+00 2.543919284134832708e+02
9.887386649749566603e-01 -2.216613709181545655e+00 2.543944670701832820e+02
1.392779068975024792e+00 -2.216613709181530556e+00 2.543970057267832772e+02
1.796819473075027096e+00 -2.216613709181518566e+00 2.543995443834832884e+02
-1.031463355224656597e+00 -1.812573305181524264e+00 2.543811072827832902e+02
-6.274229512246930485e-01 -1.812573305181525596e+00 2.543836459394832730e+02
-2.233825471246059235e-01 -1.812573305181534034e+00 2.543861845960832966e+02
1.806578568751217861e-01 -1.812573305181535588e+00 2.543887232527832793e+02
5.846982609750726034e-01 -1.812573305181539807e+00 2.543912619094832905e+02
9.887386649750262713e-01 -1.812573305181545136e+00 2.543938005660832857e+02
1.392779068975168899e+00 -1.812573305181539585e+00 2.543963392227832969e+02
1.796819473075060181e+00 -1.812573305181518935e+00 2.543988778794832797e+02
-6.274229512246540796e-01 -1.408532901081450239e+00 2.543829794353832767e+02
-2.233825471247349315e-01 -1.408532901081440469e+00 2.543855180920832879e+02
1.806578568753609282e-01 -1.408532901081434918e+00 2.543880567487832707e+02
5.846982609751208981e-01 -1.408532901081429811e+00 2.543905954053832943e+02
9.887386649750247170e-01 -1.408532901081430699e+00 2.543931340620832771e+02
1.392779068974692835e+00 -1.408532901081436917e+00 2.543956727187832882e+02
1.796819473074642959e+00 -1.408532901081433808e+00 2.543982113753832834e+02
2.200859877074841986e+00 -1.408532901081436917e+00 2.544007500320832946e+02
-6.274229512245412810e-01 -1.004492497081447500e+00 2.543823129313832965e+02
-2.233825471245420857e-01 -1.004492497081439506e+00 2.543848515880832792e+02
1.806578568754047265e-01 -1.004492497081440616e+00 2.543873902447832904e+02
5.846982609753245130e-01 -1.004492497081436841e+00 2.543899289013832856e+02
9.887386649751311873e-01 -1.004492497081432623e+00 2.543924675580832968e+02
1.392779068974771661e+00 -1.004492497081427294e+00 2.543950062147832796e+02
1.796819473074395379e+00 -1.004492497081419966e+00 2.543975448713832748e+02
2.200859877074348603e+00 -1.004492497081424407e+00 2.544000835280832860e+02
-6.274229512246115581e-01 -6.004520930814417623e-01 2.543816464273832878e+02
-2.233825471245575178e-01 -6.004520930814500890e-01 2.543841850840832706e+02
1.806578568753891556e-01 -6.004520930814492008e-01 2.543867237406832942e+02
5.846982609753892390e-01 -6.004520930814498669e-01 2.543892623973832769e+02
9.887386649751057632e-01 -6.004520930814424284e-01 2.543918010540832881e+02
1.392779068974879131e+00 -6.004520930814365443e-01 2.543943397106832833e+02
1.796819473074718898e+00 -6.004520930814304380e-01 2.543968783673832945e+02
-1.031463355225086920e+00 -1.964116889814455091e-01 2.543784412666832964e+02
-6.274229512247871954e-01 -1.964116889814489786e-01 2.543809799233832791e+02
-2.233825471246105310e-01 -1.964116889814525035e-01 2.543835185799832743e+02
1.806578568753894887e-01 -1.964116889814518374e-01 2.543860572366832855e+02
5.846982609753954563e-01 -1.964116889814493117e-01 2.543885958933832967e+02
9.887386649751791490e-01 -1.964116889814433164e-01 2.543911345499832919e+02
1.392779068974872692e+00 -1.964116889814370159e-01 2.543936732066832747e+02
1.796819473074932949e+00 -1.964116889814414291e-01 2.543962118633832858e+02
-1.031463355224899514e+00 2.076287150185429087e-01 2.543777747626832877e+02
-6.274229512249263063e-01 2.076287150185470720e-01 2.543803134192832829e+02
-2.233825471248500616e-01 2.076287150185458785e-01 2.543828520759832941e+02
1.806578568752634228e-01 2.076287150185418817e-01 2.543853907326832768e+02
5.846982609753368365e-01 2.076287150185403274e-01 2.543879293892832720e+02
9.887386649752872847e-01 2.076287150185407437e-01 2.543904680459832832e+02
1.392779068975297241e+00 2.076287150185414376e-01 2.543930067026832944e+02
1.796819473075470075e+00 2.076287150185411046e-01 2.543955453593832772e+02
2.200859877075628912e+00 2.076287150185405495e-01 2.543980840159832724e+02
-1.031463355224883305e+00 6.116691191185474885e-01 2.543771082586832790e+02
-6.274229512250135699e-01 6.116691191185550380e-01 2.543796469152832742e+02
-2.233825471252534889e-01 6.116691191185600340e-01 2.543821855719832854e+02
1.806578568750530078e-01 6.116691191185523735e-01 2.543847242286832966e+02
5.846982609752400251e-01 6.116691191185448240e-01 2.543872628852832918e+02
9.887386649752869516e-01 6.116691191185434917e-01 2.543898015419832745e+02
1.392779068975463774e+00 6.116691191185379406e-01 2.543923401986832857e+02
1.796819473075188078e+00 6.116691191185396059e-01 2.543948788552832809e+02
2.200859877075386883e+00 6.116691191185366083e-01 2.543974175119832921e+02
-6.274229512252509355e-01 1.015709523118570434e+00 2.543789804112832940e+02
-2.233825471252772477e-01 1.015709523118566437e+00 2.543815190679832767e+02
1.806578568749928893e-01 1.015709523118556223e+00 2.543840577245832719e+02
5.846982609750729365e-01 1.015709523118554447e+00 2.543865963812832831e+02
9.887386649753625578e-01 1.015709523118550450e+00 2.543891350379832943e+02
1.392779068975488865e+00 1.015709523118551338e+00 2.543916736945832895e+02
1.796819473075492946e+00 1.015709523118549562e+00 2.543942123512832723e+02
-6.274229512246981555e-01 1.419749927118558741e+00 2.543783139072832853e+02
-2.233825471248104821e-01 1.419749927118552524e+00 2.543808525638832805e+02
1.806578568753195169e-01 1.419749927118547861e+00 2.543833912205832917e+02
5.846982609752828797e-01 1.419749927118547861e+00 2.543859298772832744e+02
9.887386649752566425e-01 1.419749927118544752e+00 2.543884685338832981e+02
1.392779068975182666e+00 1.419749927118556077e+00 2.543910071905832808e+02
1.796819473075092599e+00 1.419749927118558519e+00 2.543935458472832920e+02
-6.274229512248058471e-01 1.823790331218571481e+00 2.543776474032832766e+02
-2.233825471247845307e-01 1.823790331218559935e+00 2.543801860598832718e+02
1.806578568751515956e-01 1.823790331218566152e+00 2.543827247165832830e+02
5.846982609753831328e-01 1.823790331218574368e+00 2.543852633732832942e+02
9.887386649753164836e-01 1.823790331218579475e+00 2.543878020298832894e+02
1.392779068975298129e+00 1.823790331218594574e+00 2.543903406865832721e+02
1.796819473075396356e+00 1.823790331218580585e+00 2.543928793432832833e+02
-6.274229512242277540e-01 2.227830735218574443e+00 2.543769808991832804e+02
-2.233825471241337457e-01 2.227830735218563341e+00 2.543795195558832916e+02
1.806578568755365655e-01 2.227830735218572666e+00 2.543820582125832743e+02
5.846982609752859883e-01 2.227830735218581104e+00 2.543845968691832979e+02
9.887386649750610212e-01 2.227830735218573999e+00 2.543871355258832807e+02
1.392779068974919099e+00 2.227830735218594427e+00 2.543896741825832919e+02
1.796819473075079054e+00 2.227830735218593539e+00 2.543922128391832871e+02
-1.031463355224368605e+00 2.631871139318622266e+00 2.543737757384832889e+02
-6.274229512245178553e-01 2.631871139318620045e+00 2.543763143951832717e+02
-2.233825471245818317e-01 2.631871139318626263e+00 2.543788530518832829e+02
1.806578568752767178e-01 2.631871139318608499e+00 2.543813917084832781e+02
5.846982609752333637e-01 2.631871139318611608e+00 2.543839303651832893e+02
9.887386649753638901e-01 2.631871139318602726e+00 2.543864690218832720e+02
1.392779068975113388e+00 2.631871139318614716e+00 2.543890076784832956e+02
1.796819473075312423e+00 2.631871139318618713e+00 2.543915463351832784e+02
-1.031463355224188527e+00 3.035911543318585704e+00 2.543731092344832803e+02
-6.274229512241016327e-01 3.035911543318578598e+00 2.543756478911832914e+02
-2.233825471243243987e-01 3.035911543318575934e+00 2.543781865478832742e+02
1.806578568752637004e-01 3.035911543318574157e+00 2.543807252044832978e+02
5.846982609749713511e-01 3.035911543318570160e+00 2.543832638611832806e+02
9.887386649751742640e-01 3.035911543318569716e+00 2.543858025178832918e+02
1.392779068975072088e+00 3.035911543318561723e+00 2.543883411744832870e+02
1.796819473075220497e+00 3.035911543318574601e+00 2.543908798311832982e+02
2.200859877075389548e+00 3.035911543318575934e+00 2.543934184878832809e+02
-1.031463355225175738e+00 3.439951947318552250e+00 2.543724427304832716e+02
-6.274229512250629748e-01 3.439951947318553582e+00 2.543749813871832828e+02
-2.233825471248326866e-01 3.439951947318546477e+00 2.543775200437832780e+02
1.806578568754272085e-01 3.439951947318538039e+00 2.543800587004832892e+02
5.846982609755030369e-01 3.439951947318542924e+00 2.543825973571832719e+02
9.887386649755324219e-01 3.439951947318543812e+00 2.543851360137832955e+02
1.392779068975437573e+00 3.439951947318562020e+00 2.543876746704832783e+02
1.796819473075227824e+00 3.439951947318566017e+00 2.543902133271832895e+02
2.200859877075107995e+00 3.439951947318563352e+00 2.543927519837832847e+02
-1.031463355224862877e+00 3.843992351418447306e+00 2.543717762264832913e+02
-6.274229512246917162e-01 3.843992351418432207e+00 2.543743148830832865e+02
-2.233825471248354899e-01 3.843992351418410891e+00 2.543768535397832977e+02
1.806578568752138791e-01 3.843992351418414000e+00 2.543793921964832805e+02
5.846982609753164084e-01 3.843992351418417552e+00 2.543819308530832757e+02
9.887386649753308054e-01 3.843992351418404230e+00 2.543844695097832869e+02
1.392779068975094292e+00 3.843992351418409115e+00 2.543870081664832981e+02
1.796819473075094820e+00 3.843992351418374920e+00 2.543895468230832932e+02
2.200859877075356241e+00 3.843992351418379805e+00 2.543920854797832760e+02
-6.274229512249697160e-01 4.248032755418358342e+00 2.543736483790832779e+02
-2.233825471247323780e-01 4.248032755418380546e+00 2.543761870357832890e+02
1.806578568756058156e-01 4.248032755418386763e+00 2.543787256923832842e+02
5.846982609756444793e-01 4.248032755418396533e+00 2.543812643490832954e+02
9.887386649757403667e-01 4.248032755418401862e+00 2.543838030057832782e+02
1.392779068975464885e+00 4.248032755418393869e+00 2.543863416624832894e+02
1.796819473075149887e+00 4.248032755418356565e+00 2.543888803190832846e+02
-6.274229512249700491e-01 4.652073159518461232e+00 2.543729818750832976e+02
-2.233825471252175732e-01 4.652073159518475443e+00 2.543755205317832804e+02
1.806578568747966296e-01 4.652073159518435475e+00 2.543780591883832756e+02
5.846982609749679094e-01 4.652073159518414158e+00 2.543805978450832868e+02
9.887386649752084589e-01 4.652073159518432810e+00 2.543831365017832979e+02
1.392779068975312340e+00 4.652073159518394618e+00 2.543856751583832931e+02
1.796819473075688345e+00 4.652073159518389289e+00 2.543882138150832759e+02
-6.274229512250903973e-01 5.056113563518434439e+00 2.543723153710832889e+02
-2.233825471249796801e-01 5.056113563518391807e+00 2.543748540276832841e+02
1.806578568752299496e-01 5.056113563518390031e+00 2.543773926843832953e+02
5.846982609752167104e-01 5.056113563518385590e+00 2.543799313410832781e+02
9.887386649754259516e-01 5.056113563518389142e+00 2.543824699976832733e+02
1.392779068975247503e+00 5.056113563518379372e+00 2.543850086543832845e+02
1.796819473075347506e+00 5.056113563518373155e+00 2.543875473110832957e+02
-1.031463355225252565e+00 5.460153967518395213e+00 2.543691102103832975e+02
-6.274229512251551233e-01 5.460153967518385443e+00 2.543716488669832927e+02
-2.233825471250667216e-01 5.460153967518364126e+00 2.543741875236832755e+02
1.806578568750644154e-01 5.460153967518383666e+00 2.543767261803832866e+02
5.846982609751161242e-01 5.460153967518363238e+00 2.543792648369832818e+02
9.887386649751982448e-01 5.460153967518370344e+00 2.543818034936832930e+02
1.392779068975282808e+00 5.460153967518357909e+00 2.543843421503832758e+02
1.796819473075308649e+00 5.460153967518330376e+00 2.543868808070832870e+02
2.200859877075634685e+00 5.460153967518325935e+00 2.543894194636832822e+02
-1.031463355225171519e+00 5.864194371618346224e+00 2.543684437063832888e+02
-6.274229512251859875e-01 5.864194371618327573e+00 2.543709823629832840e+02
-2.233825471250013572e-01 5.864194371618344448e+00 2.543735210196832952e+02
1.806578568751725233e-01 5.864194371618332902e+00 2.543760596763832780e+02
5.846982609751046889e-01 5.864194371618313362e+00 2.543785983329832732e+02
9.887386649751565004e-01 5.864194371618292045e+00 2.543811369896832844e+02
1.392779068975204204e+00 5.864194371618283164e+00 2.543836756463832955e+02
1.796819473075344398e+00 5.864194371618276946e+00 2.543862143029832907e+02
2.200859877075584947e+00 5.864194371618288493e+00 2.543887529596832735e+02
-1.031463355224941925e+00 6.268234775618314103e+00 2.543677772022832926e+02
-6.274229512248740148e-01 6.268234775618330978e+00 2.543703158589832753e+02
-2.233825471248803707e-01 6.268234775618330090e+00 2.543728545156832865e+02
1.806578568751724123e-01 6.268234775618334531e+00 2.543753931722832817e+02
5.846982609752444660e-01 6.268234775618312327e+00 2.543779318289832929e+02
9.887386649752567536e-01 6.268234775618291010e+00 2.543804704856832757e+02
1.392779068975132706e+00 6.268234775618299892e+00 2.543830091422832709e+02
1.796819473075047746e+00 6.268234775618316768e+00 2.543855477989832821e+02
-1.031463355224664813e+00 6.672275179718330840e+00 2.543671106982832839e+02
-6.274229512246980445e-01 6.672275179718332616e+00 2.543696493549832951e+02
-2.233825471246793093e-01 6.672275179718311300e+00 2.543721880115832903e+02
1.806578568754513281e-01 6.672275179718337057e+00 2.543747266682832731e+02
5.846982609751723015e-01 6.672275179718334392e+00 2.543772653249832842e+02
9.887386649750679046e-01 6.672275179718315741e+00 2.543798039815832794e+02
1.392779068974789647e+00 6.672275179718305971e+00 2.543823426382832906e+02
1.796819473074752649e+00 6.672275179718309523e+00 2.543848812949832734e+02
-1.031463355224617739e+00 7.076315583718392865e+00 2.543664441942832752e+02
-6.274229512245639295e-01 7.076315583718387536e+00 2.543689828509832864e+02
-2.233825471245302896e-01 7.076315583718382207e+00 2.543715215075832816e+02
1.806578568754877989e-01 7.076315583718367108e+00 2.543740601642832928e+02
5.846982609752220394e-01 7.076315583718333357e+00 2.543765988209832756e+02
9.887386649749762002e-01 7.076315583718331581e+00 2.543791374775832708e+02
1.392779068974617118e+00 7.076315583718331581e+00 2.543816761342832820e+02
1.796819473074724671e+00 7.076315583718323587e+00 2.543842147909832931e+02
-6.274229512244708928e-01 7.480355987718420252e+00 2.543683163468832902e+02
-2.233825471244548500e-01 7.480355987718424693e+00 2.543708550035832729e+02
1.806578568754486913e-01 7.480355987718425581e+00 2.543733936602832841e+02
5.846982609752656712e-01 7.480355987718391830e+00 2.543759323168832793e+02
9.887386649749350109e-01 7.480355987718412258e+00 2.543784709735832905e+02
1.392779068974796308e+00 7.480355987718401600e+00 2.543810096302832733e+02
1.796819473074925622e+00 7.480355987718406929e+00 2.543835482868832969e+02
-1.031463355224710998e+00 7.884396391818458305e+00 2.543651111861832703e+02
-6.274229512245278473e-01 7.884396391818457417e+00 2.543676498428832815e+02
-2.233825471245267924e-01 7.884396391818445871e+00 2.543701884995832927e+02
1.806578568754108882e-01 7.884396391818436989e+00 2.543727271561832879e+02
5.846982609752627846e-01 7.884396391818421002e+00 2.543752658128832707e+02
9.887386649751762624e-01 7.884396391818423666e+00 2.543778044695832818e+02
1.392779068975185552e+00 7.884396391818429883e+00 2.543803431261832770e+02
1.796819473075041307e+00 7.884396391818440541e+00 2.543828817828832882e+02
-1.031463355224726319e+00 8.288436795818446612e+00 2.543644446821832901e+02
-6.274229512246940477e-01 8.288436795818457270e+00 2.543669833388832728e+02
-2.233825471245791394e-01 8.288436795818437730e+00 2.543695219954832965e+02
1.806578568753337000e-01 8.288436795818409308e+00 2.543720606521832792e+02
5.846982609753300641e-01 8.288436795818444836e+00 2.543745993088832904e+02
9.887386649753838741e-01 8.288436795818441283e+00 2.543771379655832732e+02
1.392779068975386725e+00 8.288436795818448388e+00 2.543796766221832968e+02
1.796819473075328633e+00 8.288436795818460823e+00 2.543822152788832796e+02
2.200859877075412196e+00 8.288436795818453717e+00 2.543847539355832907e+02
-1.031463355225017420e+00 8.692477199918432262e+00 2.543637781781832814e+02
-6.274229512248006291e-01 8.692477199918458908e+00 2.543663168348832926e+02
-2.233825471247502248e-01 8.692477199918485553e+00 2.543688554914832878e+02
1.806578568752938985e-01 8.692477199918476671e+00 2.543713941481832705e+02
5.846982609754778348e-01 8.692477199918464237e+00 2.543739328048832817e+02
9.887386649756172430e-01 8.692477199918467790e+00 2.543764714614832769e+02
1.392779068975439127e+00 8.692477199918455355e+00 2.543790101181832881e+02
1.796819473075468299e+00 8.692477199918460684e+00 2.543815487748832709e+02
2.200859877075489024e+00 8.692477199918444697e+00 2.543840874314832945e+02
-1.031463355225019640e+00 9.096517603918453432e+00 2.543631116741832727e+02
-6.274229512247770923e-01 9.096517603918453432e+00 2.543656503307832963e+02
-2.233825471247365968e-01 9.096517603918414352e+00 2.543681889874832791e+02
1.806578568754655667e-01 9.096517603918423234e+00 2.543707276441832903e+02
5.846982609755860816e-01 9.096517603918412576e+00 2.543732663007832855e+02
9.887386649755675050e-01 9.096517603918432116e+00 2.543758049574832967e+02
1.392779068975527501e+00 9.096517603918401917e+00 2.543783436141832794e+02
1.796819473075513818e+00 9.096517603918371719e+00 2.543808822707832746e+02
-1.031463355224799816e+00 9.500558007918447956e+00 2.543624451700832765e+02
-6.274229512248649110e-01 9.500558007918467496e+00 2.543649838267832877e+02
-2.233825471246855543e-01 9.500558007918437298e+00 2.543675224834832704e+02
1.806578568752963687e-01 9.500558007918453285e+00 2.543700611400832940e+02
5.846982609753987870e-01 9.500558007918456838e+00 2.543725997967832768e+02
9.887386649754601464e-01 9.500558007918440850e+00 2.543751384534832880e+02
1.392779068975419365e+00 9.500558007918451509e+00 2.543776771101832708e+02
1.796819473075376150e+00 9.500558007918417758e+00 2.543802157667832944e+02
2.200859877075569848e+00 9.500558007918435521e+00 2.543827544234832772e+02
-1.031463355224860878e+00 9.904598412018463804e+00 2.543617786660832962e+02
-6.274229512247637697e-01 9.904598412018454923e+00 2.543643173227832790e+02
-2.233825471249153705e-01 9.904598412018476239e+00 2.543668559794832902e+02
1.806578568752077174e-01 9.904598412018476239e+00 2.543693946360832854e+02
5.846982609752596760e-01 9.904598412018451370e+00 2.543719332927832966e+02
9.887386649753406864e-01 9.904598412018440712e+00 2.543744719494832793e+02
1.392779068975332324e+00 9.904598412018458475e+00 2.543770106060832745e+02
1.796819473075383256e+00 9.904598412018446041e+00 2.543795492627832857e+02
2.200859877075552973e+00 9.904598412018442488e+00 2.543820879194832969e+02
-6.274229512247487817e-01 1.030863881601847076e+01 2.543636508187832703e+02
-2.233825471246884131e-01 1.030863881601846543e+01 2.543661894753832939e+02
1.806578568752810199e-01 1.030863881601843879e+01 2.543687281320832767e+02
5.846982609752985338e-01 1.030863881601842991e+01 2.543712667887832879e+02
9.887386649753397982e-01 1.030863881601844945e+01 2.543738054453832831e+02
1.392779068975252388e+00 1.030863881601839616e+01 2.543763441020832943e+02
1.796819473075391471e+00 1.030863881601839971e+01 2.543788827587832770e+02
2.200859877075553861e+00 1.030863881601842991e+01 2.543814214153832722e+02
-6.274229512246932705e-01 1.071267922011844753e+01 2.543629843146832741e+02
-2.233825471246689842e-01 1.071267922011847062e+01 2.543655229713832853e+02
1.806578568752790215e-01 1.071267922011845997e+01 2.543680616280832965e+02
5.846982609752769955e-01 1.071267922011847951e+01 2.543706002846832916e+02
9.887386649754235091e-01 1.071267922011847595e+01 2.543731389413832744e+02
1.392779068975384060e+00 1.071267922011847240e+01 2.543756775980832856e+02
1.796819473075175866e+00 1.071267922011846174e+01 2.543782162546832808e+02
2.200859877075514781e+00 1.071267922011845464e+01 2.543807549113832920e+02
-6.274229512247299079e-01 1.111671962411848291e+01 2.543623178106832938e+02
-2.233825471246531080e-01 1.111671962411847758e+01 2.543648564673832766e+02
1.806578568753315905e-01 1.111671962411846692e+01 2.543673951240832878e+02
5.846982609752364723e-01 1.111671962411851666e+01 2.543699337806832830e+02
9.887386649753836521e-01 1.111671962411850600e+01 2.543724724373832942e+02
1.392779068975297685e+00 1.111671962411847403e+01 2.543750110940832769e+02
1.796819473075248030e+00 1.111671962411847403e+01 2.543775497506832721e+02
2.200859877075533877e+00 1.111671962411846515e+01 2.543800884073832833e+02
-1.031463355224711664e+00 1.152076002821846501e+01 2.543591126499832740e+02
-6.274229512247024854e-01 1.152076002821847389e+01 2.543616513066832852e+02
-2.233825471247054550e-01 1.152076002821846856e+01 2.543641899633832963e+02
1.806578568752947034e-01 1.152076002821846679e+01 2.543667286199832915e+02
5.846982609752238158e-01 1.152076002821847744e+01 2.543692672766832743e+02
9.887386649753538981e-01 1.152076002821847389e+01 2.543718059333832855e+02
1.392779068975311674e+00 1.152076002821849698e+01 2.543743445899832807e+02
1.796819473075265128e+00 1.152076002821846856e+01 2.543768832466832919e+02
2.200859877075333593e+00 1.152076002821844369e+01 2.543794219033832746e+02
-1.031463355224851997e+00 1.192480043221847374e+01 2.543584461459832937e+02
-6.274229512247169183e-01 1.192480043221845420e+01 2.543609848026832765e+02
-2.233825471247589123e-01 1.192480043221850572e+01 2.543635234592832717e+02
1.806578568754216851e-01 1.192480043221852704e+01 2.543660621159832829e+02
5.846982609754199922e-01 1.192480043221850750e+01 2.543686007726832941e+02
9.887386649753377998e-01 1.192480043221853236e+01 2.543711394292832892e+02
1.392779068975255496e+00 1.192480043221852704e+01 2.543736780859832720e+02
1.796819473075259799e+00 1.192480043221851815e+01 2.543762167426832832e+02
-1.031463355224782275e+00 1.232884083621847182e+01 2.543577796419832850e+02
-6.274229512247229135e-01 1.232884083621851268e+01 2.543603182985832802e+02
-2.233825471248145067e-01 1.232884083621852866e+01 2.543628569552832914e+02
1.806578568754019509e-01 1.232884083621852334e+01 2.543653956119832742e+02
5.846982609754163285e-01 1.232884083621854465e+01 2.543679342686832854e+02
9.887386649753197032e-01 1.232884083621854643e+01 2.543704729252832806e+02
1.392779068975373624e+00 1.232884083621853755e+01 2.543730115819832918e+02
1.796819473075238260e+00 1.232884083621853399e+01 2.543755502386832745e+02
-1.031463355224872425e+00 1.273288124031851076e+01 2.543571131379832764e+02
-6.274229512247243568e-01 1.273288124031849300e+01 2.543596517945832716e+02
-2.233825471247972705e-01 1.273288124031852320e+01 2.543621904512832828e+02
1.806578568752895686e-01 1.273288124031851964e+01 2.543647291079832939e+02
5.846982609753219595e-01 1.273288124031852497e+01 2.543672677645832891e+02
9.887386649753925338e-01 1.273288124031851787e+01 2.543698064212832719e+02
1.392779068975269041e+00 1.273288124031852142e+01 2.543723450779832831e+02
1.796819473075206508e+00 1.273288124031852142e+01 2.543748837345832783e+02
2.200859877075192372e+00 1.273288124031849833e+01 2.543774223912832895e+02
-6.274229512247416762e-01 1.313692164431849996e+01 2.543589852905832913e+02
-2.233825471248120365e-01 1.313692164431850706e+01 2.543615239472832741e+02
1.806578568752895686e-01 1.313692164431851950e+01 2.543640626038832977e+02
5.846982609753068605e-01 1.313692164431851239e+01 2.543666012605832805e+02
9.887386649753765466e-01 1.313692164431851239e+01 2.543691399172832917e+02
1.392779068975321666e+00 1.313692164431852838e+01 2.543716785738832868e+02
1.796819473075242701e+00 1.313692164431849285e+01 2.543742172305832980e+02
2.200859877075193261e+00 1.313692164431849108e+01 2.543767558872832808e+02
2.604900281175318799e+00 1.354096204841849094e+01 2.543786280398832957e+02
