-1.425450890930706649e+00 -1.272430351452547193e+01 2.527965979932852747e+02
-1.021410486930725448e+00 -1.272430351452547903e+01 2.527991366498852699e+02
-2.133296788306174308e-01 -1.272430351452546837e+01 2.528042139632852638e+02
1.907107251694080685e-01 -1.272430351452547548e+01 2.528067526198852875e+02
1.402831937269488183e+00 -1.272430351452548614e+01 2.528143685898852766e+02
2.210912745369446597e+00 -1.272430351452547370e+01 2.528194459032852706e+02
2.614953149469372740e+00 -1.272430351452547370e+01 2.528219845598852658e+02
-1.021410486930708572e+00 -1.232026311042547029e+01 2.527984701458852612e+02
-6.173700829307574578e-01 -1.232026311042547206e+01 2.528010088025852724e+02
-2.133296788306341674e-01 -1.232026311042547562e+01 2.528035474591852676e+02
1.907107251693909433e-01 -1.232026311042547739e+01 2.528060861158852788e+02
5.947511292694739327e-01 -1.232026311042548095e+01 2.528086247725852616e+02
9.987915332694546899e-01 -1.232026311042548272e+01 2.528111634291852852e+02
1.402831937269479523e+00 -1.232026311042548450e+01 2.528137020858852679e+02
1.806872341369474055e+00 -1.232026311042548450e+01 2.528162407425852791e+02
2.210912745369456811e+00 -1.232026311042548272e+01 2.528187793991852743e+02
-1.021410486930689476e+00 -1.191622270642546688e+01 2.527978036418852810e+02
-6.173700829307033899e-01 -1.191622270642546866e+01 2.528003422984852762e+02
-2.133296788306333902e-01 -1.191622270642548287e+01 2.528028809551852873e+02
1.907107251693493100e-01 -1.191622270642548465e+01 2.528054196118852701e+02
5.947511292694452889e-01 -1.191622270642547754e+01 2.528079582684852653e+02
9.987915332694172754e-01 -1.191622270642547754e+01 2.528104969251852765e+02
1.402831937269454654e+00 -1.191622270642548287e+01 2.528130355818852877e+02
1.806872341369427648e+00 -1.191622270642547576e+01 2.528155742384852829e+02
2.210912745369473242e+00 -1.191622270642547399e+01 2.528181128951852656e+02
-1.021410486930671047e+00 -1.151218230242545815e+01 2.527971371378852723e+02
-6.173700829306956184e-01 -1.151218230242545815e+01 2.527996757944852675e+02
-2.133296788306955349e-01 -1.151218230242545992e+01 2.528022144511852787e+02
1.907107251693896943e-01 -1.151218230242546703e+01 2.528047531078852614e+02
5.947511292694449558e-01 -1.151218230242547413e+01 2.528072917644852851e+02
9.987915332694164983e-01 -1.151218230242547058e+01 2.528098304211852678e+02
1.402831937269407359e+00 -1.151218230242546703e+01 2.528123690778852790e+02
1.806872341369426094e+00 -1.151218230242545992e+01 2.528149077344852742e+02
-1.425450890930607395e+00 -1.110814189832549381e+01 2.527939319771852809e+02
-1.021410486930618422e+00 -1.110814189832547427e+01 2.527964706337852760e+02
-6.173700829306363325e-01 -1.110814189832545473e+01 2.527990092904852872e+02
-2.133296788306349445e-01 -1.110814189832546894e+01 2.528015479471852700e+02
1.907107251694072358e-01 -1.110814189832546717e+01 2.528040866037852652e+02
5.947511292694017682e-01 -1.110814189832546539e+01 2.528066252604852764e+02
9.987915332693989567e-01 -1.110814189832547072e+01 2.528091639171852876e+02
1.402831937269431783e+00 -1.110814189832546539e+01 2.528117025737852828e+02
1.806872341369397006e+00 -1.110814189832545296e+01 2.528142412304852655e+02
-1.021410486930598438e+00 -1.070410149432549751e+01 2.527958041297852674e+02
-6.173700829306335569e-01 -1.070410149432548153e+01 2.527983427864852786e+02
-2.133296788306361658e-01 -1.070410149432545666e+01 2.528008814430852738e+02
1.907107251694064864e-01 -1.070410149432546021e+01 2.528034200997852849e+02
5.947511292693854479e-01 -1.070410149432547620e+01 2.528059587564852677e+02
9.987915332694164983e-01 -1.070410149432547087e+01 2.528084974130852629e+02
1.402831937269389817e+00 -1.070410149432546731e+01 2.528110360697852741e+02
1.806872341369381463e+00 -1.070410149432547264e+01 2.528135747264852853e+02
2.210912745369457699e+00 -1.070410149432549396e+01 2.528161133830852805e+02
-6.173700829305894811e-01 -1.030006109022549943e+01 2.527976762823852823e+02
-2.133296788306421610e-01 -1.030006109022548344e+01 2.528002149390852651e+02
1.907107251693652417e-01 -1.030006109022547101e+01 2.528027535957852763e+02
5.947511292693891116e-01 -1.030006109022547989e+01 2.528052922524852875e+02
9.987915332694176085e-01 -1.030006109022548344e+01 2.528078309090852827e+02
1.402831937269418017e+00 -1.030006109022548699e+01 2.528103695657852654e+02
1.806872341369364809e+00 -1.030006109022549943e+01 2.528129082224852766e+02
2.210912745369375543e+00 -1.030006109022549943e+01 2.528154468790852718e+02
-1.021410486930615757e+00 -9.896020686225501350e+00 2.527944711217852785e+02
-6.173700829305808213e-01 -9.896020686225499574e+00 2.527970097783852736e+02
-2.133296788306497660e-01 -9.896020686225496021e+00 2.527995484350852848e+02
1.907107251693591632e-01 -9.896020686225496021e+00 2.528020870917852676e+02
5.947511292693985485e-01 -9.896020686225487140e+00 2.528046257483852628e+02
9.987915332693604320e-01 -9.896020686225508456e+00 2.528071644050852740e+02
1.402831937269429563e+00 -9.896020686225513785e+00 2.528097030617852852e+02
1.806872341369382573e+00 -9.896020686225503127e+00 2.528122417183852804e+02
2.210912745369395527e+00 -9.896020686225510232e+00 2.528147803750852631e+02
-1.021410486930649508e+00 -9.491980282125499713e+00 2.527938046176852822e+02
-6.173700829305567295e-01 -9.491980282125492607e+00 2.527963432743852650e+02
-2.133296788306224545e-01 -9.491980282125487278e+00 2.527988819310852762e+02
1.907107251694030448e-01 -9.491980282125478396e+00 2.528014205876852714e+02
5.947511292694489526e-01 -9.491980282125481949e+00 2.528039592443852825e+02
9.987915332694183856e-01 -9.491980282125490831e+00 2.528064979010852653e+02
1.402831937269408691e+00 -9.491980282125501489e+00 2.528090365576852889e+02
1.806872341369424317e+00 -9.491980282125496160e+00 2.528115752143852717e+02
2.210912745369470578e+00 -9.491980282125485502e+00 2.528141138710852829e+02
2.614953149469415816e+00 -9.491980282125503265e+00 2.528166525276852781e+02
-1.021410486930694805e+00 -9.087939878125503412e+00 2.527931381136852735e+02
-6.173700829306281168e-01 -9.087939878125483872e+00 2.527956767703852847e+02
-2.133296788305831249e-01 -9.087939878125457227e+00 2.527982154269852799e+02
1.907107251694058758e-01 -9.087939878125453674e+00 2.528007540836852627e+02
5.947511292694026563e-01 -9.087939878125474991e+00 2.528032927403852739e+02
9.987915332694624615e-01 -9.087939878125473214e+00 2.528058313970852851e+02
1.402831937269469087e+00 -9.087939878125489201e+00 2.528083700536852803e+02
1.806872341369497148e+00 -9.087939878125485649e+00 2.528109087103852630e+02
2.210912745369514543e+00 -9.087939878125503412e+00 2.528134473670852742e+02
2.614953149469406934e+00 -9.087939878125505189e+00 2.528159860236852694e+02
-1.021410486930676376e+00 -8.683899474125510665e+00 2.527924716096852649e+02
-6.173700829307566806e-01 -8.683899474125500006e+00 2.527950102663852761e+02
-2.133296788307322556e-01 -8.683899474125496454e+00 2.527975489229852712e+02
1.907107251693918315e-01 -8.683899474125507112e+00 2.528000875796852824e+02
5.947511292694860341e-01 -8.683899474125515994e+00 2.528026262363852652e+02
9.987915332695826987e-01 -8.683899474125514217e+00 2.528051648929852888e+02
1.402831937269643836e+00 -8.683899474125530205e+00 2.528077035496852716e+02
1.806872341369610835e+00 -8.683899474125514217e+00 2.528102422063852828e+02
2.210912745369536303e+00 -8.683899474125526652e+00 2.528127808629852780e+02
2.614953149469406934e+00 -8.683899474125500006e+00 2.528153195196852607e+02
-1.021410486930751205e+00 -8.279859070025501921e+00 2.527918051056852846e+02
-6.173700829307222637e-01 -8.279859070025509027e+00 2.527943437622852798e+02
-2.133296788306576763e-01 -8.279859070025503698e+00 2.527968824189852626e+02
1.907107251694451222e-01 -8.279859070025510803e+00 2.527994210756852738e+02
5.947511292695878415e-01 -8.279859070025514356e+00 2.528019597322852690e+02
9.987915332696251092e-01 -8.279859070025516132e+00 2.528044983889852801e+02
1.402831937269623408e+00 -8.279859070025517909e+00 2.528070370456852629e+02
1.806872341369678558e+00 -8.279859070025507251e+00 2.528095757022852865e+02
2.210912745369508769e+00 -8.279859070025510803e+00 2.528121143589852693e+02
2.614953149469469107e+00 -8.279859070025525014e+00 2.528146530156852805e+02
-1.021410486930648842e+00 -7.875818666025538484e+00 2.527911386015852884e+02
-6.173700829306094651e-01 -7.875818666025527826e+00 2.527936772582852711e+02
-2.133296788305855674e-01 -7.875818666025518944e+00 2.527962159149852823e+02
1.907107251694343808e-01 -7.875818666025509174e+00 2.527987545715852775e+02
5.947511292694560581e-01 -7.875818666025497627e+00 2.528012932282852887e+02
9.987915332695397330e-01 -7.875818666025506509e+00 2.528038318849852715e+02
1.402831937269600537e+00 -7.875818666025518056e+00 2.528063705415852667e+02
1.806872341369552215e+00 -7.875818666025525161e+00 2.528089091982852779e+02
2.210912745369561616e+00 -7.875818666025531378e+00 2.528114478549852606e+02
2.614953149469546378e+00 -7.875818666025537595e+00 2.528139865116852718e+02
-1.425450890930567871e+00 -7.471778261925502207e+00 2.527879334409852845e+02
-1.021410486930522943e+00 -7.471778261925513753e+00 2.527904720975852797e+02
-6.173700829307082749e-01 -7.471778261925507536e+00 2.527930107542852625e+02
-2.133296788306848213e-01 -7.471778261925512865e+00 2.527955494109852737e+02
1.907107251693496708e-01 -7.471778261925507536e+00 2.527980880675852688e+02
5.947511292693771212e-01 -7.471778261925499542e+00 2.528006267242852800e+02
9.987915332694087267e-01 -7.471778261925499542e+00 2.528031653809852628e+02
1.402831937269512608e+00 -7.471778261925519971e+00 2.528057040375852864e+02
1.806872341369585966e+00 -7.471778261925511977e+00 2.528082426942852692e+02
2.210912745369561172e+00 -7.471778261925524411e+00 2.528107813509852804e+02
-1.425450890930447967e+00 -7.067737857925522782e+00 2.527872669368852883e+02
-1.021410486930576011e+00 -7.067737857925493472e+00 2.527898055935852710e+02
-6.173700829306365545e-01 -7.067737857925486367e+00 2.527923442502852822e+02
-2.133296788306787983e-01 -7.067737857925486367e+00 2.527948829068852774e+02
1.907107251692956584e-01 -7.067737857925479261e+00 2.527974215635852886e+02
5.947511292693247187e-01 -7.067737857925487255e+00 2.527999602202852714e+02
9.987915332693644288e-01 -7.067737857925480149e+00 2.528024988768852666e+02
1.402831937269545470e+00 -7.067737857925478373e+00 2.528050375335852777e+02
1.806872341369680113e+00 -7.067737857925488143e+00 2.528075761902852889e+02
2.210912745369611798e+00 -7.067737857925491696e+00 2.528101148468852841e+02
-1.021410486930529826e+00 -6.663697453925482073e+00 2.527891390895852624e+02
-6.173700829306104643e-01 -6.663697453925484737e+00 2.527916777461852860e+02
-2.133296788306803804e-01 -6.663697453925471414e+00 2.527942164028852687e+02
1.907107251693285765e-01 -6.663697453925473191e+00 2.527967550595852799e+02
5.947511292694338536e-01 -6.663697453925470526e+00 2.527992937161852751e+02
9.987915332694571324e-01 -6.663697453925474079e+00 2.528018323728852863e+02
1.402831937269563678e+00 -6.663697453925486514e+00 2.528043710295852691e+02
1.806872341369623713e+00 -6.663697453925487402e+00 2.528069096861852643e+02
2.210912745369482568e+00 -6.663697453925481184e+00 2.528094483428852755e+02
-1.021410486930590000e+00 -6.259657049825495534e+00 2.527884725854852661e+02
-6.173700829305678317e-01 -6.259657049825488428e+00 2.527910112421852773e+02
-2.133296788306216774e-01 -6.259657049825460895e+00 2.527935498988852885e+02
1.907107251694223904e-01 -6.259657049825444020e+00 2.527960885555852713e+02
5.947511292694589446e-01 -6.259657049825441355e+00 2.527986272121852664e+02
9.987915332694291548e-01 -6.259657049825443131e+00 2.528011658688852776e+02
1.402831937269496176e+00 -6.259657049825463560e+00 2.528037045255852888e+02
1.806872341369531343e+00 -6.259657049825478659e+00 2.528062431821852840e+02
2.210912745369446153e+00 -6.259657049825485764e+00 2.528087818388852668e+02
-1.021410486930533601e+00 -5.855616645825494793e+00 2.527878060814852859e+02
-6.173700829305772686e-01 -5.855616645825480582e+00 2.527903447381852686e+02
-2.133296788305556191e-01 -5.855616645825469035e+00 2.527928833948852798e+02
1.907107251695270012e-01 -5.855616645825469035e+00 2.527954220514852750e+02
5.947511292695636387e-01 -5.855616645825464595e+00 2.527979607081852862e+02
9.987915332695280757e-01 -5.855616645825444166e+00 2.528004993648852690e+02
1.402831937269487073e+00 -5.855616645825458377e+00 2.528030380214852642e+02
1.806872341369470281e+00 -5.855616645825465483e+00 2.528055766781852753e+02
2.210912745369408849e+00 -5.855616645825480582e+00 2.528081153348852865e+02
2.614953149469368299e+00 -5.855616645825484134e+00 2.528106539914852817e+02
-1.021410486930574013e+00 -5.451576241725512695e+00 2.527871395774852772e+02
-6.173700829305239779e-01 -5.451576241725503813e+00 2.527896782341852884e+02
-2.133296788303849501e-01 -5.451576241725502925e+00 2.527922168907852836e+02
1.907107251695720762e-01 -5.451576241725495819e+00 2.527947555474852663e+02
5.947511292695071283e-01 -5.451576241725497596e+00 2.527972942041852775e+02
9.987915332695247450e-01 -5.451576241725498484e+00 2.527998328607852727e+02
1.402831937269447549e+00 -5.451576241725500260e+00 2.528023715174852839e+02
1.806872341369437196e+00 -5.451576241725502925e+00 2.528049101741852667e+02
2.210912745369397747e+00 -5.451576241725510918e+00 2.528074488307852619e+02
-1.021410486930574457e+00 -5.047535837725509289e+00 2.527864730734852685e+02
-6.173700829305144300e-01 -5.047535837725511065e+00 2.527890117300852637e+02
-2.133296788304681890e-01 -5.047535837725497743e+00 2.527915503867852749e+02
1.907107251695212558e-01 -5.047535837725497743e+00 2.527940890434852861e+02
5.947511292694781515e-01 -5.047535837725489749e+00 2.527966277001852688e+02
9.987915332694747850e-01 -5.047535837725489749e+00 2.527991663567852640e+02
1.402831937269498397e+00 -5.047535837725499519e+00 2.528017050134852752e+02
1.806872341369517798e+00 -5.047535837725516394e+00 2.528042436701852864e+02
2.210912745369444821e+00 -5.047535837725526164e+00 2.528067823267852816e+02
-1.425450890930579195e+00 -4.643495433725513877e+00 2.527832679127852771e+02
-1.021410486930636186e+00 -4.643495433725490784e+00 2.527858065694852883e+02
-6.173700829306492111e-01 -4.643495433725500554e+00 2.527883452260852835e+02
-2.133296788305952818e-01 -4.643495433725476573e+00 2.527908838827852662e+02
1.907107251694454275e-01 -4.643495433725479238e+00 2.527934225394852774e+02
5.947511292694608320e-01 -4.643495433725492560e+00 2.527959611960852726e+02
9.987915332695859183e-01 -4.643495433725493449e+00 2.527984998527852838e+02
1.402831937269638063e+00 -4.643495433725506771e+00 2.528010385094852666e+02
1.806872341369579971e+00 -4.643495433725520982e+00 2.528035771660852618e+02
-6.173700829306877358e-01 -4.239455029625485594e+00 2.527876787220852748e+02
-2.133296788307675051e-01 -4.239455029625513127e+00 2.527902173787852860e+02
1.907107251693898331e-01 -4.239455029625520233e+00 2.527927560353852812e+02
5.947511292695110141e-01 -4.239455029625536220e+00 2.527952946920852639e+02
9.987915332696278847e-01 -4.239455029625542437e+00 2.527978333487852751e+02
1.402831937269600537e+00 -4.239455029625532667e+00 2.528003720053852703e+02
1.806872341369555990e+00 -4.239455029625543325e+00 2.528029106620852815e+02
-1.021410486930742545e+00 -3.835414625625481744e+00 2.527844735613852833e+02
-6.173700829307515736e-01 -3.835414625625478635e+00 2.527870122180852661e+02
-2.133296788308191028e-01 -3.835414625625473750e+00 2.527895508746852613e+02
1.907107251691899930e-01 -3.835414625625476415e+00 2.527920895313852725e+02
5.947511292693382634e-01 -3.835414625625481744e+00 2.527946281880852837e+02
9.987915332694639048e-01 -3.835414625625487961e+00 2.527971668446852789e+02
1.402831937269446660e+00 -3.835414625625491514e+00 2.527997055013852616e+02
1.806872341369459400e+00 -3.835414625625492846e+00 2.528022441580852728e+02
-1.021410486930917960e+00 -3.431374221525488100e+00 2.527838070573852747e+02
-6.173700829308842453e-01 -3.431374221525488988e+00 2.527863457140852859e+02
-2.133296788309602954e-01 -3.431374221525485879e+00 2.527888843706852811e+02
1.907107251690889627e-01 -3.431374221525487211e+00 2.527914230273852638e+02
5.947511292691664009e-01 -3.431374221525488544e+00 2.527939616840852750e+02
9.987915332692649528e-01 -3.431374221525486767e+00 2.527965003406852702e+02
1.402831937269256146e+00 -3.431374221525486767e+00 2.527990389973852814e+02
1.806872341369298640e+00 -3.431374221525489432e+00 2.528015776540852642e+02
-1.021410486930719896e+00 -3.027333817525514448e+00 2.527831405533852660e+02
-6.173700829308179650e-01 -3.027333817525500681e+00 2.527856792099852612e+02
-2.133296788308003400e-01 -3.027333817525501125e+00 2.527882178666852724e+02
1.907107251692715666e-01 -3.027333817525500237e+00 2.527907565233852836e+02
5.947511292692978513e-01 -3.027333817525500237e+00 2.527932951799852788e+02
9.987915332693139137e-01 -3.027333817525500237e+00 2.527958338366852615e+02
1.402831937269206186e+00 -3.027333817525498461e+00 2.527983724933852727e+02
1.806872341369277768e+00 -3.027333817525507342e+00 2.528009111499852679e+02
-1.021410486930765860e+00 -2.623293413525511930e+00 2.527824740492852698e+02
-6.173700829307000593e-01 -2.623293413525517703e+00 2.527850127059852809e+02
-2.133296788306996983e-01 -2.623293413525520812e+00 2.527875513626852637e+02
1.907107251692710392e-01 -2.623293413525528806e+00 2.527900900192852873e+02
5.947511292692445606e-01 -2.623293413525529250e+00 2.527926286759852701e+02
9.987915332691619241e-01 -2.623293413525529694e+00 2.527951673326852813e+02
1.402831937269199969e+00 -2.623293413525523921e+00 2.527977059892852765e+02
1.806872341369182511e+00 -2.623293413525523032e+00 2.528002446459852877e+02
-1.021410486930566908e+00 -2.219253009425512069e+00 2.527818075452852611e+02
-6.173700829305894811e-01 -2.219253009425515177e+00 2.527843462019852723e+02
-2.133296788307185998e-01 -2.219253009425526280e+00 2.527868848586852835e+02
1.907107251693083150e-01 -2.219253009425532053e+00 2.527894235152852787e+02
5.947511292691602947e-01 -2.219253009425528944e+00 2.527919621719852614e+02
9.987915332690947556e-01 -2.219253009425524059e+00 2.527945008286852726e+02
1.402831937269130691e+00 -2.219253009425516066e+00 2.527970394852852678e+02
1.806872341369132107e+00 -2.219253009425509848e+00 2.527995781419852790e+02
-1.425450890930734626e+00 -1.815212605425506442e+00 2.527786023845852696e+02
-1.021410486930700579e+00 -1.815212605425512882e+00 2.527811410412852808e+02
-6.173700829307198212e-01 -1.815212605425513548e+00 2.527836796979852636e+02
-2.133296788306737191e-01 -1.815212605425517989e+00 2.527862183545852872e+02
1.907107251691821381e-01 -1.815212605425518877e+00 2.527887570112852700e+02
5.947511292691560758e-01 -1.815212605425521097e+00 2.527912956679852812e+02
9.987915332691316150e-01 -1.815212605425523984e+00 2.527938343245852764e+02
1.402831937269207074e+00 -1.815212605425520875e+00 2.527963729812852876e+02
1.806872341369149648e+00 -1.815212605425509995e+00 2.527989116379852703e+02
2.210912745369186361e+00 -1.815212605425509773e+00 2.528014502945852655e+02
-1.425450890930641146e+00 -1.411172201325474829e+00 2.527779358805852610e+02
-1.021410486930621975e+00 -1.411172201325472386e+00 2.527804745372852722e+02
-6.173700829306991711e-01 -1.411172201325473496e+00 2.527830131938852674e+02
-2.133296788307420255e-01 -1.411172201325468389e+00 2.527855518505852785e+02
1.907107251693087313e-01 -1.411172201325465503e+00 2.527880905072852613e+02
5.947511292691817220e-01 -1.411172201325462838e+00 2.527906291638852849e+02
9.987915332691307269e-01 -1.411172201325463282e+00 2.527931678205852677e+02
1.402831937268955054e+00 -1.411172201325466613e+00 2.527957064772852789e+02
1.806872341368928492e+00 -1.411172201325464837e+00 2.527982451338852741e+02
2.210912745369034038e+00 -1.411172201325466613e+00 2.528007837905852853e+02
-1.021410486930729666e+00 -1.007131797325470091e+00 2.527798080331852759e+02
-6.173700829306394411e-01 -1.007131797325472311e+00 2.527823466898852871e+02
-2.133296788306399128e-01 -1.007131797325468092e+00 2.527848853465852699e+02
1.907107251693319072e-01 -1.007131797325468536e+00 2.527874240032852811e+02
5.947511292692894136e-01 -1.007131797325466538e+00 2.527899626598852763e+02
9.987915332691871262e-01 -1.007131797325464317e+00 2.527925013165852874e+02
1.402831937268996798e+00 -1.007131797325461653e+00 2.527950399732852702e+02
1.806872341368797708e+00 -1.007131797325457656e+00 2.527975786298852654e+02
2.210912745368772914e+00 -1.007131797325460099e+00 2.528001172865852766e+02
-1.021410486930659056e+00 -6.030913933254706816e-01 2.527791415291852672e+02
-6.173700829306767446e-01 -6.030913933254691273e-01 2.527816801858852784e+02
-2.133296788306481007e-01 -6.030913933254735682e-01 2.527842188425852612e+02
1.907107251693236638e-01 -6.030913933254731241e-01 2.527867574991852848e+02
5.947511292693237195e-01 -6.030913933254734571e-01 2.527892961558852676e+02
9.987915332691736925e-01 -6.030913933254695714e-01 2.527918348125852788e+02
1.402831937269053642e+00 -6.030913933254663517e-01 2.527943734691852740e+02
1.806872341368968904e+00 -6.030913933254631321e-01 2.527969121258852851e+02
-1.425450890931030390e+00 -1.990509892254699320e-01 2.527759363684852758e+02
-1.021410486930928396e+00 -1.990509892254711533e-01 2.527784750251852870e+02
-6.173700829307696702e-01 -1.990509892254729851e-01 2.527810136818852698e+02
-2.133296788306761615e-01 -1.990509892254748725e-01 2.527835523384852650e+02
1.907107251693238581e-01 -1.990509892254745117e-01 2.527860909951852761e+02
5.947511292693270502e-01 -1.990509892254731517e-01 2.527886296518852873e+02
9.987915332692125503e-01 -1.990509892254699875e-01 2.527911683084852825e+02
1.402831937269050311e+00 -1.990509892254666569e-01 2.527937069651852653e+02
1.806872341369082147e+00 -1.990509892254690161e-01 2.527962456218852765e+02
2.210912745369161048e+00 -1.990509892254689328e-01 2.527987842784852717e+02
-1.425450890930852088e+00 2.049894147745242867e-01 2.527752698644852671e+02
-1.021410486930829142e+00 2.049894147745227324e-01 2.527778085211852783e+02
-6.173700829308433891e-01 2.049894147745249251e-01 2.527803471777852735e+02
-2.133296788308029768e-01 2.049894147745242867e-01 2.527828858344852847e+02
1.907107251692571059e-01 2.049894147745221773e-01 2.527854244911852675e+02
5.947511292692959639e-01 2.049894147745213724e-01 2.527879631477852627e+02
9.987915332692697268e-01 2.049894147745215667e-01 2.527905018044852739e+02
1.402831937269275020e+00 2.049894147745219553e-01 2.527930404611852850e+02
1.806872341369366364e+00 2.049894147745217610e-01 2.527955791178852678e+02
2.210912745369450594e+00 2.049894147745214834e-01 2.527981177744852630e+02
-1.021410486930820705e+00 6.090298188745251196e-01 2.527771420171852697e+02
-6.173700829308894633e-01 6.090298188745291164e-01 2.527796806737852648e+02
-2.133296788310165559e-01 6.090298188745317809e-01 2.527822193304852760e+02
1.907107251691457228e-01 6.090298188745277841e-01 2.527847579871852872e+02
5.947511292692446716e-01 6.090298188745237873e-01 2.527872966437852824e+02
9.987915332692696158e-01 6.090298188745230101e-01 2.527898353004852652e+02
1.402831937269363172e+00 6.090298188745200125e-01 2.527923739571852764e+02
1.806872341369217150e+00 6.090298188745209007e-01 2.527949126137852716e+02
2.210912745369322696e+00 6.090298188745193464e-01 2.527974512704852827e+02
2.614953149469352311e+00 6.090298188745186803e-01 2.527999899271852655e+02
3.018993553469218050e+00 6.090298188745215668e-01 2.528025285837852607e+02
-6.173700829310152516e-01 1.013070222874537407e+00 2.527790141697852846e+02
-2.133296788310291292e-01 1.013070222874535187e+00 2.527815528264852674e+02
1.907107251691138872e-01 1.013070222874529858e+00 2.527840914830852626e+02
5.947511292691562979e-01 1.013070222874528969e+00 2.527866301397852737e+02
9.987915332693096948e-01 1.013070222874526749e+00 2.527891687964852849e+02
1.402831937269376494e+00 1.013070222874527193e+00 2.527917074530852801e+02
1.806872341369378576e+00 1.013070222874526305e+00 2.527942461097852629e+02
2.210912745369511878e+00 1.013070222874526749e+00 2.527967847664852741e+02
2.614953149469379845e+00 1.013070222874526527e+00 2.527993234230852693e+02
-6.173700829307225968e-01 1.417110626874531043e+00 2.527783476657852759e+02
-2.133296788307820213e-01 1.417110626874527934e+00 2.527808863223852711e+02
1.907107251692868044e-01 1.417110626874525270e+00 2.527834249790852823e+02
5.947511292692674312e-01 1.417110626874525270e+00 2.527859636357852651e+02
9.987915332692535175e-01 1.417110626874523716e+00 2.527885022923852887e+02
1.402831937269214402e+00 1.417110626874529711e+00 2.527910409490852714e+02
1.806872341369166746e+00 1.417110626874531043e+00 2.527935796057852826e+02
2.210912745369275623e+00 1.417110626874533708e+00 2.527961182624852654e+02
2.614953149469381621e+00 1.417110626874539481e+00 2.527986569190852606e+02
-6.173700829307795512e-01 1.821151030974537788e+00 2.527776811617852672e+02
-2.133296788307682823e-01 1.821151030974531793e+00 2.527802198183852624e+02
1.907107251691979033e-01 1.821151030974535123e+00 2.527827584750852736e+02
5.947511292693204998e-01 1.821151030974539342e+00 2.527852971317852848e+02
9.987915332692851589e-01 1.821151030974542007e+00 2.527878357883852800e+02
1.402831937269275464e+00 1.821151030974550000e+00 2.527903744450852628e+02
1.806872341369327506e+00 1.821151030974542673e+00 2.527929131017852740e+02
2.210912745369427945e+00 1.821151030974540674e+00 2.527954517583852692e+02
2.614953149469431359e+00 1.821151030974536233e+00 2.527979904150852803e+02
-6.173700829304734627e-01 2.225191434974539639e+00 2.527770146576852710e+02
-2.133296788304237523e-01 2.225191434974533422e+00 2.527795533143852822e+02
1.907107251694017125e-01 2.225191434974538307e+00 2.527820919710852650e+02
5.947511292692690965e-01 2.225191434974542748e+00 2.527846306276852886e+02
9.987915332691499337e-01 2.225191434974539195e+00 2.527871692843852713e+02
1.402831937269074736e+00 2.225191434974549853e+00 2.527897079410852825e+02
1.806872341369159418e+00 2.225191434974549409e+00 2.527922465976852777e+02
2.210912745369289834e+00 2.225191434974546745e+00 2.527947852543852889e+02
2.614953149469498861e+00 2.225191434974544080e+00 2.527973239110852717e+02
-1.021410486930548034e+00 2.629231839074564814e+00 2.527738094969852796e+02
-6.173700829306271176e-01 2.629231839074563482e+00 2.527763481536852623e+02
-2.133296788306609792e-01 2.629231839074566590e+00 2.527788868103852735e+02
1.907107251692641559e-01 2.629231839074557264e+00 2.527814254669852687e+02
5.947511292692412299e-01 2.629231839074559041e+00 2.527839641236852799e+02
9.987915332693103609e-01 2.629231839074554156e+00 2.527865027803852627e+02
1.402831937269177764e+00 2.629231839074560817e+00 2.527890414369852863e+02
1.806872341369283097e+00 2.629231839074562593e+00 2.527915800936852690e+02
2.210912745369290278e+00 2.629231839074561261e+00 2.527941187503852802e+02
2.614953149469489091e+00 2.629231839074555044e+00 2.527966574069852754e+02
-1.021410486930452777e+00 3.033272243074545571e+00 2.527731429929852709e+02
-6.173700829304067383e-01 3.033272243074541574e+00 2.527756816496852821e+02
-2.133296788305246716e-01 3.033272243074540242e+00 2.527782203063852648e+02
1.907107251692572725e-01 3.033272243074539354e+00 2.527807589629852885e+02
5.947511292691024520e-01 3.033272243074537133e+00 2.527832976196852712e+02
9.987915332692099968e-01 3.033272243074536689e+00 2.527858362763852824e+02
1.402831937269155782e+00 3.033272243074532692e+00 2.527883749329852776e+02
1.806872341369234469e+00 3.033272243074539354e+00 2.527909135896852888e+02
2.210912745369324028e+00 3.033272243074540242e+00 2.527934522463852716e+02
-1.021410486930975470e+00 3.437312647074527661e+00 2.527724764889852622e+02
-6.173700829309156646e-01 3.437312647074528549e+00 2.527750151456852734e+02
-2.133296788307937619e-01 3.437312647074524552e+00 2.527775538022852686e+02
1.907107251693438421e-01 3.437312647074520111e+00 2.527800924589852798e+02
5.947511292693838936e-01 3.437312647074522776e+00 2.527826311156852626e+02
9.987915332693995119e-01 3.437312647074523220e+00 2.527851697722852862e+02
1.402831937269349183e+00 3.437312647074532990e+00 2.527877084289852689e+02
1.806872341369238244e+00 3.437312647074534766e+00 2.527902470856852801e+02
2.210912745369174814e+00 3.437312647074533434e+00 2.527927857422852753e+02
-1.021410486930809824e+00 3.841353051174472011e+00 2.527718099849852820e+02
-6.173700829307191551e-01 3.841353051174464017e+00 2.527743486415852772e+02
-2.133296788307952607e-01 3.841353051174452915e+00 2.527768872982852884e+02
1.907107251692308769e-01 3.841353051174454691e+00 2.527794259549852711e+02
5.947511292692851947e-01 3.841353051174456468e+00 2.527819646115852663e+02
9.987915332692928194e-01 3.841353051174449362e+00 2.527845032682852775e+02
1.402831937269167550e+00 3.841353051174451583e+00 2.527870419249852887e+02
1.806872341369167856e+00 3.841353051174433819e+00 2.527895805815852839e+02
2.210912745369306265e+00 3.841353051174436484e+00 2.527921192382852666e+02
-1.021410486930979911e+00 4.245393455174433228e+00 2.527711434808852857e+02
-6.173700829308662597e-01 4.245393455174425235e+00 2.527736821375852685e+02
-2.133296788307406655e-01 4.245393455174436781e+00 2.527762207942852797e+02
1.907107251694383776e-01 4.245393455174440334e+00 2.527787594508852749e+02
5.947511292694588336e-01 4.245393455174445663e+00 2.527812981075852861e+02
9.987915332695096460e-01 4.245393455174448327e+00 2.527838367642852688e+02
1.402831937269363616e+00 4.245393455174443886e+00 2.527863754209852800e+02
1.806872341369197166e+00 4.245393455174424346e+00 2.527889140775852752e+02
-1.021410486930785622e+00 4.649433859274477499e+00 2.527704769768852771e+02
-6.173700829308664817e-01 4.649433859274479275e+00 2.527730156335852882e+02
-2.133296788309975434e-01 4.649433859274487268e+00 2.527755542902852710e+02
1.907107251690099980e-01 4.649433859274465952e+00 2.527780929468852662e+02
5.947511292691006757e-01 4.649433859274454406e+00 2.527806316035852774e+02
9.987915332692280934e-01 4.649433859274464176e+00 2.527831702602852886e+02
1.402831937269283014e+00 4.649433859274443748e+00 2.527857089168852838e+02
1.806872341369482049e+00 4.649433859274441971e+00 2.527882475735852665e+02
2.210912745369585597e+00 4.649433859274441971e+00 2.527907862302852777e+02
-1.021410486930856898e+00 5.053474263274469358e+00 2.527698104728852684e+02
-6.173700829309302085e-01 5.053474263274465805e+00 2.527723491295852796e+02
-2.133296788308716163e-01 5.053474263274442713e+00 2.527748877861852748e+02
1.907107251692393979e-01 5.053474263274441824e+00 2.527774264428852860e+02
5.947511292692323481e-01 5.053474263274439160e+00 2.527799650995852687e+02
9.987915332693432235e-01 5.053474263274440936e+00 2.527825037561852639e+02
1.402831937269248597e+00 5.053474263274436495e+00 2.527850424128852751e+02
1.806872341369301749e+00 5.053474263274432943e+00 2.527875810695852863e+02
2.210912745369387089e+00 5.053474263274440048e+00 2.527901197261852815e+02
2.614953149469622318e+00 5.053474263274440048e+00 2.527926583828852642e+02
-1.021410486931016104e+00 5.457514667274444342e+00 2.527691439688852881e+02
-6.173700829309645144e-01 5.457514667274439013e+00 2.527716826254852833e+02
-2.133296788309176906e-01 5.457514667274428355e+00 2.527742212821852661e+02
1.907107251691517458e-01 5.457514667274438125e+00 2.527767599388852773e+02
5.947511292691791684e-01 5.457514667274427467e+00 2.527792985954852725e+02
9.987915332692226533e-01 5.457514667274431908e+00 2.527818372521852837e+02
1.402831937269267248e+00 5.457514667274424802e+00 2.527843759088852664e+02
1.806872341369281099e+00 5.457514667274410591e+00 2.527869145655852776e+02
2.210912745369453702e+00 5.457514667274407927e+00 2.527894532221852728e+02
-1.021410486930973249e+00 5.861555071374418446e+00 2.527684774648852795e+02
-6.173700829309808347e-01 5.861555071374408676e+00 2.527710161214852747e+02
-2.133296788308830794e-01 5.861555071374417558e+00 2.527735547781852858e+02
1.907107251692089778e-01 5.861555071374411341e+00 2.527760934348852686e+02
5.947511292691730622e-01 5.861555071374400683e+00 2.527786320914852638e+02
9.987915332692005599e-01 5.861555071374390025e+00 2.527811707481852750e+02
1.402831937269225726e+00 5.861555071374384696e+00 2.527837094048852862e+02
1.806872341369299972e+00 5.861555071374382031e+00 2.527862480614852814e+02
2.210912745369427501e+00 5.861555071374387360e+00 2.527887867181852641e+02
-1.021410486930851569e+00 6.265595475374401424e+00 2.527678109607852832e+02
-6.173700829308156335e-01 6.265595475374410306e+00 2.527703496174852660e+02
-2.133296788308190195e-01 6.265595475374410306e+00 2.527728882741852772e+02
1.907107251692089223e-01 6.265595475374412082e+00 2.527754269307852724e+02
5.947511292692471141e-01 6.265595475374400536e+00 2.527779655874852835e+02
9.987915332692536285e-01 6.265595475374388990e+00 2.527805042441852663e+02
1.402831937269187979e+00 6.265595475374394319e+00 2.527830429007852615e+02
1.806872341369142987e+00 6.265595475374403200e+00 2.527855815574852727e+02
2.210912745369342680e+00 6.265595475374407641e+00 2.527881202141852839e+02
2.614953149469422033e+00 6.265595475374401424e+00 2.527906588707852791e+02
-1.021410486930705019e+00 6.669635879474411055e+00 2.527671444567852745e+02
-6.173700829307224858e-01 6.669635879474411944e+00 2.527696831134852857e+02
-2.133296788307125769e-01 6.669635879474400397e+00 2.527722217700852809e+02
1.907107251693565819e-01 6.669635879474413720e+00 2.527747604267852637e+02
5.947511292692089224e-01 6.669635879474411944e+00 2.527772990834852749e+02
9.987915332691535975e-01 6.669635879474402174e+00 2.527798377400852701e+02
1.402831937269006124e+00 6.669635879474397733e+00 2.527823763967852813e+02
1.806872341368986667e+00 6.669635879474399509e+00 2.527849150534852640e+02
-1.021410486930679928e+00 7.073676283474443771e+00 2.527664779527852659e+02
-6.173700829306514315e-01 7.073676283474440218e+00 2.527690166094852771e+02
-2.133296788306336955e-01 7.073676283474437554e+00 2.527715552660852723e+02
1.907107251693758998e-01 7.073676283474429560e+00 2.527740939227852834e+02
5.947511292692352347e-01 7.073676283474411797e+00 2.527766325794852662e+02
9.987915332691050807e-01 7.073676283474410909e+00 2.527791712360852614e+02
1.402831937268914864e+00 7.073676283474410909e+00 2.527817098927852726e+02
1.806872341368971790e+00 7.073676283474406468e+00 2.527842485494852838e+02
-1.021410486930629524e+00 7.477716687474448953e+00 2.527658114487852856e+02
-6.173700829306022486e-01 7.477716687474457835e+00 2.527683501053852808e+02
-2.133296788305937552e-01 7.477716687474459611e+00 2.527708887620852636e+02
1.907107251693551941e-01 7.477716687474460500e+00 2.527734274187852748e+02
5.947511292692583273e-01 7.477716687474442736e+00 2.527759660753852700e+02
9.987915332690832093e-01 7.477716687474453394e+00 2.527785047320852811e+02
1.402831937269009899e+00 7.477716687474448065e+00 2.527810433887852639e+02
1.806872341369078150e+00 7.477716687474450730e+00 2.527835820453852875e+02
-1.021410486930729444e+00 7.881757091574478125e+00 2.527651449446852610e+02
-6.173700829306323357e-01 7.881757091574477236e+00 2.527676836013852721e+02
-2.133296788306318359e-01 7.881757091574471907e+00 2.527702222580852833e+02
1.907107251693351824e-01 7.881757091574466578e+00 2.527727609146852785e+02
5.947511292692567730e-01 7.881757091574457696e+00 2.527752995713852613e+02
9.987915332692109960e-01 7.881757091574459473e+00 2.527778382280852725e+02
1.402831937269215734e+00 7.881757091574463026e+00 2.527803768846852677e+02
1.806872341369139434e+00 7.881757091574468355e+00 2.527829155413852789e+02
2.210912745369149057e+00 7.881757091574479013e+00 2.527854541980852616e+02
2.614953149469293248e+00 7.881757091574454144e+00 2.527879928546852852e+02
-1.021410486930737438e+00 8.285797495574472649e+00 2.527644784406852807e+02
-6.173700829307203763e-01 8.285797495574477978e+00 2.527670170973852635e+02
-2.133296788306595637e-01 8.285797495574467320e+00 2.527695557539852871e+02
1.907107251692943262e-01 8.285797495574453109e+00 2.527720944106852698e+02
5.947511292692924112e-01 8.285797495574470872e+00 2.527746330673852810e+02
9.987915332693209081e-01 8.285797495574469096e+00 2.527771717240852638e+02
1.402831937269322315e+00 8.285797495574472649e+00 2.527797103806852874e+02
1.806872341369291757e+00 8.285797495574479754e+00 2.527822490373852702e+02
2.210912745369336019e+00 8.285797495574476201e+00 2.527847876940852814e+02
-1.021410486930891759e+00 8.689837899674463628e+00 2.527638119366852720e+02
-6.173700829307767757e-01 8.689837899674477839e+00 2.527663505933852832e+02
-2.133296788307501302e-01 8.689837899674492050e+00 2.527688892499852784e+02
1.907107251692732319e-01 8.689837899674486721e+00 2.527714279066852612e+02
5.947511292693706819e-01 8.689837899674481392e+00 2.527739665633852724e+02
9.987915332694444759e-01 8.689837899674483168e+00 2.527765052199852676e+02
1.402831937269350071e+00 8.689837899674476063e+00 2.527790438766852787e+02
1.806872341369365476e+00 8.689837899674479615e+00 2.527815825333852615e+02
2.210912745369376875e+00 8.689837899674470734e+00 2.527841211899852851e+02
-1.425450890931010184e+00 9.093878303674474139e+00 2.527606067759852806e+02
-1.021410486930892869e+00 9.093878303674475916e+00 2.527631454326852634e+02
-6.173700829307643412e-01 9.093878303674475916e+00 2.527656840892852870e+02
-2.133296788307429137e-01 9.093878303674454600e+00 2.527682227459852697e+02
1.907107251693641314e-01 9.093878303674459929e+00 2.527707614026852809e+02
5.947511292694278584e-01 9.093878303674452823e+00 2.527733000592852761e+02
9.987915332694181636e-01 9.093878303674463481e+00 2.527758387159852873e+02
1.402831937269396922e+00 9.093878303674447494e+00 2.527783773726852701e+02
1.806872341369389678e+00 9.093878303674433283e+00 2.527809160292852653e+02
-1.425450890930860526e+00 9.497918707674456229e+00 2.527599402719852719e+02
-1.021410486930776296e+00 9.497918707674472216e+00 2.527624789285852671e+02
-6.173700829308108595e-01 9.497918707674482874e+00 2.527650175852852783e+02
-2.133296788307158798e-01 9.497918707674466887e+00 2.527675562419852611e+02
1.907107251692745642e-01 9.497918707674475769e+00 2.527700948985852847e+02
5.947511292693288265e-01 9.497918707674477545e+00 2.527726335552852674e+02
9.987915332693613202e-01 9.497918707674468664e+00 2.527751722119852786e+02
1.402831937269339635e+00 9.497918707674473993e+00 2.527777108686852614e+02
1.806872341369316848e+00 9.497918707674456229e+00 2.527802495252852850e+02
2.210912745369419508e+00 9.497918707674465111e+00 2.527827881819852678e+02
-1.425450890930846537e+00 9.901959111774489841e+00 2.527592737679852632e+02
-1.021410486930808714e+00 9.901959111774480959e+00 2.527618124245852869e+02
-6.173700829307572358e-01 9.901959111774477407e+00 2.527643510812852696e+02
-2.133296788308375602e-01 9.901959111774488065e+00 2.527668897379852808e+02
1.907107251692276295e-01 9.901959111774486288e+00 2.527694283945852760e+02
5.947511292692551077e-01 9.901959111774473854e+00 2.527719670512852872e+02
9.987915332692980375e-01 9.901959111774468525e+00 2.527745057079852700e+02
1.402831937269293672e+00 9.901959111774477407e+00 2.527770443645852652e+02
1.806872341369320623e+00 9.901959111774470301e+00 2.527795830212852763e+02
2.210912745369410182e+00 9.901959111774470301e+00 2.527821216779852875e+02
2.614953149469529503e+00 9.901959111774468525e+00 2.527846603345852827e+02
3.018993553469639934e+00 9.901959111774472078e+00 2.527871989912852655e+02
-1.425450890930809900e+00 1.030599951577449325e+01 2.527586072638852670e+02
-1.021410486930829142e+00 1.030599951577448969e+01 2.527611459205852782e+02
-6.173700829307493532e-01 1.030599951577448437e+01 2.527636845772852610e+02
-2.133296788307174063e-01 1.030599951577448081e+01 2.527662232338852846e+02
1.907107251692664318e-01 1.030599951577446838e+01 2.527687618905852673e+02
5.947511292692757578e-01 1.030599951577446305e+01 2.527713005472852785e+02
9.987915332692975934e-01 1.030599951577447371e+01 2.527738392038852737e+02
1.402831937269251261e+00 1.030599951577444529e+01 2.527763778605852849e+02
1.806872341369325063e+00 1.030599951577444706e+01 2.527789165172852677e+02
2.210912745369411070e+00 1.030599951577446305e+01 2.527814551738852629e+02
2.614953149469521954e+00 1.030599951577447371e+01 2.527839938305852741e+02
-1.425450890930809233e+00 1.071003991987448600e+01 2.527579407598852868e+02
-1.021410486930728778e+00 1.071003991987447179e+01 2.527604794165852695e+02
-6.173700829307199323e-01 1.071003991987447179e+01 2.527630180731852647e+02
-2.133296788307071090e-01 1.071003991987448423e+01 2.527655567298852759e+02
1.907107251692653771e-01 1.071003991987447890e+01 2.527680953865852871e+02
5.947511292692643226e-01 1.071003991987448956e+01 2.527706340431852823e+02
9.987915332693418913e-01 1.071003991987448778e+01 2.527731726998852650e+02
1.402831937269320983e+00 1.071003991987448600e+01 2.527757113565852762e+02
1.806872341369210710e+00 1.071003991987447890e+01 2.527782500131852714e+02
2.210912745369390198e+00 1.071003991987447534e+01 2.527807886698852826e+02
2.614953149469480209e+00 1.071003991987447179e+01 2.527833273265852654e+02
-1.021410486930721451e+00 1.111408032387448763e+01 2.527598129125852608e+02
-6.173700829307393612e-01 1.111408032387449119e+01 2.527623515691852845e+02
-2.133296788306986991e-01 1.111408032387448763e+01 2.527648902258852672e+02
1.907107251692931882e-01 1.111408032387448230e+01 2.527674288825852784e+02
5.947511292692428952e-01 1.111408032387450895e+01 2.527699675391852736e+02
9.987915332693207970e-01 1.111408032387450362e+01 2.527725061958852848e+02
1.402831937269275242e+00 1.111408032387448586e+01 2.527750448525852676e+02
1.806872341369248902e+00 1.111408032387448586e+01 2.527775835091852628e+02
2.210912745369400412e+00 1.111408032387448053e+01 2.527801221658852739e+02
2.614953149469497529e+00 1.111408032387447165e+01 2.527826608225852851e+02
-1.021410486930729666e+00 1.151812072797448039e+01 2.527591464084852646e+02
-6.173700829307248172e-01 1.151812072797448572e+01 2.527616850651852758e+02
-2.133296788307264269e-01 1.151812072797448216e+01 2.527642237218852870e+02
1.907107251692736760e-01 1.151812072797448216e+01 2.527667623784852822e+02
5.947511292692361229e-01 1.151812072797448749e+01 2.527693010351852649e+02
9.987915332693050319e-01 1.151812072797448572e+01 2.527718396918852761e+02
1.402831937269282570e+00 1.151812072797449815e+01 2.527743783484852713e+02
1.806872341369258006e+00 1.151812072797448394e+01 2.527769170051852825e+02
2.210912745369294274e+00 1.151812072797446973e+01 2.527794556618852653e+02
2.614953149469445126e+00 1.151812072797447151e+01 2.527819943184852889e+02
-1.021410486930804051e+00 1.192216113197448557e+01 2.527584799044852844e+02
-6.173700829307324778e-01 1.192216113197447669e+01 2.527610185611852671e+02
-2.133296788307547376e-01 1.192216113197450333e+01 2.527635572177852623e+02
1.907107251693409000e-01 1.192216113197451399e+01 2.527660958744852735e+02
5.947511292693400398e-01 1.192216113197450333e+01 2.527686345311852847e+02
9.987915332692965942e-01 1.192216113197451577e+01 2.527711731877852799e+02
1.402831937269252816e+00 1.192216113197451399e+01 2.527737118444852626e+02
1.806872341369255341e+00 1.192216113197451044e+01 2.527762505011852738e+02
2.210912745369284949e+00 1.192216113197447847e+01 2.527787891577852690e+02
2.614953149469391835e+00 1.192216113197448024e+01 2.527813278144852802e+02
-1.425450890930806125e+00 1.232620153597450674e+01 2.527552747437852645e+02
-1.021410486930767192e+00 1.232620153597448542e+01 2.527578134004852757e+02
-6.173700829307355864e-01 1.232620153597450674e+01 2.527603520570852709e+02
-2.133296788307841585e-01 1.232620153597451385e+01 2.527628907137852821e+02
1.907107251693304639e-01 1.232620153597451207e+01 2.527654293704852648e+02
5.947511292693380414e-01 1.232620153597452273e+01 2.527679680271852760e+02
9.987915332692869352e-01 1.232620153597452450e+01 2.527705066837852712e+02
1.402831937269315432e+00 1.232620153597451917e+01 2.527730453404852824e+02
1.806872341369243795e+00 1.232620153597451740e+01 2.527755839971852652e+02
2.210912745369299159e+00 1.232620153597450852e+01 2.527781226537852888e+02
2.614953149469275484e+00 1.232620153597448542e+01 2.527806613104852715e+02
-1.425450890930796355e+00 1.273024194007449772e+01 2.527546082397852842e+02
-1.021410486930814931e+00 1.273024194007450660e+01 2.527571468964852670e+02
-6.173700829307364746e-01 1.273024194007449594e+01 2.527596855530852622e+02
-2.133296788307750269e-01 1.273024194007451193e+01 2.527622242097852734e+02
1.907107251692709560e-01 1.273024194007451015e+01 2.527647628664852846e+02
5.947511292692880813e-01 1.273024194007451371e+01 2.527673015230852798e+02
9.987915332693254600e-01 1.273024194007451015e+01 2.527698401797852625e+02
1.402831937269260143e+00 1.273024194007451193e+01 2.527723788364852737e+02
1.806872341369226920e+00 1.273024194007451193e+01 2.527749174930852689e+02
2.210912745369219667e+00 1.273024194007449950e+01 2.527774561497852801e+02
-1.021410486930777406e+00 1.313428234407450113e+01 2.527564803923852708e+02
-6.173700829307455784e-01 1.313428234407450113e+01 2.527590190490852819e+02
-2.133296788307828540e-01 1.313428234407450290e+01 2.527615577057852647e+02
1.907107251692709560e-01 1.313428234407451001e+01 2.527640963623852883e+02
5.947511292692800877e-01 1.313428234407450645e+01 2.527666350190852711e+02
9.987915332693170223e-01 1.313428234407450645e+01 2.527691736757852823e+02
1.402831937269287899e+00 1.313428234407451534e+01 2.527717123323852775e+02
1.806872341369246016e+00 1.313428234407449580e+01 2.527742509890852887e+02
2.210912745369220112e+00 1.313428234407449580e+01 2.527767896457852714e+02
2.614953149469276816e+00 1.313428234407450290e+01 2.527793283023852666e+02
-1.425450890930895387e+00 1.353832274817450099e+01 2.527532752316852793e+02
-1.021410486930744987e+00 1.353832274817449388e+01 2.527558138883852621e+02
-6.173700829307368076e-01 1.353832274817449921e+01 2.527583525450852733e+02
1.907107251692716776e-01 1.353832274817450276e+01 2.527634298583852797e+02
5.947511292692625462e-01 1.353832274817450632e+01 2.527659685150852624e+02
9.987915332692888226e-01 1.353832274817450809e+01 2.527685071717852736e+02
1.402831937269287010e+00 1.353832274817452230e+01 2.527710458283852688e+02
1.806872341369300194e+00 1.353832274817449921e+01 2.527735844850852800e+02
2.210912745369220112e+00 1.353832274817449566e+01 2.527761231417852628e+02
2.614953149469286586e+00 1.353832274817449566e+01 2.527786617983852864e+02
-1.021410486930744987e+00 1.394236315217449373e+01 2.527551473843852818e+02
