3.036097527546655073e+00 -7.479618796003898673e+00 2.508979103508728485e+02
3.440137864146655122e+00 -7.479618796003898673e+00 2.508949806633728485e+02
3.844178439146654913e+00 -7.479618796003898673e+00 2.508920509758728485e+02
4.248218537346654777e+00 -7.479618796003898673e+00 2.508891365471728534e+02
4.652259350846654762e+00 -7.479618796003898673e+00 2.508862068596728534e+02
5.056299687446655255e+00 -7.479618796003898673e+00 2.508832771721728534e+02
5.460340024046654861e+00 -7.479618796003898673e+00 2.508803474846728534e+02
5.864380360646655355e+00 -7.479618796003898673e+00 2.508774177971728534e+02
6.268420697246654960e+00 -7.479618796003898673e+00 2.508745033684728583e+02
6.672461033846654566e+00 -7.479618796003898673e+00 2.508715736809728583e+02
7.076501370446655059e+00 -7.479618796003898673e+00 2.508686439934728583e+02
7.480542183946655044e+00 -7.479618796003898673e+00 2.508657143059728583e+02
7.884582520546654649e+00 -7.479618796003898673e+00 2.508627846184728583e+02
8.288622857146654255e+00 -7.479618796003898673e+00 2.508598701897728347e+02
8.692663193746655637e+00 -7.479618796003898673e+00 2.508569405022728347e+02
9.096703530346655242e+00 -7.479618796003898673e+00 2.508540108147728347e+02
-6.256831644953344984e+00 -7.075577982503898689e+00 2.509676887932728562e+02
-5.852791308353345379e+00 -7.075577982503898689e+00 2.509647591057728562e+02
-5.448750971753344885e+00 -7.075577982503898689e+00 2.509618294182728562e+02
-5.044710635153345279e+00 -7.075577982503898689e+00 2.509588997307728562e+02
-4.640670298553344786e+00 -7.075577982503898689e+00 2.509559853020728326e+02
-4.236629485053344801e+00 -7.075577982503898689e+00 2.509530556145728326e+02
-3.832589386853344937e+00 -7.075577982503898689e+00 2.509501259270728326e+02
-3.428548811853345146e+00 -7.075577982503898689e+00 2.509471962395728326e+02
-3.024508475253345097e+00 -7.075577982503898689e+00 2.509442665520728326e+02
-2.620468138653345047e+00 -7.075577982503898689e+00 2.509413521233728375e+02
-2.216427802053344998e+00 -7.075577982503898689e+00 2.509384224358728375e+02
-1.812387346253345077e+00 -7.075577982503898689e+00 2.509354927483728375e+02
-1.408346890353344927e+00 -7.075577982503898689e+00 2.509325630608728375e+02
-1.004306434553345007e+00 -7.075577982503898689e+00 2.509296333733728375e+02
-6.002660979533450680e-01 -7.075577982503898689e+00 2.509267189445728548e+02
-1.962256719533450877e-01 -7.075577982503898689e+00 2.509237892570728548e+02
2.078147242466548972e-01 -7.075577982503898689e+00 2.509208595695728548e+02
6.118551502466548220e-01 -7.075577982503898689e+00 2.509179298820728548e+02
1.015895486846654983e+00 -7.075577982503898689e+00 2.509150001945728548e+02
1.419935942646654903e+00 -7.075577982503898689e+00 2.509120857658728312e+02
1.823976398546655053e+00 -7.075577982503898689e+00 2.509091560783728312e+02
2.228016854346654974e+00 -7.075577982503898689e+00 2.509062263908728312e+02
2.632057190946655023e+00 -7.075577982503898689e+00 2.509032967033728312e+02
3.036097527546655073e+00 -7.075577982503898689e+00 2.509003670158728312e+02
3.440137864146655122e+00 -7.075577982503898689e+00 2.508974525871728360e+02
3.844178439146654913e+00 -7.075577982503898689e+00 2.508945228996728360e+02
4.248218537346654777e+00 -7.075577982503898689e+00 2.508915932121728360e+02
4.652259350846654762e+00 -7.075577982503898689e+00 2.508886635246728360e+02
5.056299687446655255e+00 -7.075577982503898689e+00 2.508857338371728360e+02
5.460340024046654861e+00 -7.075577982503898689e+00 2.508828194084728409e+02
5.864380360646655355e+00 -7.075577982503898689e+00 2.508798897209728409e+02
6.268420697246654960e+00 -7.075577982503898689e+00 2.508769600334728409e+02
6.672461033846654566e+00 -7.075577982503898689e+00 2.508740303459728409e+02
7.076501370446655059e+00 -7.075577982503898689e+00 2.508711006584728409e+02
7.480542183946655044e+00 -7.075577982503898689e+00 2.508681862297728458e+02
7.884582520546654649e+00 -7.075577982503898689e+00 2.508652565422728458e+02
8.288622857146654255e+00 -7.075577982503898689e+00 2.508623268547728458e+02
8.692663193746655637e+00 -7.075577982503898689e+00 2.508593971672728458e+02
9.096703530346655242e+00 -7.075577982503898689e+00 2.508564674797728458e+02
-6.256831644953344984e+00 -6.671537645903898195e+00 2.509701454582728388e+02
-5.852791308353345379e+00 -6.671537645903898195e+00 2.509672157707728388e+02
-5.448750971753344885e+00 -6.671537645903898195e+00 2.509642860832728388e+02
-5.044710635153345279e+00 -6.671537645903898195e+00 2.509613716545728437e+02
-4.640670298553344786e+00 -6.671537645903898195e+00 2.509584419670728437e+02
-4.236629485053344801e+00 -6.671537645903898195e+00 2.509555122795728437e+02
-3.832589386853344937e+00 -6.671537645903898195e+00 2.509525825920728437e+02
-3.428548811853345146e+00 -6.671537645903898195e+00 2.509496529045728437e+02
-3.024508475253345097e+00 -6.671537645903898195e+00 2.509467384758728485e+02
-2.620468138653345047e+00 -6.671537645903898195e+00 2.509438087883728485e+02
-2.216427802053344998e+00 -6.671537645903898195e+00 2.509408791008728485e+02
-1.812387346253345077e+00 -6.671537645903898195e+00 2.509379494133728485e+02
-1.408346890353344927e+00 -6.671537645903898195e+00 2.509350197258728485e+02
-1.004306434553345007e+00 -6.671537645903898195e+00 2.509321052971728534e+02
-6.002660979533450680e-01 -6.671537645903898195e+00 2.509291756096728534e+02
-1.962256719533450877e-01 -6.671537645903898195e+00 2.509262459221728534e+02
2.078147242466548972e-01 -6.671537645903898195e+00 2.509233162346728534e+02
6.118551502466548220e-01 -6.671537645903898195e+00 2.509203865471728534e+02
1.015895486846654983e+00 -6.671537645903898195e+00 2.509174721184728583e+02
1.419935942646654903e+00 -6.671537645903898195e+00 2.509145424309728583e+02
1.823976398546655053e+00 -6.671537645903898195e+00 2.509116127434728583e+02
2.228016854346654974e+00 -6.671537645903898195e+00 2.509086830559728583e+02
2.632057190946655023e+00 -6.671537645903898195e+00 2.509057533684728583e+02
3.036097527546655073e+00 -6.671537645903898195e+00 2.509028389397728347e+02
3.440137864146655122e+00 -6.671537645903898195e+00 2.508999092522728347e+02
3.844178439146654913e+00 -6.671537645903898195e+00 2.508969795647728347e+02
4.248218537346654777e+00 -6.671537645903898195e+00 2.508940498772728347e+02
4.652259350846654762e+00 -6.671537645903898195e+00 2.508911201897728347e+02
5.056299687446655255e+00 -6.671537645903898195e+00 2.508882057609728520e+02
5.460340024046654861e+00 -6.671537645903898195e+00 2.508852760734728520e+02
5.864380360646655355e+00 -6.671537645903898195e+00 2.508823463859728520e+02
6.268420697246654960e+00 -6.671537645903898195e+00 2.508794166984728520e+02
6.672461033846654566e+00 -6.671537645903898195e+00 2.508764870109728520e+02
7.076501370446655059e+00 -6.671537645903898195e+00 2.508735725822728568e+02
7.480542183946655044e+00 -6.671537645903898195e+00 2.508706428947728568e+02
7.884582520546654649e+00 -6.671537645903898195e+00 2.508677132072728568e+02
8.288622857146654255e+00 -6.671537645903898195e+00 2.508647835197728568e+02
8.692663193746655637e+00 -6.671537645903898195e+00 2.508618538322728568e+02
9.096703530346655242e+00 -6.671537645903898195e+00 2.508589394035728333e+02
-6.256831644953344984e+00 -6.267497309303898589e+00 2.509726021233728375e+02
-5.852791308353345379e+00 -6.267497309303898589e+00 2.509696724358728375e+02
-5.448750971753344885e+00 -6.267497309303898589e+00 2.509667580070728548e+02
-5.044710635153345279e+00 -6.267497309303898589e+00 2.509638283195728548e+02
-4.640670298553344786e+00 -6.267497309303898589e+00 2.509608986320728548e+02
-4.236629485053344801e+00 -6.267497309303898589e+00 2.509579689445728548e+02
-3.832589386853344937e+00 -6.267497309303898589e+00 2.509550392570728548e+02
-3.428548811853345146e+00 -6.267497309303898589e+00 2.509521248283728312e+02
-3.024508475253345097e+00 -6.267497309303898589e+00 2.509491951408728312e+02
-2.620468138653345047e+00 -6.267497309303898589e+00 2.509462654533728312e+02
-2.216427802053344998e+00 -6.267497309303898589e+00 2.509433357658728312e+02
-1.812387346253345077e+00 -6.267497309303898589e+00 2.509404060783728312e+02
-1.408346890353344927e+00 -6.267497309303898589e+00 2.509374916496728360e+02
-1.004306434553345007e+00 -6.267497309303898589e+00 2.509345619621728360e+02
-6.002660979533450680e-01 -6.267497309303898589e+00 2.509316322746728360e+02
-1.962256719533450877e-01 -6.267497309303898589e+00 2.509287025871728360e+02
2.078147242466548972e-01 -6.267497309303898589e+00 2.509257728996728360e+02
6.118551502466548220e-01 -6.267497309303898589e+00 2.509228584709728409e+02
1.015895486846654983e+00 -6.267497309303898589e+00 2.509199287834728409e+02
1.419935942646654903e+00 -6.267497309303898589e+00 2.509169990959728409e+02
1.823976398546655053e+00 -6.267497309303898589e+00 2.509140694084728409e+02
2.228016854346654974e+00 -6.267497309303898589e+00 2.509111397209728409e+02
2.632057190946655023e+00 -6.267497309303898589e+00 2.509082252922728458e+02
3.036097527546655073e+00 -6.267497309303898589e+00 2.509052956047728458e+02
3.440137864146655122e+00 -6.267497309303898589e+00 2.509023659172728458e+02
3.844178439146654913e+00 -6.267497309303898589e+00 2.508994362297728458e+02
4.248218537346654777e+00 -6.267497309303898589e+00 2.508965065422728458e+02
4.652259350846654762e+00 -6.267497309303898589e+00 2.508935921135728506e+02
5.056299687446655255e+00 -6.267497309303898589e+00 2.508906624260728506e+02
5.460340024046654861e+00 -6.267497309303898589e+00 2.508877327385728506e+02
5.864380360646655355e+00 -6.267497309303898589e+00 2.508848030510728506e+02
6.268420697246654960e+00 -6.267497309303898589e+00 2.508818733635728506e+02
6.672461033846654566e+00 -6.267497309303898589e+00 2.508789589348728555e+02
7.076501370446655059e+00 -6.267497309303898589e+00 2.508760292473728555e+02
7.480542183946655044e+00 -6.267497309303898589e+00 2.508730995598728555e+02
7.884582520546654649e+00 -6.267497309303898589e+00 2.508701698723728555e+02
8.288622857146654255e+00 -6.267497309303898589e+00 2.508672401848728555e+02
8.692663193746655637e+00 -6.267497309303898589e+00 2.508643257561728319e+02
9.096703530346655242e+00 -6.267497309303898589e+00 2.508613960686728319e+02
-6.256831644953344984e+00 -5.863456972703898984e+00 2.509750587883728485e+02
-5.852791308353345379e+00 -5.863456972703898984e+00 2.509721443596728534e+02
-5.448750971753344885e+00 -5.863456972703898984e+00 2.509692146721728534e+02
-5.044710635153345279e+00 -5.863456972703898984e+00 2.509662849846728534e+02
-4.640670298553344786e+00 -5.863456972703898984e+00 2.509633552971728534e+02
-4.236629485053344801e+00 -5.863456972703898984e+00 2.509604256096728534e+02
-3.832589386853344937e+00 -5.863456972703898984e+00 2.509575111809728583e+02
-3.428548811853345146e+00 -5.863456972703898984e+00 2.509545814934728583e+02
-3.024508475253345097e+00 -5.863456972703898984e+00 2.509516518059728583e+02
-2.620468138653345047e+00 -5.863456972703898984e+00 2.509487221184728583e+02
-2.216427802053344998e+00 -5.863456972703898984e+00 2.509457924309728583e+02
-1.812387346253345077e+00 -5.863456972703898984e+00 2.509428780022728347e+02
-1.408346890353344927e+00 -5.863456972703898984e+00 2.509399483147728347e+02
-1.004306434553345007e+00 -5.863456972703898984e+00 2.509370186272728347e+02
-6.002660979533450680e-01 -5.863456972703898984e+00 2.509340889397728347e+02
-1.962256719533450877e-01 -5.863456972703898984e+00 2.509311592522728347e+02
2.078147242466548972e-01 -5.863456972703898984e+00 2.509282448234728520e+02
6.118551502466548220e-01 -5.863456972703898984e+00 2.509253151359728520e+02
1.015895486846654983e+00 -5.863456972703898984e+00 2.509223854484728520e+02
1.419935942646654903e+00 -5.863456972703898984e+00 2.509194557609728520e+02
1.823976398546655053e+00 -5.863456972703898984e+00 2.509165260734728520e+02
2.228016854346654974e+00 -5.863456972703898984e+00 2.509136116447728568e+02
2.632057190946655023e+00 -5.863456972703898984e+00 2.509106819572728568e+02
3.036097527546655073e+00 -5.863456972703898984e+00 2.509077522697728568e+02
3.440137864146655122e+00 -5.863456972703898984e+00 2.509048225822728568e+02
3.844178439146654913e+00 -5.863456972703898984e+00 2.509018928947728568e+02
4.248218537346654777e+00 -5.863456972703898984e+00 2.508989784660728333e+02
4.652259350846654762e+00 -5.863456972703898984e+00 2.508960487785728333e+02
5.056299687446655255e+00 -5.863456972703898984e+00 2.508931190910728333e+02
5.460340024046654861e+00 -5.863456972703898984e+00 2.508901894035728333e+02
5.864380360646655355e+00 -5.863456972703898984e+00 2.508872597160728333e+02
6.268420697246654960e+00 -5.863456972703898984e+00 2.508843452873728381e+02
6.672461033846654566e+00 -5.863456972703898984e+00 2.508814155998728381e+02
7.076501370446655059e+00 -5.863456972703898984e+00 2.508784859123728381e+02
7.480542183946655044e+00 -5.863456972703898984e+00 2.508755562248728381e+02
7.884582520546654649e+00 -5.863456972703898984e+00 2.508726265373728381e+02
8.288622857146654255e+00 -5.863456972703898984e+00 2.508697121086728430e+02
8.692663193746655637e+00 -5.863456972703898984e+00 2.508667824211728430e+02
9.096703530346655242e+00 -5.863456972703898984e+00 2.508638527336728430e+02
-6.660871981553344590e+00 -5.459416636103898490e+00 2.509804603996728360e+02
-6.256831644953344984e+00 -5.459416636103898490e+00 2.509775307121728360e+02
-5.852791308353345379e+00 -5.459416636103898490e+00 2.509746010246728360e+02
-5.448750971753344885e+00 -5.459416636103898490e+00 2.509716713371728360e+02
-5.044710635153345279e+00 -5.459416636103898490e+00 2.509687416496728360e+02
-4.640670298553344786e+00 -5.459416636103898490e+00 2.509658119621728360e+02
-4.236629485053344801e+00 -5.459416636103898490e+00 2.509628975334728409e+02
-3.832589386853344937e+00 -5.459416636103898490e+00 2.509599678459728409e+02
-3.428548811853345146e+00 -5.459416636103898490e+00 2.509570381584728409e+02
-3.024508475253345097e+00 -5.459416636103898490e+00 2.509541084709728409e+02
-2.620468138653345047e+00 -5.459416636103898490e+00 2.509511787834728409e+02
-2.216427802053344998e+00 -5.459416636103898490e+00 2.509482643547728458e+02
-1.812387346253345077e+00 -5.459416636103898490e+00 2.509453346672728458e+02
-1.408346890353344927e+00 -5.459416636103898490e+00 2.509424049797728458e+02
-1.004306434553345007e+00 -5.459416636103898490e+00 2.509394752922728458e+02
-6.002660979533450680e-01 -5.459416636103898490e+00 2.509365456047728458e+02
-1.962256719533450877e-01 -5.459416636103898490e+00 2.509336311760728506e+02
2.078147242466548972e-01 -5.459416636103898490e+00 2.509307014885728506e+02
6.118551502466548220e-01 -5.459416636103898490e+00 2.509277718010728506e+02
1.015895486846654983e+00 -5.459416636103898490e+00 2.509248421135728506e+02
1.419935942646654903e+00 -5.459416636103898490e+00 2.509219124260728506e+02
1.823976398546655053e+00 -5.459416636103898490e+00 2.509189979973728555e+02
2.228016854346654974e+00 -5.459416636103898490e+00 2.509160683098728555e+02
2.632057190946655023e+00 -5.459416636103898490e+00 2.509131386223728555e+02
3.036097527546655073e+00 -5.459416636103898490e+00 2.509102089348728555e+02
3.440137864146655122e+00 -5.459416636103898490e+00 2.509072792473728555e+02
3.844178439146654913e+00 -5.459416636103898490e+00 2.509043648186728319e+02
4.248218537346654777e+00 -5.459416636103898490e+00 2.509014351311728319e+02
4.652259350846654762e+00 -5.459416636103898490e+00 2.508985054436728319e+02
5.056299687446655255e+00 -5.459416636103898490e+00 2.508955757561728319e+02
5.460340024046654861e+00 -5.459416636103898490e+00 2.508926460686728319e+02
5.864380360646655355e+00 -5.459416636103898490e+00 2.508897316399728368e+02
6.268420697246654960e+00 -5.459416636103898490e+00 2.508868019524728368e+02
6.672461033846654566e+00 -5.459416636103898490e+00 2.508838722649728368e+02
7.076501370446655059e+00 -5.459416636103898490e+00 2.508809425774728368e+02
7.480542183946655044e+00 -5.459416636103898490e+00 2.508780128899728368e+02
7.884582520546654649e+00 -5.459416636103898490e+00 2.508750984611728541e+02
8.288622857146654255e+00 -5.459416636103898490e+00 2.508721687736728541e+02
8.692663193746655637e+00 -5.459416636103898490e+00 2.508692390861728541e+02
9.096703530346655242e+00 -5.459416636103898490e+00 2.508663093986728541e+02
-6.256831644953344984e+00 -5.055376299503898885e+00 2.509799873772728347e+02
-5.852791308353345379e+00 -5.055376299503898885e+00 2.509770576897728347e+02
-5.448750971753344885e+00 -5.055376299503898885e+00 2.509741280022728347e+02
-5.044710635153345279e+00 -5.055376299503898885e+00 2.509712135734728520e+02
-4.640670298553344786e+00 -5.055376299503898885e+00 2.509682838859728520e+02
-4.236629485053344801e+00 -5.055376299503898885e+00 2.509653541984728520e+02
-3.832589386853344937e+00 -5.055376299503898885e+00 2.509624245109728520e+02
-3.428548811853345146e+00 -5.055376299503898885e+00 2.509594948234728520e+02
-3.024508475253345097e+00 -5.055376299503898885e+00 2.509565803947728568e+02
-2.620468138653345047e+00 -5.055376299503898885e+00 2.509536507072728568e+02
-2.216427802053344998e+00 -5.055376299503898885e+00 2.509507210197728568e+02
-1.812387346253345077e+00 -5.055376299503898885e+00 2.509477913322728568e+02
-1.408346890353344927e+00 -5.055376299503898885e+00 2.509448616447728568e+02
-1.004306434553345007e+00 -5.055376299503898885e+00 2.509419472160728333e+02
-6.002660979533450680e-01 -5.055376299503898885e+00 2.509390175285728333e+02
-1.962256719533450877e-01 -5.055376299503898885e+00 2.509360878410728333e+02
2.078147242466548972e-01 -5.055376299503898885e+00 2.509331581535728333e+02
6.118551502466548220e-01 -5.055376299503898885e+00 2.509302284660728333e+02
1.015895486846654983e+00 -5.055376299503898885e+00 2.509273140373728381e+02
1.419935942646654903e+00 -5.055376299503898885e+00 2.509243843498728381e+02
1.823976398546655053e+00 -5.055376299503898885e+00 2.509214546623728381e+02
2.228016854346654974e+00 -5.055376299503898885e+00 2.509185249748728381e+02
2.632057190946655023e+00 -5.055376299503898885e+00 2.509155952873728381e+02
3.036097527546655073e+00 -5.055376299503898885e+00 2.509126808586728430e+02
3.440137864146655122e+00 -5.055376299503898885e+00 2.509097511711728430e+02
3.844178439146654913e+00 -5.055376299503898885e+00 2.509068214836728430e+02
4.248218537346654777e+00 -5.055376299503898885e+00 2.509038917961728430e+02
4.652259350846654762e+00 -5.055376299503898885e+00 2.509009621086728430e+02
5.056299687446655255e+00 -5.055376299503898885e+00 2.508980324211728430e+02
5.460340024046654861e+00 -5.055376299503898885e+00 2.508951179924728478e+02
5.864380360646655355e+00 -5.055376299503898885e+00 2.508921883049728478e+02
6.268420697246654960e+00 -5.055376299503898885e+00 2.508892586174728478e+02
6.672461033846654566e+00 -5.055376299503898885e+00 2.508863289299728478e+02
7.076501370446655059e+00 -5.055376299503898885e+00 2.508833992424728478e+02
7.480542183946655044e+00 -5.055376299503898885e+00 2.508804848137728527e+02
7.884582520546654649e+00 -5.055376299503898885e+00 2.508775551262728527e+02
8.288622857146654255e+00 -5.055376299503898885e+00 2.508746254387728527e+02
8.692663193746655637e+00 -5.055376299503898885e+00 2.508716957512728527e+02
9.096703530346655242e+00 -5.055376299503898885e+00 2.508687660637728527e+02
-6.256831644953344984e+00 -4.651335962903898391e+00 2.509824440422728458e+02
-5.852791308353345379e+00 -4.651335962903898391e+00 2.509795143547728458e+02
-5.448750971753344885e+00 -4.651335962903898391e+00 2.509765999260728506e+02
-5.044710635153345279e+00 -4.651335962903898391e+00 2.509736702385728506e+02
-4.640670298553344786e+00 -4.651335962903898391e+00 2.509707405510728506e+02
-4.236629485053344801e+00 -4.651335962903898391e+00 2.509678108635728506e+02
-3.832589386853344937e+00 -4.651335962903898391e+00 2.509648811760728506e+02
-3.428548811853345146e+00 -4.651335962903898391e+00 2.509619667473728555e+02
-3.024508475253345097e+00 -4.651335962903898391e+00 2.509590370598728555e+02
-2.620468138653345047e+00 -4.651335962903898391e+00 2.509561073723728555e+02
-2.216427802053344998e+00 -4.651335962903898391e+00 2.509531776848728555e+02
-1.812387346253345077e+00 -4.651335962903898391e+00 2.509502479973728555e+02
-1.408346890353344927e+00 -4.651335962903898391e+00 2.509473335686728319e+02
-1.004306434553345007e+00 -4.651335962903898391e+00 2.509444038811728319e+02
-6.002660979533450680e-01 -4.651335962903898391e+00 2.509414741936728319e+02
-1.962256719533450877e-01 -4.651335962903898391e+00 2.509385445061728319e+02
2.078147242466548972e-01 -4.651335962903898391e+00 2.509356148186728319e+02
6.118551502466548220e-01 -4.651335962903898391e+00 2.509327003899728368e+02
1.015895486846654983e+00 -4.651335962903898391e+00 2.509297707024728368e+02
1.419935942646654903e+00 -4.651335962903898391e+00 2.509268410149728368e+02
1.823976398546655053e+00 -4.651335962903898391e+00 2.509239113274728368e+02
2.228016854346654974e+00 -4.651335962903898391e+00 2.509209816399728368e+02
2.632057190946655023e+00 -4.651335962903898391e+00 2.509180672111728541e+02
3.036097527546655073e+00 -4.651335962903898391e+00 2.509151375236728541e+02
3.440137864146655122e+00 -4.651335962903898391e+00 2.509122078361728541e+02
3.844178439146654913e+00 -4.651335962903898391e+00 2.509092781486728541e+02
4.248218537346654777e+00 -4.651335962903898391e+00 2.509063484611728541e+02
4.652259350846654762e+00 -4.651335962903898391e+00 2.509034340324728589e+02
5.056299687446655255e+00 -4.651335962903898391e+00 2.509005043449728589e+02
5.460340024046654861e+00 -4.651335962903898391e+00 2.508975746574728589e+02
5.864380360646655355e+00 -4.651335962903898391e+00 2.508946449699728589e+02
6.268420697246654960e+00 -4.651335962903898391e+00 2.508917152824728589e+02
6.672461033846654566e+00 -4.651335962903898391e+00 2.508888008537728354e+02
7.076501370446655059e+00 -4.651335962903898391e+00 2.508858711662728354e+02
7.480542183946655044e+00 -4.651335962903898391e+00 2.508829414787728354e+02
7.884582520546654649e+00 -4.651335962903898391e+00 2.508800117912728354e+02
8.288622857146654255e+00 -4.651335962903898391e+00 2.508770821037728354e+02
8.692663193746655637e+00 -4.651335962903898391e+00 2.508741676750728402e+02
-6.256831644953344984e+00 -4.247295149403898407e+00 2.509849007072728568e+02
-5.852791308353345379e+00 -4.247295149403898407e+00 2.509819862785728333e+02
-5.448750971753344885e+00 -4.247295149403898407e+00 2.509790565910728333e+02
-5.044710635153345279e+00 -4.247295149403898407e+00 2.509761269035728333e+02
-4.640670298553344786e+00 -4.247295149403898407e+00 2.509731972160728333e+02
-4.236629485053344801e+00 -4.247295149403898407e+00 2.509702675285728333e+02
-3.832589386853344937e+00 -4.247295149403898407e+00 2.509673530998728381e+02
-3.428548811853345146e+00 -4.247295149403898407e+00 2.509644234123728381e+02
-3.024508475253345097e+00 -4.247295149403898407e+00 2.509614937248728381e+02
-2.620468138653345047e+00 -4.247295149403898407e+00 2.509585640373728381e+02
-2.216427802053344998e+00 -4.247295149403898407e+00 2.509556343498728381e+02
-1.812387346253345077e+00 -4.247295149403898407e+00 2.509527199211728430e+02
-1.408346890353344927e+00 -4.247295149403898407e+00 2.509497902336728430e+02
-1.004306434553345007e+00 -4.247295149403898407e+00 2.509468605461728430e+02
-6.002660979533450680e-01 -4.247295149403898407e+00 2.509439308586728430e+02
-1.962256719533450877e-01 -4.247295149403898407e+00 2.509410011711728430e+02
2.078147242466548972e-01 -4.247295149403898407e+00 2.509380867424728478e+02
6.118551502466548220e-01 -4.247295149403898407e+00 2.509351570549728478e+02
1.015895486846654983e+00 -4.247295149403898407e+00 2.509322273674728478e+02
1.419935942646654903e+00 -4.247295149403898407e+00 2.509292976799728478e+02
1.823976398546655053e+00 -4.247295149403898407e+00 2.509263679924728478e+02
2.228016854346654974e+00 -4.247295149403898407e+00 2.509234535637728527e+02
2.632057190946655023e+00 -4.247295149403898407e+00 2.509205238762728527e+02
3.036097527546655073e+00 -4.247295149403898407e+00 2.509175941887728527e+02
3.440137864146655122e+00 -4.247295149403898407e+00 2.509146645012728527e+02
3.844178439146654913e+00 -4.247295149403898407e+00 2.509117348137728527e+02
4.248218537346654777e+00 -4.247295149403898407e+00 2.509088203850728576e+02
4.652259350846654762e+00 -4.247295149403898407e+00 2.509058906975728576e+02
5.056299687446655255e+00 -4.247295149403898407e+00 2.509029610100728576e+02
5.460340024046654861e+00 -4.247295149403898407e+00 2.509000313225728576e+02
5.864380360646655355e+00 -4.247295149403898407e+00 2.508971016350728576e+02
6.268420697246654960e+00 -4.247295149403898407e+00 2.508941872063728340e+02
6.672461033846654566e+00 -4.247295149403898407e+00 2.508912575188728340e+02
7.076501370446655059e+00 -4.247295149403898407e+00 2.508883278313728340e+02
7.480542183946655044e+00 -4.247295149403898407e+00 2.508853981438728340e+02
7.884582520546654649e+00 -4.247295149403898407e+00 2.508824684563728340e+02
8.288622857146654255e+00 -4.247295149403898407e+00 2.508795540276728389e+02
8.692663193746655637e+00 -4.247295149403898407e+00 2.508766243401728389e+02
-6.256831644953344984e+00 -3.843255051203898542e+00 2.509873726311728319e+02
-5.852791308353345379e+00 -3.843255051203898542e+00 2.509844429436728319e+02
-5.448750971753344885e+00 -3.843255051203898542e+00 2.509815132561728319e+02
-5.044710635153345279e+00 -3.843255051203898542e+00 2.509785835686728319e+02
-4.640670298553344786e+00 -3.843255051203898542e+00 2.509756538811728319e+02
-4.236629485053344801e+00 -3.843255051203898542e+00 2.509727394524728368e+02
-3.832589386853344937e+00 -3.843255051203898542e+00 2.509698097649728368e+02
-3.428548811853345146e+00 -3.843255051203898542e+00 2.509668800774728368e+02
-3.024508475253345097e+00 -3.843255051203898542e+00 2.509639503899728368e+02
-2.620468138653345047e+00 -3.843255051203898542e+00 2.509610207024728368e+02
-2.216427802053344998e+00 -3.843255051203898542e+00 2.509581062736728541e+02
-1.812387346253345077e+00 -3.843255051203898542e+00 2.509551765861728541e+02
-1.408346890353344927e+00 -3.843255051203898542e+00 2.509522468986728541e+02
-1.004306434553345007e+00 -3.843255051203898542e+00 2.509493172111728541e+02
-6.002660979533450680e-01 -3.843255051203898542e+00 2.509463875236728541e+02
-1.962256719533450877e-01 -3.843255051203898542e+00 2.509434730949728589e+02
2.078147242466548972e-01 -3.843255051203898542e+00 2.509405434074728589e+02
6.118551502466548220e-01 -3.843255051203898542e+00 2.509376137199728589e+02
1.015895486846654983e+00 -3.843255051203898542e+00 2.509346840324728589e+02
1.419935942646654903e+00 -3.843255051203898542e+00 2.509317543449728589e+02
1.823976398546655053e+00 -3.843255051203898542e+00 2.509288399162728354e+02
2.228016854346654974e+00 -3.843255051203898542e+00 2.509259102287728354e+02
2.632057190946655023e+00 -3.843255051203898542e+00 2.509229805412728354e+02
3.036097527546655073e+00 -3.843255051203898542e+00 2.509200508537728354e+02
3.440137864146655122e+00 -3.843255051203898542e+00 2.509171211662728354e+02
3.844178439146654913e+00 -3.843255051203898542e+00 2.509142067375728402e+02
4.248218537346654777e+00 -3.843255051203898542e+00 2.509112770500728402e+02
4.652259350846654762e+00 -3.843255051203898542e+00 2.509083473625728402e+02
5.056299687446655255e+00 -3.843255051203898542e+00 2.509054176750728402e+02
5.460340024046654861e+00 -3.843255051203898542e+00 2.509024879875728402e+02
5.864380360646655355e+00 -3.843255051203898542e+00 2.508995735588728451e+02
6.268420697246654960e+00 -3.843255051203898542e+00 2.508966438713728451e+02
6.672461033846654566e+00 -3.843255051203898542e+00 2.508937141838728451e+02
7.076501370446655059e+00 -3.843255051203898542e+00 2.508907844963728451e+02
7.480542183946655044e+00 -3.843255051203898542e+00 2.508878548088728451e+02
7.884582520546654649e+00 -3.843255051203898542e+00 2.508849403801728499e+02
8.288622857146654255e+00 -3.843255051203898542e+00 2.508820106926728499e+02
8.692663193746655637e+00 -3.843255051203898542e+00 2.508790810051728499e+02
9.096703530346655242e+00 -3.843255051203898542e+00 2.508761513176728499e+02
-6.256831644953344984e+00 -3.439214476203898752e+00 2.509898292961728430e+02
-5.852791308353345379e+00 -3.439214476203898752e+00 2.509868996086728430e+02
-5.448750971753344885e+00 -3.439214476203898752e+00 2.509839699211728430e+02
-5.044710635153345279e+00 -3.439214476203898752e+00 2.509810402336728430e+02
-4.640670298553344786e+00 -3.439214476203898752e+00 2.509781258049728478e+02
-4.236629485053344801e+00 -3.439214476203898752e+00 2.509751961174728478e+02
-3.832589386853344937e+00 -3.439214476203898752e+00 2.509722664299728478e+02
-3.428548811853345146e+00 -3.439214476203898752e+00 2.509693367424728478e+02
-3.024508475253345097e+00 -3.439214476203898752e+00 2.509664070549728478e+02
-2.620468138653345047e+00 -3.439214476203898752e+00 2.509634926262728527e+02
-2.216427802053344998e+00 -3.439214476203898752e+00 2.509605629387728527e+02
-1.812387346253345077e+00 -3.439214476203898752e+00 2.509576332512728527e+02
-1.408346890353344927e+00 -3.439214476203898752e+00 2.509547035637728527e+02
-1.004306434553345007e+00 -3.439214476203898752e+00 2.509517738762728527e+02
-6.002660979533450680e-01 -3.439214476203898752e+00 2.509488594475728576e+02
-1.962256719533450877e-01 -3.439214476203898752e+00 2.509459297600728576e+02
2.078147242466548972e-01 -3.439214476203898752e+00 2.509430000725728576e+02
6.118551502466548220e-01 -3.439214476203898752e+00 2.509400703850728576e+02
1.015895486846654983e+00 -3.439214476203898752e+00 2.509371406975728576e+02
1.419935942646654903e+00 -3.439214476203898752e+00 2.509342262688728340e+02
1.823976398546655053e+00 -3.439214476203898752e+00 2.509312965813728340e+02
2.228016854346654974e+00 -3.439214476203898752e+00 2.509283668938728340e+02
2.632057190946655023e+00 -3.439214476203898752e+00 2.509254372063728340e+02
3.036097527546655073e+00 -3.439214476203898752e+00 2.509225075188728340e+02
3.440137864146655122e+00 -3.439214476203898752e+00 2.509195930901728389e+02
3.844178439146654913e+00 -3.439214476203898752e+00 2.509166634026728389e+02
4.248218537346654777e+00 -3.439214476203898752e+00 2.509137337151728389e+02
4.652259350846654762e+00 -3.439214476203898752e+00 2.509108040276728389e+02
5.056299687446655255e+00 -3.439214476203898752e+00 2.509078743401728389e+02
5.460340024046654861e+00 -3.439214476203898752e+00 2.509049599113728561e+02
5.864380360646655355e+00 -3.439214476203898752e+00 2.509020302238728561e+02
6.268420697246654960e+00 -3.439214476203898752e+00 2.508991005363728561e+02
6.672461033846654566e+00 -3.439214476203898752e+00 2.508961708488728561e+02
7.076501370446655059e+00 -3.439214476203898752e+00 2.508932411613728561e+02
7.480542183946655044e+00 -3.439214476203898752e+00 2.508903267326728326e+02
7.884582520546654649e+00 -3.439214476203898752e+00 2.508873970451728326e+02
8.288622857146654255e+00 -3.439214476203898752e+00 2.508844673576728326e+02
8.692663193746655637e+00 -3.439214476203898752e+00 2.508815376701728326e+02
9.096703530346655242e+00 -3.439214476203898752e+00 2.508786079826728326e+02
-6.256831644953344984e+00 -3.035174139603898702e+00 2.509922859611728541e+02
-5.852791308353345379e+00 -3.035174139603898702e+00 2.509893562736728541e+02
-5.448750971753344885e+00 -3.035174139603898702e+00 2.509864418449728589e+02
-5.044710635153345279e+00 -3.035174139603898702e+00 2.509835121574728589e+02
-4.640670298553344786e+00 -3.035174139603898702e+00 2.509805824699728589e+02
-4.236629485053344801e+00 -3.035174139603898702e+00 2.509776527824728589e+02
-3.832589386853344937e+00 -3.035174139603898702e+00 2.509747230949728589e+02
-3.428548811853345146e+00 -3.035174139603898702e+00 2.509718086662728354e+02
-3.024508475253345097e+00 -3.035174139603898702e+00 2.509688789787728354e+02
-2.620468138653345047e+00 -3.035174139603898702e+00 2.509659492912728354e+02
-2.216427802053344998e+00 -3.035174139603898702e+00 2.509630196037728354e+02
-1.812387346253345077e+00 -3.035174139603898702e+00 2.509600899162728354e+02
-1.408346890353344927e+00 -3.035174139603898702e+00 2.509571754875728402e+02
-1.004306434553345007e+00 -3.035174139603898702e+00 2.509542458000728402e+02
-6.002660979533450680e-01 -3.035174139603898702e+00 2.509513161125728402e+02
-1.962256719533450877e-01 -3.035174139603898702e+00 2.509483864250728402e+02
2.078147242466548972e-01 -3.035174139603898702e+00 2.509454567375728402e+02
6.118551502466548220e-01 -3.035174139603898702e+00 2.509425270500728402e+02
1.015895486846654983e+00 -3.035174139603898702e+00 2.509396126213728451e+02
1.419935942646654903e+00 -3.035174139603898702e+00 2.509366829338728451e+02
1.823976398546655053e+00 -3.035174139603898702e+00 2.509337532463728451e+02
2.228016854346654974e+00 -3.035174139603898702e+00 2.509308235588728451e+02
2.632057190946655023e+00 -3.035174139603898702e+00 2.509278938713728451e+02
3.036097527546655073e+00 -3.035174139603898702e+00 2.509249794426728499e+02
3.440137864146655122e+00 -3.035174139603898702e+00 2.509220497551728499e+02
3.844178439146654913e+00 -3.035174139603898702e+00 2.509191200676728499e+02
4.248218537346654777e+00 -3.035174139603898702e+00 2.509161903801728499e+02
4.652259350846654762e+00 -3.035174139603898702e+00 2.509132606926728499e+02
5.056299687446655255e+00 -3.035174139603898702e+00 2.509103462639728548e+02
5.460340024046654861e+00 -3.035174139603898702e+00 2.509074165764728548e+02
5.864380360646655355e+00 -3.035174139603898702e+00 2.509044868889728548e+02
6.268420697246654960e+00 -3.035174139603898702e+00 2.509015572014728548e+02
6.672461033846654566e+00 -3.035174139603898702e+00 2.508986275139728548e+02
7.076501370446655059e+00 -3.035174139603898702e+00 2.508957130852728312e+02
7.480542183946655044e+00 -3.035174139603898702e+00 2.508927833977728312e+02
7.884582520546654649e+00 -3.035174139603898702e+00 2.508898537102728312e+02
8.288622857146654255e+00 -3.035174139603898702e+00 2.508869240227728312e+02
8.692663193746655637e+00 -3.035174139603898702e+00 2.508839943352728312e+02
9.096703530346655242e+00 -3.035174139603898702e+00 2.508810799065728361e+02
-6.660871981553344590e+00 -2.631133803003898652e+00 2.509976723137728527e+02
-6.256831644953344984e+00 -2.631133803003898652e+00 2.509947426262728527e+02
-5.852791308353345379e+00 -2.631133803003898652e+00 2.509918281975728576e+02
-5.448750971753344885e+00 -2.631133803003898652e+00 2.509888985100728576e+02
-5.044710635153345279e+00 -2.631133803003898652e+00 2.509859688225728576e+02
-4.640670298553344786e+00 -2.631133803003898652e+00 2.509830391350728576e+02
-4.236629485053344801e+00 -2.631133803003898652e+00 2.509801094475728576e+02
-3.832589386853344937e+00 -2.631133803003898652e+00 2.509771950188728340e+02
-3.428548811853345146e+00 -2.631133803003898652e+00 2.509742653313728340e+02
-3.024508475253345097e+00 -2.631133803003898652e+00 2.509713356438728340e+02
-2.620468138653345047e+00 -2.631133803003898652e+00 2.509684059563728340e+02
-2.216427802053344998e+00 -2.631133803003898652e+00 2.509654762688728340e+02
-1.812387346253345077e+00 -2.631133803003898652e+00 2.509625618401728389e+02
-1.408346890353344927e+00 -2.631133803003898652e+00 2.509596321526728389e+02
-1.004306434553345007e+00 -2.631133803003898652e+00 2.509567024651728389e+02
-6.002660979533450680e-01 -2.631133803003898652e+00 2.509537727776728389e+02
-1.962256719533450877e-01 -2.631133803003898652e+00 2.509508430901728389e+02
2.078147242466548972e-01 -2.631133803003898652e+00 2.509479286613728561e+02
6.118551502466548220e-01 -2.631133803003898652e+00 2.509449989738728561e+02
1.015895486846654983e+00 -2.631133803003898652e+00 2.509420692863728561e+02
1.419935942646654903e+00 -2.631133803003898652e+00 2.509391395988728561e+02
1.823976398546655053e+00 -2.631133803003898652e+00 2.509362099113728561e+02
2.228016854346654974e+00 -2.631133803003898652e+00 2.509332954826728326e+02
2.632057190946655023e+00 -2.631133803003898652e+00 2.509303657951728326e+02
3.036097527546655073e+00 -2.631133803003898652e+00 2.509274361076728326e+02
3.440137864146655122e+00 -2.631133803003898652e+00 2.509245064201728326e+02
3.844178439146654913e+00 -2.631133803003898652e+00 2.509215767326728326e+02
4.248218537346654777e+00 -2.631133803003898652e+00 2.509186623039728374e+02
4.652259350846654762e+00 -2.631133803003898652e+00 2.509157326164728374e+02
5.056299687446655255e+00 -2.631133803003898652e+00 2.509128029289728374e+02
5.460340024046654861e+00 -2.631133803003898652e+00 2.509098732414728374e+02
5.864380360646655355e+00 -2.631133803003898652e+00 2.509069435539728374e+02
6.268420697246654960e+00 -2.631133803003898652e+00 2.509040291252728423e+02
6.672461033846654566e+00 -2.631133803003898652e+00 2.509010994377728423e+02
7.076501370446655059e+00 -2.631133803003898652e+00 2.508981697502728423e+02
7.480542183946655044e+00 -2.631133803003898652e+00 2.508952400627728423e+02
7.884582520546654649e+00 -2.631133803003898652e+00 2.508923103752728423e+02
8.288622857146654255e+00 -2.631133803003898652e+00 2.508893959465728472e+02
8.692663193746655637e+00 -2.631133803003898652e+00 2.508864662590728472e+02
9.096703530346655242e+00 -2.631133803003898652e+00 2.508835365715728472e+02
-6.660871981553344590e+00 -2.227093466403898603e+00 2.510001289787728354e+02
-6.256831644953344984e+00 -2.227093466403898603e+00 2.509972145500728402e+02
-5.852791308353345379e+00 -2.227093466403898603e+00 2.509942848625728402e+02
-5.448750971753344885e+00 -2.227093466403898603e+00 2.509913551750728402e+02
-5.044710635153345279e+00 -2.227093466403898603e+00 2.509884254875728402e+02
-4.640670298553344786e+00 -2.227093466403898603e+00 2.509854958000728402e+02
-4.236629485053344801e+00 -2.227093466403898603e+00 2.509825813713728451e+02
-3.832589386853344937e+00 -2.227093466403898603e+00 2.509796516838728451e+02
-3.428548811853345146e+00 -2.227093466403898603e+00 2.509767219963728451e+02
-3.024508475253345097e+00 -2.227093466403898603e+00 2.509737923088728451e+02
-2.620468138653345047e+00 -2.227093466403898603e+00 2.509708626213728451e+02
-2.216427802053344998e+00 -2.227093466403898603e+00 2.509679481926728499e+02
-1.812387346253345077e+00 -2.227093466403898603e+00 2.509650185051728499e+02
-1.408346890353344927e+00 -2.227093466403898603e+00 2.509620888176728499e+02
-1.004306434553345007e+00 -2.227093466403898603e+00 2.509591591301728499e+02
-6.002660979533450680e-01 -2.227093466403898603e+00 2.509562294426728499e+02
-1.962256719533450877e-01 -2.227093466403898603e+00 2.509533150139728548e+02
2.078147242466548972e-01 -2.227093466403898603e+00 2.509503853264728548e+02
6.118551502466548220e-01 -2.227093466403898603e+00 2.509474556389728548e+02
1.015895486846654983e+00 -2.227093466403898603e+00 2.509445259514728548e+02
1.419935942646654903e+00 -2.227093466403898603e+00 2.509415962639728548e+02
1.823976398546655053e+00 -2.227093466403898603e+00 2.509386818352728312e+02
2.228016854346654974e+00 -2.227093466403898603e+00 2.509357521477728312e+02
2.632057190946655023e+00 -2.227093466403898603e+00 2.509328224602728312e+02
3.036097527546655073e+00 -2.227093466403898603e+00 2.509298927727728312e+02
3.440137864146655122e+00 -2.227093466403898603e+00 2.509269630852728312e+02
3.844178439146654913e+00 -2.227093466403898603e+00 2.509240486565728361e+02
4.248218537346654777e+00 -2.227093466403898603e+00 2.509211189690728361e+02
4.652259350846654762e+00 -2.227093466403898603e+00 2.509181892815728361e+02
5.056299687446655255e+00 -2.227093466403898603e+00 2.509152595940728361e+02
5.460340024046654861e+00 -2.227093466403898603e+00 2.509123299065728361e+02
5.864380360646655355e+00 -2.227093466403898603e+00 2.509094154777728534e+02
6.268420697246654960e+00 -2.227093466403898603e+00 2.509064857902728534e+02
6.672461033846654566e+00 -2.227093466403898603e+00 2.509035561027728534e+02
7.076501370446655059e+00 -2.227093466403898603e+00 2.509006264152728534e+02
7.480542183946655044e+00 -2.227093466403898603e+00 2.508976967277728534e+02
7.884582520546654649e+00 -2.227093466403898603e+00 2.508947822990728582e+02
8.288622857146654255e+00 -2.227093466403898603e+00 2.508918526115728582e+02
8.692663193746655637e+00 -2.227093466403898603e+00 2.508889229240728582e+02
-6.256831644953344984e+00 -1.823053010603898461e+00 2.509996712151728389e+02
-5.852791308353345379e+00 -1.823053010603898461e+00 2.509967415276728389e+02
-5.448750971753344885e+00 -1.823053010603898461e+00 2.509938118401728389e+02
-5.044710635153345279e+00 -1.823053010603898461e+00 2.509908821526728389e+02
-4.640670298553344786e+00 -1.823053010603898461e+00 2.509879677238728561e+02
-4.236629485053344801e+00 -1.823053010603898461e+00 2.509850380363728561e+02
-3.832589386853344937e+00 -1.823053010603898461e+00 2.509821083488728561e+02
-3.428548811853345146e+00 -1.823053010603898461e+00 2.509791786613728561e+02
-3.024508475253345097e+00 -1.823053010603898461e+00 2.509762489738728561e+02
-2.620468138653345047e+00 -1.823053010603898461e+00 2.509733345451728326e+02
-2.216427802053344998e+00 -1.823053010603898461e+00 2.509704048576728326e+02
-1.812387346253345077e+00 -1.823053010603898461e+00 2.509674751701728326e+02
-1.408346890353344927e+00 -1.823053010603898461e+00 2.509645454826728326e+02
-1.004306434553345007e+00 -1.823053010603898461e+00 2.509616157951728326e+02
-6.002660979533450680e-01 -1.823053010603898461e+00 2.509587013664728374e+02
-1.962256719533450877e-01 -1.823053010603898461e+00 2.509557716789728374e+02
2.078147242466548972e-01 -1.823053010603898461e+00 2.509528419914728374e+02
6.118551502466548220e-01 -1.823053010603898461e+00 2.509499123039728374e+02
1.015895486846654983e+00 -1.823053010603898461e+00 2.509469826164728374e+02
1.419935942646654903e+00 -1.823053010603898461e+00 2.509440681877728423e+02
1.823976398546655053e+00 -1.823053010603898461e+00 2.509411385002728423e+02
2.228016854346654974e+00 -1.823053010603898461e+00 2.509382088127728423e+02
2.632057190946655023e+00 -1.823053010603898461e+00 2.509352791252728423e+02
3.036097527546655073e+00 -1.823053010603898461e+00 2.509323494377728423e+02
3.440137864146655122e+00 -1.823053010603898461e+00 2.509294350090728472e+02
3.844178439146654913e+00 -1.823053010603898461e+00 2.509265053215728472e+02
4.248218537346654777e+00 -1.823053010603898461e+00 2.509235756340728472e+02
4.652259350846654762e+00 -1.823053010603898461e+00 2.509206459465728472e+02
5.056299687446655255e+00 -1.823053010603898461e+00 2.509177162590728472e+02
5.460340024046654861e+00 -1.823053010603898461e+00 2.509148018303728520e+02
5.864380360646655355e+00 -1.823053010603898461e+00 2.509118721428728520e+02
6.268420697246654960e+00 -1.823053010603898461e+00 2.509089424553728520e+02
6.672461033846654566e+00 -1.823053010603898461e+00 2.509060127678728520e+02
7.076501370446655059e+00 -1.823053010603898461e+00 2.509030830803728520e+02
7.480542183946655044e+00 -1.823053010603898461e+00 2.509001686516728569e+02
7.884582520546654649e+00 -1.823053010603898461e+00 2.508972389641728569e+02
8.288622857146654255e+00 -1.823053010603898461e+00 2.508943092766728569e+02
8.692663193746655637e+00 -1.823053010603898461e+00 2.508913795891728569e+02
-6.256831644953344984e+00 -1.419012554703898310e+00 2.510021278801728499e+02
-5.852791308353345379e+00 -1.419012554703898310e+00 2.509991981926728499e+02
-5.448750971753344885e+00 -1.419012554703898310e+00 2.509962685051728499e+02
-5.044710635153345279e+00 -1.419012554703898310e+00 2.509933540764728548e+02
-4.640670298553344786e+00 -1.419012554703898310e+00 2.509904243889728548e+02
-4.236629485053344801e+00 -1.419012554703898310e+00 2.509874947014728548e+02
-3.832589386853344937e+00 -1.419012554703898310e+00 2.509845650139728548e+02
-3.428548811853345146e+00 -1.419012554703898310e+00 2.509816353264728548e+02
-3.024508475253345097e+00 -1.419012554703898310e+00 2.509787208977728312e+02
-2.620468138653345047e+00 -1.419012554703898310e+00 2.509757912102728312e+02
-2.216427802053344998e+00 -1.419012554703898310e+00 2.509728615227728312e+02
-1.812387346253345077e+00 -1.419012554703898310e+00 2.509699318352728312e+02
-1.408346890353344927e+00 -1.419012554703898310e+00 2.509670021477728312e+02
-1.004306434553345007e+00 -1.419012554703898310e+00 2.509640877190728361e+02
-6.002660979533450680e-01 -1.419012554703898310e+00 2.509611580315728361e+02
-1.962256719533450877e-01 -1.419012554703898310e+00 2.509582283440728361e+02
2.078147242466548972e-01 -1.419012554703898310e+00 2.509552986565728361e+02
6.118551502466548220e-01 -1.419012554703898310e+00 2.509523689690728361e+02
1.015895486846654983e+00 -1.419012554703898310e+00 2.509494545402728534e+02
1.419935942646654903e+00 -1.419012554703898310e+00 2.509465248527728534e+02
1.823976398546655053e+00 -1.419012554703898310e+00 2.509435951652728534e+02
2.228016854346654974e+00 -1.419012554703898310e+00 2.509406654777728534e+02
2.632057190946655023e+00 -1.419012554703898310e+00 2.509377357902728534e+02
3.036097527546655073e+00 -1.419012554703898310e+00 2.509348213615728582e+02
3.440137864146655122e+00 -1.419012554703898310e+00 2.509318916740728582e+02
3.844178439146654913e+00 -1.419012554703898310e+00 2.509289619865728582e+02
4.248218537346654777e+00 -1.419012554703898310e+00 2.509260322990728582e+02
4.652259350846654762e+00 -1.419012554703898310e+00 2.509231026115728582e+02
5.056299687446655255e+00 -1.419012554703898310e+00 2.509201881828728347e+02
5.460340024046654861e+00 -1.419012554703898310e+00 2.509172584953728347e+02
5.864380360646655355e+00 -1.419012554703898310e+00 2.509143288078728347e+02
6.268420697246654960e+00 -1.419012554703898310e+00 2.509113991203728347e+02
6.672461033846654566e+00 -1.419012554703898310e+00 2.509084694328728347e+02
7.076501370446655059e+00 -1.419012554703898310e+00 2.509055550041728395e+02
7.480542183946655044e+00 -1.419012554703898310e+00 2.509026253166728395e+02
7.884582520546654649e+00 -1.419012554703898310e+00 2.508996956291728395e+02
8.288622857146654255e+00 -1.419012554703898310e+00 2.508967659416728395e+02
8.692663193746655637e+00 -1.419012554703898310e+00 2.508938362541728395e+02
-6.256831644953344984e+00 -1.014972098903898390e+00 2.510045845451728326e+02
-5.852791308353345379e+00 -1.014972098903898390e+00 2.510016701164728374e+02
-5.448750971753344885e+00 -1.014972098903898390e+00 2.509987404289728374e+02
-5.044710635153345279e+00 -1.014972098903898390e+00 2.509958107414728374e+02
-4.640670298553344786e+00 -1.014972098903898390e+00 2.509928810539728374e+02
-4.236629485053344801e+00 -1.014972098903898390e+00 2.509899513664728374e+02
-3.832589386853344937e+00 -1.014972098903898390e+00 2.509870216789728374e+02
-3.428548811853345146e+00 -1.014972098903898390e+00 2.509841072502728423e+02
-3.024508475253345097e+00 -1.014972098903898390e+00 2.509811775627728423e+02
-2.620468138653345047e+00 -1.014972098903898390e+00 2.509782478752728423e+02
-2.216427802053344998e+00 -1.014972098903898390e+00 2.509753181877728423e+02
-1.812387346253345077e+00 -1.014972098903898390e+00 2.509723885002728423e+02
-1.408346890353344927e+00 -1.014972098903898390e+00 2.509694740715728472e+02
-1.004306434553345007e+00 -1.014972098903898390e+00 2.509665443840728472e+02
-6.002660979533450680e-01 -1.014972098903898390e+00 2.509636146965728472e+02
-1.962256719533450877e-01 -1.014972098903898390e+00 2.509606850090728472e+02
2.078147242466548972e-01 -1.014972098903898390e+00 2.509577553215728472e+02
6.118551502466548220e-01 -1.014972098903898390e+00 2.509548408928728520e+02
1.015895486846654983e+00 -1.014972098903898390e+00 2.509519112053728520e+02
1.419935942646654903e+00 -1.014972098903898390e+00 2.509489815178728520e+02
1.823976398546655053e+00 -1.014972098903898390e+00 2.509460518303728520e+02
2.228016854346654974e+00 -1.014972098903898390e+00 2.509431221428728520e+02
2.632057190946655023e+00 -1.014972098903898390e+00 2.509402077141728569e+02
3.036097527546655073e+00 -1.014972098903898390e+00 2.509372780266728569e+02
3.440137864146655122e+00 -1.014972098903898390e+00 2.509343483391728569e+02
3.844178439146654913e+00 -1.014972098903898390e+00 2.509314186516728569e+02
4.248218537346654777e+00 -1.014972098903898390e+00 2.509284889641728569e+02
4.652259350846654762e+00 -1.014972098903898390e+00 2.509255745354728333e+02
5.056299687446655255e+00 -1.014972098903898390e+00 2.509226448479728333e+02
