-3.829692123780017443e+00 -9.906296384705846947e+00 2.513328808461092478e+02
-3.425651548780017652e+00 -9.906296384705846947e+00 2.513299511586092478e+02
-3.021611212180017603e+00 -9.906296384705846947e+00 2.513270367299092527e+02
-2.617570875580017553e+00 -9.906296384705846947e+00 2.513241070424092527e+02
-2.213530538980017504e+00 -9.906296384705846947e+00 2.513211773549092527e+02
-1.809490083180017805e+00 -9.906296384705846947e+00 2.513182476674092527e+02
-1.405449627280017655e+00 -9.906296384705846947e+00 2.513153179799092527e+02
-1.001409171480017735e+00 -9.906296384705846947e+00 2.513124035512092576e+02
-5.973688348800175740e-01 -9.906296384705846947e+00 2.513094738637092576e+02
-1.933284088800176492e-01 -9.906296384705846947e+00 2.513065441762092576e+02
2.107119873199823357e-01 -9.906296384705846947e+00 2.513036144887092576e+02
6.147524133199823160e-01 -9.906296384705846947e+00 2.513006848012092576e+02
1.018792749919982255e+00 -9.906296384705846947e+00 2.512977703725092624e+02
1.422833205719982175e+00 -9.906296384705846947e+00 2.512948406850092624e+02
1.826873661619982325e+00 -9.906296384705846947e+00 2.512919109975092624e+02
2.230914117419982468e+00 -9.906296384705846947e+00 2.512889813100092624e+02
2.634954454019982517e+00 -9.906296384705846947e+00 2.512860516225092624e+02
3.038994790619982567e+00 -9.906296384705846947e+00 2.512831371938092673e+02
3.443035127219982616e+00 -9.906296384705846947e+00 2.512802075063092673e+02
3.847075702219982407e+00 -9.906296384705846947e+00 2.512772778188092673e+02
4.251115800419982271e+00 -9.906296384705846947e+00 2.512743481313092673e+02
4.655156613919982256e+00 -9.906296384705846947e+00 2.512714184438092673e+02
5.059196950519982749e+00 -9.906296384705846947e+00 2.512685040151092437e+02
5.463237287119982355e+00 -9.906296384705846947e+00 2.512655743276092437e+02
5.867277623719982849e+00 -9.906296384705846947e+00 2.512626446401092437e+02
6.271317960319982454e+00 -9.906296384705846947e+00 2.512597149526092437e+02
6.675358296919982060e+00 -9.906296384705846947e+00 2.512567852651092437e+02
7.079398633519982553e+00 -9.906296384705846947e+00 2.512538708363092610e+02
7.483439447019982538e+00 -9.906296384705846947e+00 2.512509411488092610e+02
7.887479783619982143e+00 -9.906296384705846947e+00 2.512480114613092610e+02
8.291520120219981749e+00 -9.906296384705846947e+00 2.512450817738092610e+02
8.695560456819983131e+00 -9.906296384705846947e+00 2.512421520863092610e+02
-5.849894045280017885e+00 -9.502256048105847341e+00 2.513499859487092465e+02
-5.445853708680017391e+00 -9.502256048105847341e+00 2.513470562612092465e+02
-5.041813372080017785e+00 -9.502256048105847341e+00 2.513441265737092465e+02
-4.637773035480017292e+00 -9.502256048105847341e+00 2.513411968862092465e+02
-4.233732221980017307e+00 -9.502256048105847341e+00 2.513382671987092465e+02
-3.829692123780017443e+00 -9.502256048105847341e+00 2.513353527699092638e+02
-3.425651548780017652e+00 -9.502256048105847341e+00 2.513324230824092638e+02
-3.021611212180017603e+00 -9.502256048105847341e+00 2.513294933949092638e+02
-2.617570875580017553e+00 -9.502256048105847341e+00 2.513265637074092638e+02
-2.213530538980017504e+00 -9.502256048105847341e+00 2.513236340199092638e+02
-1.809490083180017805e+00 -9.502256048105847341e+00 2.513207195912092402e+02
-1.405449627280017655e+00 -9.502256048105847341e+00 2.513177899037092402e+02
-1.001409171480017735e+00 -9.502256048105847341e+00 2.513148602162092402e+02
-5.973688348800175740e-01 -9.502256048105847341e+00 2.513119305287092402e+02
-1.933284088800176492e-01 -9.502256048105847341e+00 2.513090008412092402e+02
2.107119873199823357e-01 -9.502256048105847341e+00 2.513060864125092451e+02
6.147524133199823160e-01 -9.502256048105847341e+00 2.513031567250092451e+02
1.018792749919982255e+00 -9.502256048105847341e+00 2.513002270375092451e+02
1.422833205719982175e+00 -9.502256048105847341e+00 2.512972973500092451e+02
1.826873661619982325e+00 -9.502256048105847341e+00 2.512943676625092451e+02
2.230914117419982468e+00 -9.502256048105847341e+00 2.512914379750092451e+02
2.634954454019982517e+00 -9.502256048105847341e+00 2.512885235463092499e+02
3.038994790619982567e+00 -9.502256048105847341e+00 2.512855938588092499e+02
3.443035127219982616e+00 -9.502256048105847341e+00 2.512826641713092499e+02
3.847075702219982407e+00 -9.502256048105847341e+00 2.512797344838092499e+02
4.251115800419982271e+00 -9.502256048105847341e+00 2.512768047963092499e+02
4.655156613919982256e+00 -9.502256048105847341e+00 2.512738903676092548e+02
5.059196950519982749e+00 -9.502256048105847341e+00 2.512709606801092548e+02
5.463237287119982355e+00 -9.502256048105847341e+00 2.512680309926092548e+02
5.867277623719982849e+00 -9.502256048105847341e+00 2.512651013051092548e+02
6.271317960319982454e+00 -9.502256048105847341e+00 2.512621716176092548e+02
6.675358296919982060e+00 -9.502256048105847341e+00 2.512592571889092596e+02
7.079398633519982553e+00 -9.502256048105847341e+00 2.512563275014092596e+02
7.483439447019982538e+00 -9.502256048105847341e+00 2.512533978139092596e+02
7.887479783619982143e+00 -9.502256048105847341e+00 2.512504681264092596e+02
8.291520120219981749e+00 -9.502256048105847341e+00 2.512475384389092596e+02
8.695560456819983131e+00 -9.502256048105847341e+00 2.512446240102092645e+02
-5.849894045280017885e+00 -9.098215711505847736e+00 2.513524426137092576e+02
-5.445853708680017391e+00 -9.098215711505847736e+00 2.513495129262092576e+02
-5.041813372080017785e+00 -9.098215711505847736e+00 2.513465832387092576e+02
-4.637773035480017292e+00 -9.098215711505847736e+00 2.513436535512092576e+02
-4.233732221980017307e+00 -9.098215711505847736e+00 2.513407391225092624e+02
-3.829692123780017443e+00 -9.098215711505847736e+00 2.513378094350092624e+02
-3.425651548780017652e+00 -9.098215711505847736e+00 2.513348797475092624e+02
-3.021611212180017603e+00 -9.098215711505847736e+00 2.513319500600092624e+02
-2.617570875580017553e+00 -9.098215711505847736e+00 2.513290203725092624e+02
-2.213530538980017504e+00 -9.098215711505847736e+00 2.513261059438092673e+02
-1.809490083180017805e+00 -9.098215711505847736e+00 2.513231762563092673e+02
-1.405449627280017655e+00 -9.098215711505847736e+00 2.513202465688092673e+02
-1.001409171480017735e+00 -9.098215711505847736e+00 2.513173168813092673e+02
-5.973688348800175740e-01 -9.098215711505847736e+00 2.513143871938092673e+02
-1.933284088800176492e-01 -9.098215711505847736e+00 2.513114727651092437e+02
2.107119873199823357e-01 -9.098215711505847736e+00 2.513085430776092437e+02
6.147524133199823160e-01 -9.098215711505847736e+00 2.513056133901092437e+02
1.018792749919982255e+00 -9.098215711505847736e+00 2.513026837026092437e+02
1.422833205719982175e+00 -9.098215711505847736e+00 2.512997540151092437e+02
1.826873661619982325e+00 -9.098215711505847736e+00 2.512968395863092610e+02
2.230914117419982468e+00 -9.098215711505847736e+00 2.512939098988092610e+02
2.634954454019982517e+00 -9.098215711505847736e+00 2.512909802113092610e+02
3.038994790619982567e+00 -9.098215711505847736e+00 2.512880505238092610e+02
3.443035127219982616e+00 -9.098215711505847736e+00 2.512851208363092610e+02
3.847075702219982407e+00 -9.098215711505847736e+00 2.512822064076092659e+02
4.251115800419982271e+00 -9.098215711505847736e+00 2.512792767201092659e+02
4.655156613919982256e+00 -9.098215711505847736e+00 2.512763470326092659e+02
5.059196950519982749e+00 -9.098215711505847736e+00 2.512734173451092659e+02
5.463237287119982355e+00 -9.098215711505847736e+00 2.512704876576092659e+02
5.867277623719982849e+00 -9.098215711505847736e+00 2.512675732289092423e+02
6.271317960319982454e+00 -9.098215711505847736e+00 2.512646435414092423e+02
6.675358296919982060e+00 -9.098215711505847736e+00 2.512617138539092423e+02
7.079398633519982553e+00 -9.098215711505847736e+00 2.512587841664092423e+02
7.483439447019982538e+00 -9.098215711505847736e+00 2.512558544789092423e+02
7.887479783619982143e+00 -9.098215711505847736e+00 2.512529400502092471e+02
8.291520120219981749e+00 -9.098215711505847736e+00 2.512500103627092471e+02
8.695560456819983131e+00 -9.098215711505847736e+00 2.512470806752092471e+02
-5.849894045280017885e+00 -8.694175374905848130e+00 2.513548992787092402e+02
-5.445853708680017391e+00 -8.694175374905848130e+00 2.513519695912092402e+02
-5.041813372080017785e+00 -8.694175374905848130e+00 2.513490399037092402e+02
-4.637773035480017292e+00 -8.694175374905848130e+00 2.513461254750092451e+02
-4.233732221980017307e+00 -8.694175374905848130e+00 2.513431957875092451e+02
-3.829692123780017443e+00 -8.694175374905848130e+00 2.513402661000092451e+02
-3.425651548780017652e+00 -8.694175374905848130e+00 2.513373364125092451e+02
-3.021611212180017603e+00 -8.694175374905848130e+00 2.513344067250092451e+02
-2.617570875580017553e+00 -8.694175374905848130e+00 2.513314922963092499e+02
-2.213530538980017504e+00 -8.694175374905848130e+00 2.513285626088092499e+02
-1.809490083180017805e+00 -8.694175374905848130e+00 2.513256329213092499e+02
-1.405449627280017655e+00 -8.694175374905848130e+00 2.513227032338092499e+02
-1.001409171480017735e+00 -8.694175374905848130e+00 2.513197735463092499e+02
-5.973688348800175740e-01 -8.694175374905848130e+00 2.513168591176092548e+02
-1.933284088800176492e-01 -8.694175374905848130e+00 2.513139294301092548e+02
2.107119873199823357e-01 -8.694175374905848130e+00 2.513109997426092548e+02
6.147524133199823160e-01 -8.694175374905848130e+00 2.513080700551092548e+02
1.018792749919982255e+00 -8.694175374905848130e+00 2.513051403676092548e+02
1.422833205719982175e+00 -8.694175374905848130e+00 2.513022259389092596e+02
1.826873661619982325e+00 -8.694175374905848130e+00 2.512992962514092596e+02
2.230914117419982468e+00 -8.694175374905848130e+00 2.512963665639092596e+02
2.634954454019982517e+00 -8.694175374905848130e+00 2.512934368764092596e+02
3.038994790619982567e+00 -8.694175374905848130e+00 2.512905071889092596e+02
3.443035127219982616e+00 -8.694175374905848130e+00 2.512875927602092645e+02
3.847075702219982407e+00 -8.694175374905848130e+00 2.512846630727092645e+02
4.251115800419982271e+00 -8.694175374905848130e+00 2.512817333852092645e+02
4.655156613919982256e+00 -8.694175374905848130e+00 2.512788036977092645e+02
5.059196950519982749e+00 -8.694175374905848130e+00 2.512758740102092645e+02
5.463237287119982355e+00 -8.694175374905848130e+00 2.512729595815092409e+02
5.867277623719982849e+00 -8.694175374905848130e+00 2.512700298940092409e+02
6.271317960319982454e+00 -8.694175374905848130e+00 2.512671002065092409e+02
6.675358296919982060e+00 -8.694175374905848130e+00 2.512641705190092409e+02
7.079398633519982553e+00 -8.694175374905848130e+00 2.512612408315092409e+02
7.483439447019982538e+00 -8.694175374905848130e+00 2.512583264028092458e+02
7.887479783619982143e+00 -8.694175374905848130e+00 2.512553967153092458e+02
8.291520120219981749e+00 -8.694175374905848130e+00 2.512524670278092458e+02
8.695560456819983131e+00 -8.694175374905848130e+00 2.512495373403092458e+02
-5.849894045280017885e+00 -8.290135038305846749e+00 2.513573559438092673e+02
-5.445853708680017391e+00 -8.290135038305846749e+00 2.513544262563092673e+02
-5.041813372080017785e+00 -8.290135038305846749e+00 2.513515118276092437e+02
-4.637773035480017292e+00 -8.290135038305846749e+00 2.513485821401092437e+02
-4.233732221980017307e+00 -8.290135038305846749e+00 2.513456524526092437e+02
-3.829692123780017443e+00 -8.290135038305846749e+00 2.513427227651092437e+02
-3.425651548780017652e+00 -8.290135038305846749e+00 2.513397930776092437e+02
-3.021611212180017603e+00 -8.290135038305846749e+00 2.513368786488092610e+02
-2.617570875580017553e+00 -8.290135038305846749e+00 2.513339489613092610e+02
-2.213530538980017504e+00 -8.290135038305846749e+00 2.513310192738092610e+02
-1.809490083180017805e+00 -8.290135038305846749e+00 2.513280895863092610e+02
-1.405449627280017655e+00 -8.290135038305846749e+00 2.513251598988092610e+02
-1.001409171480017735e+00 -8.290135038305846749e+00 2.513222454701092659e+02
-5.973688348800175740e-01 -8.290135038305846749e+00 2.513193157826092659e+02
-1.933284088800176492e-01 -8.290135038305846749e+00 2.513163860951092659e+02
2.107119873199823357e-01 -8.290135038305846749e+00 2.513134564076092659e+02
6.147524133199823160e-01 -8.290135038305846749e+00 2.513105267201092659e+02
1.018792749919982255e+00 -8.290135038305846749e+00 2.513076122914092423e+02
1.422833205719982175e+00 -8.290135038305846749e+00 2.513046826039092423e+02
1.826873661619982325e+00 -8.290135038305846749e+00 2.513017529164092423e+02
2.230914117419982468e+00 -8.290135038305846749e+00 2.512988232289092423e+02
2.634954454019982517e+00 -8.290135038305846749e+00 2.512958935414092423e+02
3.038994790619982567e+00 -8.290135038305846749e+00 2.512929791127092471e+02
3.443035127219982616e+00 -8.290135038305846749e+00 2.512900494252092471e+02
3.847075702219982407e+00 -8.290135038305846749e+00 2.512871197377092471e+02
4.251115800419982271e+00 -8.290135038305846749e+00 2.512841900502092471e+02
4.655156613919982256e+00 -8.290135038305846749e+00 2.512812603627092471e+02
5.059196950519982749e+00 -8.290135038305846749e+00 2.512783459340092520e+02
5.463237287119982355e+00 -8.290135038305846749e+00 2.512754162465092520e+02
5.867277623719982849e+00 -8.290135038305846749e+00 2.512724865590092520e+02
6.271317960319982454e+00 -8.290135038305846749e+00 2.512695568715092520e+02
6.675358296919982060e+00 -8.290135038305846749e+00 2.512666271840092520e+02
7.079398633519982553e+00 -8.290135038305846749e+00 2.512637127553092569e+02
7.483439447019982538e+00 -8.290135038305846749e+00 2.512607830678092569e+02
7.887479783619982143e+00 -8.290135038305846749e+00 2.512578533803092569e+02
8.291520120219981749e+00 -8.290135038305846749e+00 2.512549236928092569e+02
8.695560456819983131e+00 -8.290135038305846749e+00 2.512519940053092569e+02
-5.849894045280017885e+00 -7.886094701705847143e+00 2.513598126088092499e+02
-5.445853708680017391e+00 -7.886094701705847143e+00 2.513568981801092548e+02
-5.041813372080017785e+00 -7.886094701705847143e+00 2.513539684926092548e+02
-4.637773035480017292e+00 -7.886094701705847143e+00 2.513510388051092548e+02
-4.233732221980017307e+00 -7.886094701705847143e+00 2.513481091176092548e+02
-3.829692123780017443e+00 -7.886094701705847143e+00 2.513451794301092548e+02
-3.425651548780017652e+00 -7.886094701705847143e+00 2.513422650014092596e+02
-3.021611212180017603e+00 -7.886094701705847143e+00 2.513393353139092596e+02
-2.617570875580017553e+00 -7.886094701705847143e+00 2.513364056264092596e+02
-2.213530538980017504e+00 -7.886094701705847143e+00 2.513334759389092596e+02
-1.809490083180017805e+00 -7.886094701705847143e+00 2.513305462514092596e+02
-1.405449627280017655e+00 -7.886094701705847143e+00 2.513276318227092645e+02
-1.001409171480017735e+00 -7.886094701705847143e+00 2.513247021352092645e+02
-5.973688348800175740e-01 -7.886094701705847143e+00 2.513217724477092645e+02
-1.933284088800176492e-01 -7.886094701705847143e+00 2.513188427602092645e+02
2.107119873199823357e-01 -7.886094701705847143e+00 2.513159130727092645e+02
6.147524133199823160e-01 -7.886094701705847143e+00 2.513129986440092409e+02
1.018792749919982255e+00 -7.886094701705847143e+00 2.513100689565092409e+02
1.422833205719982175e+00 -7.886094701705847143e+00 2.513071392690092409e+02
1.826873661619982325e+00 -7.886094701705847143e+00 2.513042095815092409e+02
2.230914117419982468e+00 -7.886094701705847143e+00 2.513012798940092409e+02
2.634954454019982517e+00 -7.886094701705847143e+00 2.512983654653092458e+02
3.038994790619982567e+00 -7.886094701705847143e+00 2.512954357778092458e+02
3.443035127219982616e+00 -7.886094701705847143e+00 2.512925060903092458e+02
3.847075702219982407e+00 -7.886094701705847143e+00 2.512895764028092458e+02
4.251115800419982271e+00 -7.886094701705847143e+00 2.512866467153092458e+02
4.655156613919982256e+00 -7.886094701705847143e+00 2.512837322865092631e+02
5.059196950519982749e+00 -7.886094701705847143e+00 2.512808025990092631e+02
5.463237287119982355e+00 -7.886094701705847143e+00 2.512778729115092631e+02
5.867277623719982849e+00 -7.886094701705847143e+00 2.512749432240092631e+02
6.271317960319982454e+00 -7.886094701705847143e+00 2.512720135365092631e+02
6.675358296919982060e+00 -7.886094701705847143e+00 2.512690991078092395e+02
7.079398633519982553e+00 -7.886094701705847143e+00 2.512661694203092395e+02
7.483439447019982538e+00 -7.886094701705847143e+00 2.512632397328092395e+02
7.887479783619982143e+00 -7.886094701705847143e+00 2.512603100453092395e+02
8.291520120219981749e+00 -7.886094701705847143e+00 2.512573803578092395e+02
8.695560456819983131e+00 -7.886094701705847143e+00 2.512544659291092444e+02
-5.849894045280017885e+00 -7.482054365105847538e+00 2.513622845326092659e+02
-5.445853708680017391e+00 -7.482054365105847538e+00 2.513593548451092659e+02
-5.041813372080017785e+00 -7.482054365105847538e+00 2.513564251576092659e+02
-4.637773035480017292e+00 -7.482054365105847538e+00 2.513534954701092659e+02
-4.233732221980017307e+00 -7.482054365105847538e+00 2.513505810414092423e+02
-3.829692123780017443e+00 -7.482054365105847538e+00 2.513476513539092423e+02
-3.425651548780017652e+00 -7.482054365105847538e+00 2.513447216664092423e+02
-3.021611212180017603e+00 -7.482054365105847538e+00 2.513417919789092423e+02
-2.617570875580017553e+00 -7.482054365105847538e+00 2.513388622914092423e+02
-2.213530538980017504e+00 -7.482054365105847538e+00 2.513359478627092471e+02
-1.809490083180017805e+00 -7.482054365105847538e+00 2.513330181752092471e+02
-1.405449627280017655e+00 -7.482054365105847538e+00 2.513300884877092471e+02
-1.001409171480017735e+00 -7.482054365105847538e+00 2.513271588002092471e+02
-5.973688348800175740e-01 -7.482054365105847538e+00 2.513242291127092471e+02
-1.933284088800176492e-01 -7.482054365105847538e+00 2.513212994252092471e+02
2.107119873199823357e-01 -7.482054365105847538e+00 2.513183849965092520e+02
6.147524133199823160e-01 -7.482054365105847538e+00 2.513154553090092520e+02
1.018792749919982255e+00 -7.482054365105847538e+00 2.513125256215092520e+02
1.422833205719982175e+00 -7.482054365105847538e+00 2.513095959340092520e+02
1.826873661619982325e+00 -7.482054365105847538e+00 2.513066662465092520e+02
2.230914117419982468e+00 -7.482054365105847538e+00 2.513037518178092569e+02
2.634954454019982517e+00 -7.482054365105847538e+00 2.513008221303092569e+02
3.038994790619982567e+00 -7.482054365105847538e+00 2.512978924428092569e+02
3.443035127219982616e+00 -7.482054365105847538e+00 2.512949627553092569e+02
3.847075702219982407e+00 -7.482054365105847538e+00 2.512920330678092569e+02
4.251115800419982271e+00 -7.482054365105847538e+00 2.512891186391092617e+02
4.655156613919982256e+00 -7.482054365105847538e+00 2.512861889516092617e+02
5.059196950519982749e+00 -7.482054365105847538e+00 2.512832592641092617e+02
5.463237287119982355e+00 -7.482054365105847538e+00 2.512803295766092617e+02
5.867277623719982849e+00 -7.482054365105847538e+00 2.512773998891092617e+02
6.271317960319982454e+00 -7.482054365105847538e+00 2.512744854604092666e+02
6.675358296919982060e+00 -7.482054365105847538e+00 2.512715557729092666e+02
7.079398633519982553e+00 -7.482054365105847538e+00 2.512686260854092666e+02
7.483439447019982538e+00 -7.482054365105847538e+00 2.512656963979092666e+02
7.887479783619982143e+00 -7.482054365105847538e+00 2.512627667104092666e+02
8.291520120219981749e+00 -7.482054365105847538e+00 2.512598522817092430e+02
8.695560456819983131e+00 -7.482054365105847538e+00 2.512569225942092430e+02
-5.849894045280017885e+00 -7.078013551605847553e+00 2.513647411977092645e+02
-5.445853708680017391e+00 -7.078013551605847553e+00 2.513618115102092645e+02
-5.041813372080017785e+00 -7.078013551605847553e+00 2.513588818227092645e+02
-4.637773035480017292e+00 -7.078013551605847553e+00 2.513559673940092409e+02
-4.233732221980017307e+00 -7.078013551605847553e+00 2.513530377065092409e+02
-3.829692123780017443e+00 -7.078013551605847553e+00 2.513501080190092409e+02
-3.425651548780017652e+00 -7.078013551605847553e+00 2.513471783315092409e+02
-3.021611212180017603e+00 -7.078013551605847553e+00 2.513442486440092409e+02
-2.617570875580017553e+00 -7.078013551605847553e+00 2.513413342153092458e+02
-2.213530538980017504e+00 -7.078013551605847553e+00 2.513384045278092458e+02
-1.809490083180017805e+00 -7.078013551605847553e+00 2.513354748403092458e+02
-1.405449627280017655e+00 -7.078013551605847553e+00 2.513325451528092458e+02
-1.001409171480017735e+00 -7.078013551605847553e+00 2.513296154653092458e+02
-5.973688348800175740e-01 -7.078013551605847553e+00 2.513267010365092631e+02
-1.933284088800176492e-01 -7.078013551605847553e+00 2.513237713490092631e+02
2.107119873199823357e-01 -7.078013551605847553e+00 2.513208416615092631e+02
6.147524133199823160e-01 -7.078013551605847553e+00 2.513179119740092631e+02
1.018792749919982255e+00 -7.078013551605847553e+00 2.513149822865092631e+02
1.422833205719982175e+00 -7.078013551605847553e+00 2.513120678578092395e+02
1.826873661619982325e+00 -7.078013551605847553e+00 2.513091381703092395e+02
2.230914117419982468e+00 -7.078013551605847553e+00 2.513062084828092395e+02
2.634954454019982517e+00 -7.078013551605847553e+00 2.513032787953092395e+02
3.038994790619982567e+00 -7.078013551605847553e+00 2.513003491078092395e+02
3.443035127219982616e+00 -7.078013551605847553e+00 2.512974346791092444e+02
3.847075702219982407e+00 -7.078013551605847553e+00 2.512945049916092444e+02
4.251115800419982271e+00 -7.078013551605847553e+00 2.512915753041092444e+02
4.655156613919982256e+00 -7.078013551605847553e+00 2.512886456166092444e+02
5.059196950519982749e+00 -7.078013551605847553e+00 2.512857159291092444e+02
5.463237287119982355e+00 -7.078013551605847553e+00 2.512828015004092492e+02
5.867277623719982849e+00 -7.078013551605847553e+00 2.512798718129092492e+02
6.271317960319982454e+00 -7.078013551605847553e+00 2.512769421254092492e+02
6.675358296919982060e+00 -7.078013551605847553e+00 2.512740124379092492e+02
7.079398633519982553e+00 -7.078013551605847553e+00 2.512710827504092492e+02
7.483439447019982538e+00 -7.078013551605847553e+00 2.512681683217092541e+02
7.887479783619982143e+00 -7.078013551605847553e+00 2.512652386342092541e+02
8.291520120219981749e+00 -7.078013551605847553e+00 2.512623089467092541e+02
8.695560456819983131e+00 -7.078013551605847553e+00 2.512593792592092541e+02
-5.849894045280017885e+00 -6.673973215005847059e+00 2.513671978627092471e+02
-5.445853708680017391e+00 -6.673973215005847059e+00 2.513642681752092471e+02
-5.041813372080017785e+00 -6.673973215005847059e+00 2.513613537465092520e+02
-4.637773035480017292e+00 -6.673973215005847059e+00 2.513584240590092520e+02
-4.233732221980017307e+00 -6.673973215005847059e+00 2.513554943715092520e+02
-3.829692123780017443e+00 -6.673973215005847059e+00 2.513525646840092520e+02
-3.425651548780017652e+00 -6.673973215005847059e+00 2.513496349965092520e+02
-3.021611212180017603e+00 -6.673973215005847059e+00 2.513467205678092569e+02
-2.617570875580017553e+00 -6.673973215005847059e+00 2.513437908803092569e+02
-2.213530538980017504e+00 -6.673973215005847059e+00 2.513408611928092569e+02
-1.809490083180017805e+00 -6.673973215005847059e+00 2.513379315053092569e+02
-1.405449627280017655e+00 -6.673973215005847059e+00 2.513350018178092569e+02
-1.001409171480017735e+00 -6.673973215005847059e+00 2.513320873891092617e+02
-5.973688348800175740e-01 -6.673973215005847059e+00 2.513291577016092617e+02
-1.933284088800176492e-01 -6.673973215005847059e+00 2.513262280141092617e+02
2.107119873199823357e-01 -6.673973215005847059e+00 2.513232983266092617e+02
6.147524133199823160e-01 -6.673973215005847059e+00 2.513203686391092617e+02
1.018792749919982255e+00 -6.673973215005847059e+00 2.513174542104092666e+02
1.422833205719982175e+00 -6.673973215005847059e+00 2.513145245229092666e+02
1.826873661619982325e+00 -6.673973215005847059e+00 2.513115948354092666e+02
2.230914117419982468e+00 -6.673973215005847059e+00 2.513086651479092666e+02
2.634954454019982517e+00 -6.673973215005847059e+00 2.513057354604092666e+02
3.038994790619982567e+00 -6.673973215005847059e+00 2.513028210317092430e+02
3.443035127219982616e+00 -6.673973215005847059e+00 2.512998913442092430e+02
3.847075702219982407e+00 -6.673973215005847059e+00 2.512969616567092430e+02
4.251115800419982271e+00 -6.673973215005847059e+00 2.512940319692092430e+02
4.655156613919982256e+00 -6.673973215005847059e+00 2.512911022817092430e+02
5.059196950519982749e+00 -6.673973215005847059e+00 2.512881878529092603e+02
5.463237287119982355e+00 -6.673973215005847059e+00 2.512852581654092603e+02
5.867277623719982849e+00 -6.673973215005847059e+00 2.512823284779092603e+02
6.271317960319982454e+00 -6.673973215005847059e+00 2.512793987904092603e+02
6.675358296919982060e+00 -6.673973215005847059e+00 2.512764691029092603e+02
7.079398633519982553e+00 -6.673973215005847059e+00 2.512735546742092652e+02
7.483439447019982538e+00 -6.673973215005847059e+00 2.512706249867092652e+02
7.887479783619982143e+00 -6.673973215005847059e+00 2.512676952992092652e+02
8.291520120219981749e+00 -6.673973215005847059e+00 2.512647656117092652e+02
8.695560456819983131e+00 -6.673973215005847059e+00 2.512618359242092652e+02
-6.253934381880017490e+00 -6.269932878405847454e+00 2.513725842153092458e+02
-5.849894045280017885e+00 -6.269932878405847454e+00 2.513696545278092458e+02
-5.445853708680017391e+00 -6.269932878405847454e+00 2.513667400990092631e+02
-5.041813372080017785e+00 -6.269932878405847454e+00 2.513638104115092631e+02
-4.637773035480017292e+00 -6.269932878405847454e+00 2.513608807240092631e+02
-4.233732221980017307e+00 -6.269932878405847454e+00 2.513579510365092631e+02
-3.829692123780017443e+00 -6.269932878405847454e+00 2.513550213490092631e+02
-3.425651548780017652e+00 -6.269932878405847454e+00 2.513521069203092395e+02
-3.021611212180017603e+00 -6.269932878405847454e+00 2.513491772328092395e+02
-2.617570875580017553e+00 -6.269932878405847454e+00 2.513462475453092395e+02
-2.213530538980017504e+00 -6.269932878405847454e+00 2.513433178578092395e+02
-1.809490083180017805e+00 -6.269932878405847454e+00 2.513403881703092395e+02
-1.405449627280017655e+00 -6.269932878405847454e+00 2.513374737416092444e+02
-1.001409171480017735e+00 -6.269932878405847454e+00 2.513345440541092444e+02
-5.973688348800175740e-01 -6.269932878405847454e+00 2.513316143666092444e+02
-1.933284088800176492e-01 -6.269932878405847454e+00 2.513286846791092444e+02
2.107119873199823357e-01 -6.269932878405847454e+00 2.513257549916092444e+02
6.147524133199823160e-01 -6.269932878405847454e+00 2.513228405629092492e+02
1.018792749919982255e+00 -6.269932878405847454e+00 2.513199108754092492e+02
1.422833205719982175e+00 -6.269932878405847454e+00 2.513169811879092492e+02
1.826873661619982325e+00 -6.269932878405847454e+00 2.513140515004092492e+02
2.230914117419982468e+00 -6.269932878405847454e+00 2.513111218129092492e+02
2.634954454019982517e+00 -6.269932878405847454e+00 2.513082073842092541e+02
3.038994790619982567e+00 -6.269932878405847454e+00 2.513052776967092541e+02
3.443035127219982616e+00 -6.269932878405847454e+00 2.513023480092092541e+02
3.847075702219982407e+00 -6.269932878405847454e+00 2.512994183217092541e+02
4.251115800419982271e+00 -6.269932878405847454e+00 2.512964886342092541e+02
4.655156613919982256e+00 -6.269932878405847454e+00 2.512935742055092589e+02
5.059196950519982749e+00 -6.269932878405847454e+00 2.512906445180092589e+02
5.463237287119982355e+00 -6.269932878405847454e+00 2.512877148305092589e+02
5.867277623719982849e+00 -6.269932878405847454e+00 2.512847851430092589e+02
6.271317960319982454e+00 -6.269932878405847454e+00 2.512818554555092589e+02
6.675358296919982060e+00 -6.269932878405847454e+00 2.512789410268092638e+02
7.079398633519982553e+00 -6.269932878405847454e+00 2.512760113393092638e+02
7.483439447019982538e+00 -6.269932878405847454e+00 2.512730816518092638e+02
7.887479783619982143e+00 -6.269932878405847454e+00 2.512701519643092638e+02
8.291520120219981749e+00 -6.269932878405847454e+00 2.512672222768092638e+02
8.695560456819983131e+00 -6.269932878405847454e+00 2.512643078481092402e+02
-6.253934381880017490e+00 -5.865892541805847848e+00 2.513750408803092569e+02
-5.849894045280017885e+00 -5.865892541805847848e+00 2.513721264516092617e+02
-5.445853708680017391e+00 -5.865892541805847848e+00 2.513691967641092617e+02
-5.041813372080017785e+00 -5.865892541805847848e+00 2.513662670766092617e+02
-4.637773035480017292e+00 -5.865892541805847848e+00 2.513633373891092617e+02
-4.233732221980017307e+00 -5.865892541805847848e+00 2.513604077016092617e+02
-3.829692123780017443e+00 -5.865892541805847848e+00 2.513574932729092666e+02
-3.425651548780017652e+00 -5.865892541805847848e+00 2.513545635854092666e+02
-3.021611212180017603e+00 -5.865892541805847848e+00 2.513516338979092666e+02
-2.617570875580017553e+00 -5.865892541805847848e+00 2.513487042104092666e+02
-2.213530538980017504e+00 -5.865892541805847848e+00 2.513457745229092666e+02
-1.809490083180017805e+00 -5.865892541805847848e+00 2.513428600942092430e+02
-1.405449627280017655e+00 -5.865892541805847848e+00 2.513399304067092430e+02
-1.001409171480017735e+00 -5.865892541805847848e+00 2.513370007192092430e+02
-5.973688348800175740e-01 -5.865892541805847848e+00 2.513340710317092430e+02
-1.933284088800176492e-01 -5.865892541805847848e+00 2.513311413442092430e+02
2.107119873199823357e-01 -5.865892541805847848e+00 2.513282269154092603e+02
6.147524133199823160e-01 -5.865892541805847848e+00 2.513252972279092603e+02
1.018792749919982255e+00 -5.865892541805847848e+00 2.513223675404092603e+02
1.422833205719982175e+00 -5.865892541805847848e+00 2.513194378529092603e+02
1.826873661619982325e+00 -5.865892541805847848e+00 2.513165081654092603e+02
2.230914117419982468e+00 -5.865892541805847848e+00 2.513135937367092652e+02
2.634954454019982517e+00 -5.865892541805847848e+00 2.513106640492092652e+02
3.038994790619982567e+00 -5.865892541805847848e+00 2.513077343617092652e+02
3.443035127219982616e+00 -5.865892541805847848e+00 2.513048046742092652e+02
3.847075702219982407e+00 -5.865892541805847848e+00 2.513018749867092652e+02
4.251115800419982271e+00 -5.865892541805847848e+00 2.512989605580092416e+02
4.655156613919982256e+00 -5.865892541805847848e+00 2.512960308705092416e+02
5.059196950519982749e+00 -5.865892541805847848e+00 2.512931011830092416e+02
5.463237287119982355e+00 -5.865892541805847848e+00 2.512901714955092416e+02
5.867277623719982849e+00 -5.865892541805847848e+00 2.512872418080092416e+02
6.271317960319982454e+00 -5.865892541805847848e+00 2.512843273793092465e+02
6.675358296919982060e+00 -5.865892541805847848e+00 2.512813976918092465e+02
7.079398633519982553e+00 -5.865892541805847848e+00 2.512784680043092465e+02
7.483439447019982538e+00 -5.865892541805847848e+00 2.512755383168092465e+02
7.887479783619982143e+00 -5.865892541805847848e+00 2.512726086293092465e+02
8.291520120219981749e+00 -5.865892541805847848e+00 2.512696942006092513e+02
8.695560456819983131e+00 -5.865892541805847848e+00 2.512667645131092513e+02
-5.849894045280017885e+00 -5.461852205205847355e+00 2.513745831166092444e+02
-5.445853708680017391e+00 -5.461852205205847355e+00 2.513716534291092444e+02
-5.041813372080017785e+00 -5.461852205205847355e+00 2.513687237416092444e+02
-4.637773035480017292e+00 -5.461852205205847355e+00 2.513657940541092444e+02
-4.233732221980017307e+00 -5.461852205205847355e+00 2.513628796254092492e+02
-3.829692123780017443e+00 -5.461852205205847355e+00 2.513599499379092492e+02
-3.425651548780017652e+00 -5.461852205205847355e+00 2.513570202504092492e+02
-3.021611212180017603e+00 -5.461852205205847355e+00 2.513540905629092492e+02
-2.617570875580017553e+00 -5.461852205205847355e+00 2.513511608754092492e+02
-2.213530538980017504e+00 -5.461852205205847355e+00 2.513482464467092541e+02
-1.809490083180017805e+00 -5.461852205205847355e+00 2.513453167592092541e+02
-1.405449627280017655e+00 -5.461852205205847355e+00 2.513423870717092541e+02
-1.001409171480017735e+00 -5.461852205205847355e+00 2.513394573842092541e+02
-5.973688348800175740e-01 -5.461852205205847355e+00 2.513365276967092541e+02
-1.933284088800176492e-01 -5.461852205205847355e+00 2.513336132680092589e+02
2.107119873199823357e-01 -5.461852205205847355e+00 2.513306835805092589e+02
6.147524133199823160e-01 -5.461852205205847355e+00 2.513277538930092589e+02
1.018792749919982255e+00 -5.461852205205847355e+00 2.513248242055092589e+02
1.422833205719982175e+00 -5.461852205205847355e+00 2.513218945180092589e+02
1.826873661619982325e+00 -5.461852205205847355e+00 2.513189800893092638e+02
2.230914117419982468e+00 -5.461852205205847355e+00 2.513160504018092638e+02
2.634954454019982517e+00 -5.461852205205847355e+00 2.513131207143092638e+02
3.038994790619982567e+00 -5.461852205205847355e+00 2.513101910268092638e+02
3.443035127219982616e+00 -5.461852205205847355e+00 2.513072613393092638e+02
3.847075702219982407e+00 -5.461852205205847355e+00 2.513043469106092402e+02
4.251115800419982271e+00 -5.461852205205847355e+00 2.513014172231092402e+02
4.655156613919982256e+00 -5.461852205205847355e+00 2.512984875356092402e+02
5.059196950519982749e+00 -5.461852205205847355e+00 2.512955578481092402e+02
5.463237287119982355e+00 -5.461852205205847355e+00 2.512926281606092402e+02
5.867277623719982849e+00 -5.461852205205847355e+00 2.512897137319092451e+02
6.271317960319982454e+00 -5.461852205205847355e+00 2.512867840444092451e+02
6.675358296919982060e+00 -5.461852205205847355e+00 2.512838543569092451e+02
7.079398633519982553e+00 -5.461852205205847355e+00 2.512809246694092451e+02
7.483439447019982538e+00 -5.461852205205847355e+00 2.512779949819092451e+02
7.887479783619982143e+00 -5.461852205205847355e+00 2.512750805531092624e+02
8.291520120219981749e+00 -5.461852205205847355e+00 2.512721508656092624e+02
-5.849894045280017885e+00 -5.057811868605847749e+00 2.513770397817092430e+02
-5.445853708680017391e+00 -5.057811868605847749e+00 2.513741100942092430e+02
-5.041813372080017785e+00 -5.057811868605847749e+00 2.513711956654092603e+02
-4.637773035480017292e+00 -5.057811868605847749e+00 2.513682659779092603e+02
-4.233732221980017307e+00 -5.057811868605847749e+00 2.513653362904092603e+02
-3.829692123780017443e+00 -5.057811868605847749e+00 2.513624066029092603e+02
-3.425651548780017652e+00 -5.057811868605847749e+00 2.513594769154092603e+02
-3.021611212180017603e+00 -5.057811868605847749e+00 2.513565624867092652e+02
-2.617570875580017553e+00 -5.057811868605847749e+00 2.513536327992092652e+02
-2.213530538980017504e+00 -5.057811868605847749e+00 2.513507031117092652e+02
-1.809490083180017805e+00 -5.057811868605847749e+00 2.513477734242092652e+02
-1.405449627280017655e+00 -5.057811868605847749e+00 2.513448437367092652e+02
-1.001409171480017735e+00 -5.057811868605847749e+00 2.513419293080092416e+02
-5.973688348800175740e-01 -5.057811868605847749e+00 2.513389996205092416e+02
-1.933284088800176492e-01 -5.057811868605847749e+00 2.513360699330092416e+02
2.107119873199823357e-01 -5.057811868605847749e+00 2.513331402455092416e+02
6.147524133199823160e-01 -5.057811868605847749e+00 2.513302105580092416e+02
1.018792749919982255e+00 -5.057811868605847749e+00 2.513272961293092465e+02
1.422833205719982175e+00 -5.057811868605847749e+00 2.513243664418092465e+02
1.826873661619982325e+00 -5.057811868605847749e+00 2.513214367543092465e+02
2.230914117419982468e+00 -5.057811868605847749e+00 2.513185070668092465e+02
2.634954454019982517e+00 -5.057811868605847749e+00 2.513155773793092465e+02
3.038994790619982567e+00 -5.057811868605847749e+00 2.513126629506092513e+02
3.443035127219982616e+00 -5.057811868605847749e+00 2.513097332631092513e+02
3.847075702219982407e+00 -5.057811868605847749e+00 2.513068035756092513e+02
4.251115800419982271e+00 -5.057811868605847749e+00 2.513038738881092513e+02
4.655156613919982256e+00 -5.057811868605847749e+00 2.513009442006092513e+02
5.059196950519982749e+00 -5.057811868605847749e+00 2.512980145131092513e+02
5.463237287119982355e+00 -5.057811868605847749e+00 2.512951000844092562e+02
5.867277623719982849e+00 -5.057811868605847749e+00 2.512921703969092562e+02
6.271317960319982454e+00 -5.057811868605847749e+00 2.512892407094092562e+02
6.675358296919982060e+00 -5.057811868605847749e+00 2.512863110219092562e+02
7.079398633519982553e+00 -5.057811868605847749e+00 2.512833813344092562e+02
7.483439447019982538e+00 -5.057811868605847749e+00 2.512804669057092610e+02
7.887479783619982143e+00 -5.057811868605847749e+00 2.512775372182092610e+02
8.291520120219981749e+00 -5.057811868605847749e+00 2.512746075307092610e+02
8.695560456819983131e+00 -5.057811868605847749e+00 2.512716778432092610e+02
-5.849894045280017885e+00 -4.653771532005847256e+00 2.513794964467092541e+02
-5.445853708680017391e+00 -4.653771532005847256e+00 2.513765820180092589e+02
-5.041813372080017785e+00 -4.653771532005847256e+00 2.513736523305092589e+02
-4.637773035480017292e+00 -4.653771532005847256e+00 2.513707226430092589e+02
-4.233732221980017307e+00 -4.653771532005847256e+00 2.513677929555092589e+02
-3.829692123780017443e+00 -4.653771532005847256e+00 2.513648632680092589e+02
-3.425651548780017652e+00 -4.653771532005847256e+00 2.513619488393092638e+02
-3.021611212180017603e+00 -4.653771532005847256e+00 2.513590191518092638e+02
-2.617570875580017553e+00 -4.653771532005847256e+00 2.513560894643092638e+02
-2.213530538980017504e+00 -4.653771532005847256e+00 2.513531597768092638e+02
-1.809490083180017805e+00 -4.653771532005847256e+00 2.513502300893092638e+02
-1.405449627280017655e+00 -4.653771532005847256e+00 2.513473156606092402e+02
-1.001409171480017735e+00 -4.653771532005847256e+00 2.513443859731092402e+02
-5.973688348800175740e-01 -4.653771532005847256e+00 2.513414562856092402e+02
-1.933284088800176492e-01 -4.653771532005847256e+00 2.513385265981092402e+02
2.107119873199823357e-01 -4.653771532005847256e+00 2.513355969106092402e+02
6.147524133199823160e-01 -4.653771532005847256e+00 2.513326824819092451e+02
1.018792749919982255e+00 -4.653771532005847256e+00 2.513297527944092451e+02
1.422833205719982175e+00 -4.653771532005847256e+00 2.513268231069092451e+02
1.826873661619982325e+00 -4.653771532005847256e+00 2.513238934194092451e+02
2.230914117419982468e+00 -4.653771532005847256e+00 2.513209637319092451e+02
2.634954454019982517e+00 -4.653771532005847256e+00 2.513180493031092624e+02
3.038994790619982567e+00 -4.653771532005847256e+00 2.513151196156092624e+02
3.443035127219982616e+00 -4.653771532005847256e+00 2.513121899281092624e+02
3.847075702219982407e+00 -4.653771532005847256e+00 2.513092602406092624e+02
4.251115800419982271e+00 -4.653771532005847256e+00 2.513063305531092624e+02
4.655156613919982256e+00 -4.653771532005847256e+00 2.513034161244092672e+02
5.059196950519982749e+00 -4.653771532005847256e+00 2.513004864369092672e+02
5.463237287119982355e+00 -4.653771532005847256e+00 2.512975567494092672e+02
5.867277623719982849e+00 -4.653771532005847256e+00 2.512946270619092672e+02
6.271317960319982454e+00 -4.653771532005847256e+00 2.512916973744092672e+02
6.675358296919982060e+00 -4.653771532005847256e+00 2.512887829457092437e+02
7.079398633519982553e+00 -4.653771532005847256e+00 2.512858532582092437e+02
7.483439447019982538e+00 -4.653771532005847256e+00 2.512829235707092437e+02
7.887479783619982143e+00 -4.653771532005847256e+00 2.512799938832092437e+02
8.291520120219981749e+00 -4.653771532005847256e+00 2.512770641957092437e+02
-5.849894045280017885e+00 -4.249730718505847271e+00 2.513819683705092416e+02
-5.445853708680017391e+00 -4.249730718505847271e+00 2.513790386830092416e+02
-5.041813372080017785e+00 -4.249730718505847271e+00 2.513761089955092416e+02
-4.637773035480017292e+00 -4.249730718505847271e+00 2.513731793080092416e+02
-4.233732221980017307e+00 -4.249730718505847271e+00 2.513702496205092416e+02
-3.829692123780017443e+00 -4.249730718505847271e+00 2.513673351918092465e+02
-3.425651548780017652e+00 -4.249730718505847271e+00 2.513644055043092465e+02
-3.021611212180017603e+00 -4.249730718505847271e+00 2.513614758168092465e+02
-2.617570875580017553e+00 -4.249730718505847271e+00 2.513585461293092465e+02
-2.213530538980017504e+00 -4.249730718505847271e+00 2.513556164418092465e+02
-1.809490083180017805e+00 -4.249730718505847271e+00 2.513527020131092513e+02
-1.405449627280017655e+00 -4.249730718505847271e+00 2.513497723256092513e+02
-1.001409171480017735e+00 -4.249730718505847271e+00 2.513468426381092513e+02
-5.973688348800175740e-01 -4.249730718505847271e+00 2.513439129506092513e+02
-1.933284088800176492e-01 -4.249730718505847271e+00 2.513409832631092513e+02
2.107119873199823357e-01 -4.249730718505847271e+00 2.513380688344092562e+02
6.147524133199823160e-01 -4.249730718505847271e+00 2.513351391469092562e+02
1.018792749919982255e+00 -4.249730718505847271e+00 2.513322094594092562e+02
1.422833205719982175e+00 -4.249730718505847271e+00 2.513292797719092562e+02
1.826873661619982325e+00 -4.249730718505847271e+00 2.513263500844092562e+02
2.230914117419982468e+00 -4.249730718505847271e+00 2.513234356557092610e+02
2.634954454019982517e+00 -4.249730718505847271e+00 2.513205059682092610e+02
3.038994790619982567e+00 -4.249730718505847271e+00 2.513175762807092610e+02
3.443035127219982616e+00 -4.249730718505847271e+00 2.513146465932092610e+02
3.847075702219982407e+00 -4.249730718505847271e+00 2.513117169057092610e+02
4.251115800419982271e+00 -4.249730718505847271e+00 2.513088024770092659e+02
4.655156613919982256e+00 -4.249730718505847271e+00 2.513058727895092659e+02
5.059196950519982749e+00 -4.249730718505847271e+00 2.513029431020092659e+02
5.463237287119982355e+00 -4.249730718505847271e+00 2.513000134145092659e+02
5.867277623719982849e+00 -4.249730718505847271e+00 2.512970837270092659e+02
6.271317960319982454e+00 -4.249730718505847271e+00 2.512941692983092423e+02
6.675358296919982060e+00 -4.249730718505847271e+00 2.512912396108092423e+02
7.079398633519982553e+00 -4.249730718505847271e+00 2.512883099233092423e+02
7.483439447019982538e+00 -4.249730718505847271e+00 2.512853802358092423e+02
7.887479783619982143e+00 -4.249730718505847271e+00 2.512824505483092423e+02
8.291520120219981749e+00 -4.249730718505847271e+00 2.512795361196092472e+02
-6.253934381880017490e+00 -3.845690620305847407e+00 2.513873547231092402e+02
-5.849894045280017885e+00 -3.845690620305847407e+00 2.513844250356092402e+02
-5.445853708680017391e+00 -3.845690620305847407e+00 2.513814953481092402e+02
-5.041813372080017785e+00 -3.845690620305847407e+00 2.513785656606092402e+02
-4.637773035480017292e+00 -3.845690620305847407e+00 2.513756359731092402e+02
-4.233732221980017307e+00 -3.845690620305847407e+00 2.513727215444092451e+02
-3.829692123780017443e+00 -3.845690620305847407e+00 2.513697918569092451e+02
-3.425651548780017652e+00 -3.845690620305847407e+00 2.513668621694092451e+02
-3.021611212180017603e+00 -3.845690620305847407e+00 2.513639324819092451e+02
-2.617570875580017553e+00 -3.845690620305847407e+00 2.513610027944092451e+02
-2.213530538980017504e+00 -3.845690620305847407e+00 2.513580883656092624e+02
-1.809490083180017805e+00 -3.845690620305847407e+00 2.513551586781092624e+02
-1.405449627280017655e+00 -3.845690620305847407e+00 2.513522289906092624e+02
-1.001409171480017735e+00 -3.845690620305847407e+00 2.513492993031092624e+02
-5.973688348800175740e-01 -3.845690620305847407e+00 2.513463696156092624e+02
-1.933284088800176492e-01 -3.845690620305847407e+00 2.513434551869092672e+02
2.107119873199823357e-01 -3.845690620305847407e+00 2.513405254994092672e+02
6.147524133199823160e-01 -3.845690620305847407e+00 2.513375958119092672e+02
1.018792749919982255e+00 -3.845690620305847407e+00 2.513346661244092672e+02
1.422833205719982175e+00 -3.845690620305847407e+00 2.513317364369092672e+02
1.826873661619982325e+00 -3.845690620305847407e+00 2.513288220082092437e+02
2.230914117419982468e+00 -3.845690620305847407e+00 2.513258923207092437e+02
2.634954454019982517e+00 -3.845690620305847407e+00 2.513229626332092437e+02
3.038994790619982567e+00 -3.845690620305847407e+00 2.513200329457092437e+02
3.443035127219982616e+00 -3.845690620305847407e+00 2.513171032582092437e+02
3.847075702219982407e+00 -3.845690620305847407e+00 2.513141888295092485e+02
4.251115800419982271e+00 -3.845690620305847407e+00 2.513112591420092485e+02
4.655156613919982256e+00 -3.845690620305847407e+00 2.513083294545092485e+02
5.059196950519982749e+00 -3.845690620305847407e+00 2.513053997670092485e+02
5.463237287119982355e+00 -3.845690620305847407e+00 2.513024700795092485e+02
5.867277623719982849e+00 -3.845690620305847407e+00 2.512995556508092534e+02
6.271317960319982454e+00 -3.845690620305847407e+00 2.512966259633092534e+02
6.675358296919982060e+00 -3.845690620305847407e+00 2.512936962758092534e+02
7.079398633519982553e+00 -3.845690620305847407e+00 2.512907665883092534e+02
7.483439447019982538e+00 -3.845690620305847407e+00 2.512878369008092534e+02
7.887479783619982143e+00 -3.845690620305847407e+00 2.512849224721092583e+02
8.291520120219981749e+00 -3.845690620305847407e+00 2.512819927846092583e+02
8.695560456819983131e+00 -3.845690620305847407e+00 2.512790630971092583e+02
-6.253934381880017490e+00 -3.441650045305847616e+00 2.513898113881092513e+02
-5.849894045280017885e+00 -3.441650045305847616e+00 2.513868817006092513e+02
-5.445853708680017391e+00 -3.441650045305847616e+00 2.513839520131092513e+02
-5.041813372080017785e+00 -3.441650045305847616e+00 2.513810223256092513e+02
-4.637773035480017292e+00 -3.441650045305847616e+00 2.513781078969092562e+02
-4.233732221980017307e+00 -3.441650045305847616e+00 2.513751782094092562e+02
-3.829692123780017443e+00 -3.441650045305847616e+00 2.513722485219092562e+02
-3.425651548780017652e+00 -3.441650045305847616e+00 2.513693188344092562e+02
-3.021611212180017603e+00 -3.441650045305847616e+00 2.513663891469092562e+02
-2.617570875580017553e+00 -3.441650045305847616e+00 2.513634747182092610e+02
-2.213530538980017504e+00 -3.441650045305847616e+00 2.513605450307092610e+02
-1.809490083180017805e+00 -3.441650045305847616e+00 2.513576153432092610e+02
-1.405449627280017655e+00 -3.441650045305847616e+00 2.513546856557092610e+02
-1.001409171480017735e+00 -3.441650045305847616e+00 2.513517559682092610e+02
-5.973688348800175740e-01 -3.441650045305847616e+00 2.513488415395092659e+02
-1.933284088800176492e-01 -3.441650045305847616e+00 2.513459118520092659e+02
2.107119873199823357e-01 -3.441650045305847616e+00 2.513429821645092659e+02
6.147524133199823160e-01 -3.441650045305847616e+00 2.513400524770092659e+02
1.018792749919982255e+00 -3.441650045305847616e+00 2.513371227895092659e+02
1.422833205719982175e+00 -3.441650045305847616e+00 2.513342083608092423e+02
1.826873661619982325e+00 -3.441650045305847616e+00 2.513312786733092423e+02
2.230914117419982468e+00 -3.441650045305847616e+00 2.513283489858092423e+02
2.634954454019982517e+00 -3.441650045305847616e+00 2.513254192983092423e+02
3.038994790619982567e+00 -3.441650045305847616e+00 2.513224896108092423e+02
3.443035127219982616e+00 -3.441650045305847616e+00 2.513195751821092472e+02
3.847075702219982407e+00 -3.441650045305847616e+00 2.513166454946092472e+02
4.251115800419982271e+00 -3.441650045305847616e+00 2.513137158071092472e+02
4.655156613919982256e+00 -3.441650045305847616e+00 2.513107861196092472e+02
5.059196950519982749e+00 -3.441650045305847616e+00 2.513078564321092472e+02
5.463237287119982355e+00 -3.441650045305847616e+00 2.513049420033092645e+02
5.867277623719982849e+00 -3.441650045305847616e+00 2.513020123158092645e+02
6.271317960319982454e+00 -3.441650045305847616e+00 2.512990826283092645e+02
6.675358296919982060e+00 -3.441650045305847616e+00 2.512961529408092645e+02
7.079398633519982553e+00 -3.441650045305847616e+00 2.512932232533092645e+02
7.483439447019982538e+00 -3.441650045305847616e+00 2.512903088246092409e+02
7.887479783619982143e+00 -3.441650045305847616e+00 2.512873791371092409e+02
8.291520120219981749e+00 -3.441650045305847616e+00 2.512844494496092409e+02
8.695560456819983131e+00 -3.441650045305847616e+00 2.512815197621092409e+02
-6.253934381880017490e+00 -3.037609708705847567e+00 2.513922680531092624e+02
-5.849894045280017885e+00 -3.037609708705847567e+00 2.513893383656092624e+02
-5.445853708680017391e+00 -3.037609708705847567e+00 2.513864239369092672e+02
