2.622492800689754322e+00 -1.413151676508491050e+00 2.516033477661617610e+02
3.026533204689723089e+00 -1.413151676508490162e+00 2.516058864227617562e+02
3.430573608689743370e+00 -1.413151676508490384e+00 2.516084250794617674e+02
-1.821951643810284960e+00 -1.009111272508488977e+00 2.515747560387617625e+02
-1.417911239710275551e+00 -1.009111272508489643e+00 2.515772946954617737e+02
-1.013870835710243279e+00 -1.009111272508490087e+00 2.515798333520617689e+02
-6.098304317102131167e-01 -1.009111272508490753e+00 2.515823720087617801e+02
-2.057900276102133108e-01 -1.009111272508489421e+00 2.515849106654617628e+02
1.982503763897772997e-01 -1.009111272508489643e+00 2.515874493221617740e+02
6.022907804897631445e-01 -1.009111272508488977e+00 2.515899879787617692e+02
1.006331184489729136e+00 -1.009111272508488089e+00 2.515925266354617804e+02
1.410371588489665484e+00 -1.009111272508487200e+00 2.515950652921617632e+02
1.814411992589599176e+00 -1.009111272508485868e+00 2.515976039487617584e+02
2.218452396589591036e+00 -1.009111272508486756e+00 2.516001426054617696e+02
2.622492800689602443e+00 -1.009111272508486090e+00 2.516026812621617808e+02
3.026533204689651591e+00 -1.009111272508486090e+00 2.516052199187617759e+02
-1.821951643810219679e+00 -6.050708685084905669e-01 2.515740895347617538e+02
-1.417911239710226035e+00 -6.050708685084905669e-01 2.515766281914617650e+02
-1.013870835710219742e+00 -6.050708685084902339e-01 2.515791668480617602e+02
-6.098304317102255512e-01 -6.050708685084896787e-01 2.515817055047617714e+02
-2.057900276102160309e-01 -6.050708685084912331e-01 2.515842441614617542e+02
1.982503763897745519e-01 -6.050708685084910110e-01 2.515867828180617778e+02
6.022907804897745798e-01 -6.050708685084911220e-01 2.515893214747617606e+02
1.006331184489724695e+00 -6.050708685084899008e-01 2.515918601314617717e+02
1.410371588489684580e+00 -6.050708685084887906e-01 2.515943987880617669e+02
1.814411992589656242e+00 -6.050708685084876803e-01 2.515969374447617781e+02
2.218452396589678077e+00 -6.050708685084879024e-01 2.515994761014617609e+02
2.622492800689682824e+00 -6.050708685084877914e-01 2.516020147580617561e+02
3.026533204689685785e+00 -6.050708685084880134e-01 2.516045534147617673e+02
-1.821951643810348687e+00 -2.010304644084895398e-01 2.515734230307617736e+02
-1.417911239710343496e+00 -2.010304644084899839e-01 2.515759616873617688e+02
-1.013870835710309448e+00 -2.010304644084904002e-01 2.515785003440617800e+02
-6.098304317102565264e-01 -2.010304644084910108e-01 2.515810390007617627e+02
-2.057900276102253845e-01 -2.010304644084916215e-01 2.515835776573617579e+02
1.982503763897746352e-01 -2.010304644084915104e-01 2.515861163140617691e+02
6.022907804897756900e-01 -2.010304644084910664e-01 2.515886549707617803e+02
1.006331184489737574e+00 -2.010304644084900116e-01 2.515911936273617755e+02
1.410371588489683470e+00 -2.010304644084889014e-01 2.515937322840617583e+02
1.814411992589693989e+00 -2.010304644084896786e-01 2.515962709407617695e+02
2.218452396589720266e+00 -2.010304644084896508e-01 2.515988095973617646e+02
2.622492800689729009e+00 -2.010304644084893455e-01 2.516013482540617758e+02
3.026533204689745737e+00 -2.010304644084899006e-01 2.516038869107617586e+02
-1.821951643810321153e+00 2.030099395915093696e-01 2.515727565266617773e+02
-1.417911239710283988e+00 2.030099395915080929e-01 2.515752951833617601e+02
-1.013870835710276364e+00 2.030099395915075933e-01 2.515778338400617713e+02
-6.098304317102811734e-01 2.030099395915083149e-01 2.515803724966617665e+02
-2.057900276102676562e-01 2.030099395915080929e-01 2.515829111533617777e+02
1.982503763897523752e-01 2.030099395915073990e-01 2.515854498100617604e+02
6.022907804897653650e-01 2.030099395915071214e-01 2.515879884666617556e+02
1.006331184489756669e+00 2.030099395915072047e-01 2.515905271233617668e+02
1.410371588489758299e+00 2.030099395915073157e-01 2.515930657800617780e+02
1.814411992589788802e+00 2.030099395915072602e-01 2.515956044367617608e+02
2.218452396589817077e+00 2.030099395915071769e-01 2.515981430933617560e+02
2.622492800689779635e+00 2.030099395915080929e-01 2.516006817500617672e+02
3.026533204689754619e+00 2.030099395915088145e-01 2.516032204067617783e+02
3.430573608689719833e+00 2.030099395915093696e-01 2.516057590633617735e+02
3.834614012789759219e+00 2.030099395915090088e-01 2.516082977200617563e+02
4.238654416789740864e+00 2.030099395915092031e-01 2.516108363767617675e+02
4.642694820889683882e+00 2.030099395915100913e-01 2.516133750333617627e+02
-2.225992047810205321e+00 6.070503436915071216e-01 2.515695513660617735e+02
-1.821951643810233001e+00 6.070503436915074547e-01 2.515720900226617687e+02
-1.417911239710246907e+00 6.070503436915077877e-01 2.515746286793617799e+02
-1.013870835710273699e+00 6.070503436915083428e-01 2.515771673360617626e+02
-6.098304317102964944e-01 6.070503436915096751e-01 2.515797059926617578e+02
-2.057900276103388493e-01 6.070503436915105633e-01 2.515822446493617690e+02
1.982503763897152382e-01 6.070503436915092310e-01 2.515847833060617802e+02
6.022907804897482675e-01 6.070503436915078987e-01 2.515873219626617754e+02
1.006331184489756669e+00 6.070503436915076767e-01 2.515898606193617582e+02
1.410371588489787609e+00 6.070503436915066775e-01 2.515923992760617693e+02
1.814411992589739064e+00 6.070503436915070106e-01 2.515949379326617645e+02
2.218452396589774445e+00 6.070503436915064555e-01 2.515974765893617757e+02
2.622492800689784076e+00 6.070503436915062334e-01 2.516000152460617585e+02
3.026533204689739076e+00 6.070503436915072326e-01 2.516025539026617537e+02
3.430573608689684750e+00 6.070503436915092310e-01 2.516050925593617649e+02
3.834614012789689053e+00 6.070503436915096751e-01 2.516076312160617761e+02
4.238654416789700896e+00 6.070503436915095641e-01 2.516101698726617713e+02
4.642694820889689211e+00 6.070503436915098971e-01 2.516127085293617540e+02
-2.225992047810139152e+00 1.011090747691505864e+00 2.515688848619617772e+02
-1.821951643810186594e+00 1.011090747691508529e+00 2.515714235186617600e+02
-1.417911239710236471e+00 1.011090747691508307e+00 2.515739621753617712e+02
-1.013870835710266594e+00 1.011090747691510083e+00 2.515765008319617664e+02
-6.098304317103384609e-01 1.011090747691512526e+00 2.515790394886617776e+02
-2.057900276103430404e-01 1.011090747691511860e+00 2.515815781453617603e+02
1.982503763897046356e-01 1.011090747691510083e+00 2.515841168019617555e+02
6.022907804897187356e-01 1.011090747691509639e+00 2.515866554586617667e+02
1.006331184489769992e+00 1.011090747691508973e+00 2.515891941153617779e+02
1.410371588489792050e+00 1.011090747691509195e+00 2.515917327719617731e+02
1.814411992589792799e+00 1.011090747691508751e+00 2.515942714286617559e+02
2.218452396589837505e+00 1.011090747691508973e+00 2.515968100853617671e+02
2.622492800689793402e+00 1.011090747691508973e+00 2.515993487419617622e+02
3.026533204689797252e+00 1.011090747691507641e+00 2.516018873986617734e+02
3.430573608689785114e+00 1.011090747691506975e+00 2.516044260553617562e+02
3.834614012789793414e+00 1.011090747691506753e+00 2.516069647119617798e+02
4.238654416789752410e+00 1.011090747691508529e+00 2.516095033686617626e+02
4.642694820889774476e+00 1.011090747691507863e+00 2.516120420253617738e+02
-2.225992047810194219e+00 1.415131151691511047e+00 2.515682183579617686e+02
-1.821951643810199917e+00 1.415131151691511047e+00 2.515707570146617797e+02
-1.417911239710240467e+00 1.415131151691512823e+00 2.515732956712617749e+02
-1.013870835710236395e+00 1.415131151691511269e+00 2.515758343279617577e+02
-6.098304317102408723e-01 1.415131151691510381e+00 2.515783729846617689e+02
-2.057900276102606896e-01 1.415131151691509270e+00 2.515809116412617641e+02
1.982503763897622839e-01 1.415131151691508382e+00 2.515834502979617753e+02
6.022907804897558171e-01 1.415131151691508382e+00 2.515859889546617580e+02
1.006331184489751340e+00 1.415131151691507938e+00 2.515885276112617817e+02
1.410371588489738093e+00 1.415131151691509936e+00 2.515910662679617644e+02
1.814411992589722189e+00 1.415131151691510158e+00 2.515936049246617756e+02
2.218452396589758457e+00 1.415131151691511269e+00 2.515961435813617584e+02
2.622492800689793846e+00 1.415131151691513045e+00 2.515986822379617536e+02
3.026533204689828782e+00 1.415131151691513711e+00 2.516012208946617648e+02
3.430573608689799325e+00 1.415131151691514599e+00 2.516037595513617759e+02
3.834614012789844040e+00 1.415131151691511269e+00 2.516062982079617711e+02
4.238654416789769286e+00 1.415131151691513267e+00 2.516088368646617539e+02
4.642694820889802898e+00 1.415131151691510825e+00 2.516113755213617651e+02
-1.821951643810213683e+00 1.819171555791508466e+00 2.515700905105617551e+02
-1.417911239710227589e+00 1.819171555791512462e+00 2.515726291672617663e+02
-1.013870835710230622e+00 1.819171555791512018e+00 2.515751678239617775e+02
-6.098304317102598571e-01 1.819171555791512684e+00 2.515777064806617602e+02
-2.057900276102561099e-01 1.819171555791510686e+00 2.515802451372617554e+02
1.982503763897326410e-01 1.819171555791511796e+00 2.515827837939617666e+02
6.022907804897734696e-01 1.819171555791513128e+00 2.515853224506617778e+02
1.006331184489761776e+00 1.819171555791514017e+00 2.515878611072617730e+02
1.410371588489758521e+00 1.819171555791516681e+00 2.515903997639617558e+02
1.814411992589775924e+00 1.819171555791514239e+00 2.515929384206617669e+02
2.218452396589809528e+00 1.819171555791513573e+00 2.515954770772617621e+02
2.622492800689810277e+00 1.819171555791512018e+00 2.515980157339617733e+02
3.026533204689827450e+00 1.819171555791512240e+00 2.516005543906617561e+02
3.430573608689834852e+00 1.819171555791514461e+00 2.516030930472617797e+02
3.834614012789871573e+00 1.819171555791516015e+00 2.516056317039617625e+02
4.238654416789843005e+00 1.819171555791514683e+00 2.516081703606617737e+02
4.642694820889844642e+00 1.819171555791516903e+00 2.516107090172617688e+02
-1.821951643810206800e+00 2.223211959791516090e+00 2.515694240065617748e+02
-1.417911239710137439e+00 2.223211959791516090e+00 2.515719626632617576e+02
-1.013870835710171781e+00 2.223211959791516090e+00 2.515745013199617688e+02
-6.098304317101578276e-01 2.223211959791513426e+00 2.515770399765617640e+02
-2.057900276101412573e-01 2.223211959791511205e+00 2.515795786332617752e+02
1.982503763898005866e-01 2.223211959791512982e+00 2.515821172899617579e+02
6.022907804897563722e-01 2.223211959791514314e+00 2.515846559465617815e+02
1.006331184489716701e+00 2.223211959791512982e+00 2.515871946032617643e+02
1.410371588489691463e+00 2.223211959791516534e+00 2.515897332599617755e+02
1.814411992589719747e+00 2.223211959791516534e+00 2.515922719165617707e+02
2.218452396589763342e+00 2.223211959791515646e+00 2.515948105732617819e+02
2.622492800689832926e+00 2.223211959791514758e+00 2.515973492299617646e+02
3.026533204689799028e+00 2.223211959791516534e+00 2.515998878865617598e+02
3.430573608689833076e+00 2.223211959791516978e+00 2.516024265432617710e+02
3.834614012789811177e+00 2.223211959791516534e+00 2.516049651999617538e+02
4.238654416789797708e+00 2.223211959791516090e+00 2.516075038565617774e+02
4.642694820889827767e+00 2.223211959791512538e+00 2.516100425132617602e+02
-1.821951643810195476e+00 2.627252363891519948e+00 2.515687575025617662e+02
-1.417911239710190063e+00 2.627252363891519948e+00 2.515712961592617773e+02
-1.013870835710182661e+00 2.627252363891521725e+00 2.515738348158617725e+02
-6.098304317102090089e-01 2.627252363891521281e+00 2.515763734725617553e+02
-2.057900276102203330e-01 2.627252363891522169e+00 2.515789121292617665e+02
1.982503763897547344e-01 2.627252363891519060e+00 2.515814507858617617e+02
6.022907804897470463e-01 2.627252363891519504e+00 2.515839894425617729e+02
1.006331184489770214e+00 2.627252363891518172e+00 2.515865280992617556e+02
1.410371588489725880e+00 2.627252363891520393e+00 2.515890667558617793e+02
1.814411992589761047e+00 2.627252363891520837e+00 2.515916054125617620e+02
2.218452396589763342e+00 2.627252363891520393e+00 2.515941440692617732e+02
2.622492800689829817e+00 2.627252363891518172e+00 2.515966827258617684e+02
3.026533204689831447e+00 2.627252363891516396e+00 2.515992213825617796e+02
3.430573608689862386e+00 2.627252363891515063e+00 2.516017600392617624e+02
3.834614012789854698e+00 2.627252363891515952e+00 2.516042986959617735e+02
4.238654416789874979e+00 2.627252363891514175e+00 2.516068373525617687e+02
4.642694820889844642e+00 2.627252363891513731e+00 2.516093760092617799e+02
-1.821951643810207022e+00 3.031292767891517581e+00 2.515680909985617575e+02
-1.417911239710164972e+00 3.031292767891515361e+00 2.515706296551617811e+02
-1.013870835710150908e+00 3.031292767891514917e+00 2.515731683118617639e+02
-6.098304317101356231e-01 3.031292767891513584e+00 2.515757069685617751e+02
-2.057900276101748971e-01 3.031292767891513140e+00 2.515782456252617578e+02
1.982503763897524307e-01 3.031292767891513140e+00 2.515807842818617814e+02
6.022907804897008610e-01 3.031292767891512252e+00 2.515833229385617642e+02
1.006331184489736685e+00 3.031292767891512252e+00 2.515858615952617754e+02
1.410371588489718553e+00 3.031292767891510920e+00 2.515884002518617706e+02
1.814411992589744838e+00 3.031292767891513140e+00 2.515909389085617818e+02
2.218452396589774889e+00 3.031292767891513140e+00 2.515934775652617645e+02
2.622492800689806280e+00 3.031292767891515361e+00 2.515960162218617597e+02
3.026533204689823453e+00 3.031292767891513584e+00 2.515985548785617709e+02
3.430573608689841070e+00 3.031292767891512252e+00 2.516010935352617537e+02
3.834614012789843596e+00 3.031292767891514472e+00 2.516036321918617773e+02
4.238654416789847446e+00 3.031292767891513584e+00 2.516061708485617601e+02
4.642694820889801122e+00 3.031292767891514917e+00 2.516087095052617713e+02
-2.225992047810332775e+00 3.435333171891510329e+00 2.515648858378617660e+02
-1.821951643810325594e+00 3.435333171891512549e+00 2.515674244945617772e+02
-1.417911239710292870e+00 3.435333171891509885e+00 2.515699631511617724e+02
-1.013870835710325213e+00 3.435333171891509441e+00 2.515725018078617552e+02
-6.098304317103052652e-01 3.435333171891509441e+00 2.515750404645617664e+02
-2.057900276102646031e-01 3.435333171891508108e+00 2.515775791211617616e+02
1.982503763897812687e-01 3.435333171891506776e+00 2.515801177778617728e+02
6.022907804897946749e-01 3.435333171891507664e+00 2.515826564345617555e+02
1.006331184489799968e+00 3.435333171891507664e+00 2.515851950911617791e+02
1.410371588489782946e+00 3.435333171891511217e+00 2.515877337478617619e+02
1.814411992589746170e+00 3.435333171891511661e+00 2.515902724045617731e+02
2.218452396589725151e+00 3.435333171891511217e+00 2.515928110611617683e+02
2.622492800689751657e+00 3.435333171891513437e+00 2.515953497178617795e+02
3.026533204689782153e+00 3.435333171891510329e+00 2.515978883745617622e+02
3.430573608689770015e+00 3.435333171891513437e+00 2.516004270311617574e+02
3.834614012789791193e+00 3.435333171891514770e+00 2.516029656878617686e+02
4.238654416789823465e+00 3.435333171891515214e+00 2.516055043445617798e+02
4.642694820889807339e+00 3.435333171891516546e+00 2.516080430011617750e+02
-1.821951643810272525e+00 3.839373575991494647e+00 2.515667579904617810e+02
-1.417911239710250237e+00 3.839373575991487542e+00 2.515692966471617638e+02
-1.013870835710269924e+00 3.839373575991490650e+00 2.515718353038617749e+02
-6.098304317102397620e-01 3.839373575991487986e+00 2.515743739604617701e+02
-2.057900276102651027e-01 3.839373575991484433e+00 2.515769126171617813e+02
1.982503763897436322e-01 3.839373575991484877e+00 2.515794512738617641e+02
6.022907804897617012e-01 3.839373575991485321e+00 2.515819899304617593e+02
1.006331184489764441e+00 3.839373575991483101e+00 2.515845285871617705e+02
1.410371588489722550e+00 3.839373575991483989e+00 2.515870672438617817e+02
1.814411992589722633e+00 3.839373575991477772e+00 2.515896059004617769e+02
2.218452396589768671e+00 3.839373575991478660e+00 2.515921445571617596e+02
2.622492800689771641e+00 3.839373575991484433e+00 2.515946832138617708e+02
3.026533204689760392e+00 3.839373575991483545e+00 2.515972218704617660e+02
3.430573608689746035e+00 3.839373575991493315e+00 2.515997605271617772e+02
3.834614012789760107e+00 3.839373575991494203e+00 2.516022991838617600e+02
4.238654416789740864e+00 3.839373575991501308e+00 2.516048378404617551e+02
4.642694820889742502e+00 3.839373575991502197e+00 2.516073764971617663e+02
-2.225992047810311014e+00 4.243413979991490059e+00 2.515635528297617611e+02
-1.821951643810301169e+00 4.243413979991486507e+00 2.515660914864617723e+02
-1.417911239710325066e+00 4.243413979991480289e+00 2.515686301431617551e+02
-1.013870835710326768e+00 4.243413979991477625e+00 2.515711687997617787e+02
-6.098304317102887229e-01 4.243413979991474960e+00 2.515737074564617615e+02
-2.057900276102468951e-01 4.243413979991479401e+00 2.515762461131617727e+02
1.982503763898127991e-01 4.243413979991480289e+00 2.515787847697617678e+02
6.022907804898196549e-01 4.243413979991482066e+00 2.515813234264617790e+02
1.006331184489836605e+00 4.243413979991482954e+00 2.515838620831617618e+02
1.410371588489787831e+00 4.243413979991481177e+00 2.515864007398617730e+02
1.814411992589732403e+00 4.243413979991474960e+00 2.515889393964617682e+02
2.218452396589745135e+00 4.243413979991471408e+00 2.515914780531617794e+02
2.622492800689804948e+00 4.243413979991474960e+00 2.515940167098617621e+02
3.026533204689799916e+00 4.243413979991479401e+00 2.515965553664617573e+02
3.430573608689810872e+00 4.243413979991482066e+00 2.515990940231617685e+02
3.834614012789785864e+00 4.243413979991483842e+00 2.516016326798617797e+02
4.238654416789810142e+00 4.243413979991486507e+00 2.516041713364617749e+02
4.642694820889796681e+00 4.243413979991487395e+00 2.516067099931617577e+02
-1.821951643810308497e+00 4.647454384091483703e+00 2.515654249824617636e+02
-1.417911239710314630e+00 4.647454384091488144e+00 2.515679636391617748e+02
-1.013870835710261931e+00 4.647454384091492585e+00 2.515705022957617700e+02
-6.098304317102888339e-01 4.647454384091493473e+00 2.515730409524617812e+02
-2.057900276103325210e-01 4.647454384091496138e+00 2.515755796091617640e+02
1.982503763896699966e-01 4.647454384091489032e+00 2.515781182657617592e+02
6.022907804897001949e-01 4.647454384091484592e+00 2.515806569224617704e+02
1.006331184489742681e+00 4.647454384091488144e+00 2.515831955791617816e+02
1.410371588489760963e+00 4.647454384091481039e+00 2.515857342357617767e+02
1.814411992589827438e+00 4.647454384091481039e+00 2.515882728924617595e+02
2.218452396589861930e+00 4.647454384091481039e+00 2.515908115491617707e+02
2.622492800689835146e+00 4.647454384091480151e+00 2.515933502057617659e+02
3.026533204689841661e+00 4.647454384091480151e+00 2.515958888624617771e+02
3.430573608689867271e+00 4.647454384091475710e+00 2.515984275191617598e+02
3.834614012789851589e+00 4.647454384091478374e+00 2.516009661757617550e+02
4.238654416789849222e+00 4.647454384091481927e+00 2.516035048324617662e+02
4.642694820889817997e+00 4.647454384091481927e+00 2.516060434891617774e+02
-2.225992047810271934e+00 5.051494788091487109e+00 2.515622198217617722e+02
-1.821951643810281185e+00 5.051494788091486221e+00 2.515647584784617550e+02
-1.417911239710290205e+00 5.051494788091490662e+00 2.515672971350617786e+02
-1.013870835710285689e+00 5.051494788091489774e+00 2.515698357917617614e+02
-6.098304317103100392e-01 5.051494788091488886e+00 2.515723744484617725e+02
-2.057900276102905546e-01 5.051494788091480892e+00 2.515749131050617677e+02
1.982503763897464633e-01 5.051494788091480892e+00 2.515774517617617789e+02
6.022907804897441597e-01 5.051494788091480004e+00 2.515799904184617617e+02
1.006331184489781094e+00 5.051494788091480004e+00 2.515825290750617569e+02
1.410371588489749417e+00 5.051494788091479116e+00 2.515850677317617681e+02
1.814411992589767264e+00 5.051494788091477339e+00 2.515876063884617793e+02
2.218452396589795761e+00 5.051494788091480004e+00 2.515901450450617745e+02
2.622492800689874226e+00 5.051494788091480004e+00 2.515926837017617572e+02
3.026533204689884737e+00 5.051494788091479116e+00 2.515952223584617684e+02
3.430573608689877041e+00 5.051494788091482668e+00 2.515977610150617636e+02
3.834614012789883120e+00 5.051494788091472898e+00 2.516002996717617748e+02
4.238654416789875867e+00 5.051494788091474675e+00 2.516028383284617576e+02
4.642694820889874840e+00 5.051494788091470234e+00 2.516053769850617812e+02
-2.225992047810244845e+00 5.455535192091484298e+00 2.515615533177617635e+02
-1.821951643810291843e+00 5.455535192091480745e+00 2.515640919743617587e+02
-1.417911239710295979e+00 5.455535192091482521e+00 2.515666306310617699e+02
-1.013870835710338758e+00 5.455535192091481633e+00 2.515691692877617811e+02
-6.098304317103214744e-01 5.455535192091479857e+00 2.515717079443617763e+02
-2.057900276103059034e-01 5.455535192091476304e+00 2.515742466010617591e+02
1.982503763897172644e-01 5.455535192091478969e+00 2.515767852577617703e+02
6.022907804897263961e-01 5.455535192091475416e+00 2.515793239143617654e+02
1.006331184489740904e+00 5.455535192091477192e+00 2.515818625710617766e+02
1.410371588489755634e+00 5.455535192091474528e+00 2.515844012277617594e+02
1.814411992589760381e+00 5.455535192091470087e+00 2.515869398844617706e+02
2.218452396589817965e+00 5.455535192091469199e+00 2.515894785410617658e+02
2.622492800689888437e+00 5.455535192091466534e+00 2.515920171977617770e+02
3.026533204689917156e+00 5.455535192091465646e+00 2.515945558544617597e+02
3.430573608689906795e+00 5.455535192091476304e+00 2.515970945110617549e+02
3.834614012789876458e+00 5.455535192091474528e+00 2.515996331677617661e+02
4.238654416789885637e+00 5.455535192091476304e+00 2.516021718244617773e+02
4.642694820889905039e+00 5.455535192091478969e+00 2.516047104810617725e+02
-2.225992047810260388e+00 5.859575596191483271e+00 2.515608868136617673e+02
-1.821951643810287402e+00 5.859575596191482383e+00 2.515634254703617785e+02
-1.417911239710299087e+00 5.859575596191477942e+00 2.515659641270617612e+02
-1.013870835710324547e+00 5.859575596191472613e+00 2.515685027837617724e+02
-6.098304317103269145e-01 5.859575596191469060e+00 2.515710414403617676e+02
-2.057900276102943571e-01 5.859575596191472613e+00 2.515735800970617788e+02
1.982503763897363325e-01 5.859575596191469948e+00 2.515761187537617616e+02
6.022907804897243977e-01 5.859575596191466396e+00 2.515786574103617568e+02
1.006331184489733577e+00 5.859575596191462843e+00 2.515811960670617680e+02
1.410371588489741868e+00 5.859575596191461067e+00 2.515837347237617792e+02
1.814411992589766598e+00 5.859575596191460178e+00 2.515862733803617743e+02
2.218452396589809084e+00 5.859575596191461955e+00 2.515888120370617571e+02
2.622492800689828041e+00 5.859575596191465507e+00 2.515913506937617683e+02
3.026533204689876744e+00 5.859575596191470837e+00 2.515938893503617635e+02
3.430573608689897469e+00 5.859575596191475277e+00 2.515964280070617747e+02
3.834614012789902660e+00 5.859575596191477054e+00 2.515989666637617574e+02
4.238654416789889190e+00 5.859575596191477054e+00 2.516015053203617811e+02
4.642694820889903262e+00 5.859575596191479718e+00 2.516040439770617638e+02
-2.225992047810271490e+00 6.263616000191471578e+00 2.515602203096617586e+02
-1.821951643810290955e+00 6.263616000191472466e+00 2.515627589663617698e+02
-1.417911239710283766e+00 6.263616000191468025e+00 2.515652976230617810e+02
-1.013870835710283913e+00 6.263616000191467137e+00 2.515678362796617762e+02
-6.098304317102718475e-01 6.263616000191470690e+00 2.515703749363617590e+02
-2.057900276102730130e-01 6.263616000191470690e+00 2.515729135930617701e+02
1.982503763897363047e-01 6.263616000191470690e+00 2.515754522496617653e+02
6.022907804897490447e-01 6.263616000191467137e+00 2.515779909063617765e+02
1.006331184489751340e+00 6.263616000191463584e+00 2.515805295630617593e+02
1.410371588489729211e+00 6.263616000191465361e+00 2.515830682196617545e+02
1.814411992589714417e+00 6.263616000191468025e+00 2.515856068763617657e+02
2.218452396589781106e+00 6.263616000191469801e+00 2.515881455330617769e+02
2.622492800689807169e+00 6.263616000191467137e+00 2.515906841896617721e+02
3.026533204689861201e+00 6.263616000191468913e+00 2.515932228463617548e+02
3.430573608689897913e+00 6.263616000191471578e+00 2.515957615030617660e+02
3.834614012789881343e+00 6.263616000191479571e+00 2.515983001596617612e+02
4.238654416789884749e+00 6.263616000191481348e+00 2.516008388163617724e+02
4.642694820889897045e+00 6.263616000191484012e+00 2.516033774730617552e+02
-1.821951643810272081e+00 6.667656404291478545e+00 2.515620924623617611e+02
-1.417911239710266225e+00 6.667656404291477656e+00 2.515646311189617563e+02
-1.013870835710235063e+00 6.667656404291470551e+00 2.515671697756617675e+02
-6.098304317102408723e-01 6.667656404291470551e+00 2.515697084323617787e+02
-2.057900276102375414e-01 6.667656404291466998e+00 2.515722470889617739e+02
1.982503763897855431e-01 6.667656404291471439e+00 2.515747857456617567e+02
6.022907804897362771e-01 6.667656404291470551e+00 2.515773244023617679e+02
1.006331184489718034e+00 6.667656404291467886e+00 2.515798630589617630e+02
1.410371588489668593e+00 6.667656404291466110e+00 2.515824017156617742e+02
1.814411992589662237e+00 6.667656404291466998e+00 2.515849403723617570e+02
2.218452396589728259e+00 6.667656404291467886e+00 2.515874790289617806e+02
2.622492800689766757e+00 6.667656404291469663e+00 2.515900176856617634e+02
3.026533204689839884e+00 6.667656404291474992e+00 2.515925563423617746e+02
3.430573608689848175e+00 6.667656404291479433e+00 2.515950949990617573e+02
3.834614012789854254e+00 6.667656404291468775e+00 2.515976336556617809e+02
4.238654416789830570e+00 6.667656404291471439e+00 2.516001723123617637e+02
4.642694820889857077e+00 6.667656404291477656e+00 2.516027109690617749e+02
-2.225992047810286145e+00 7.071696808291468628e+00 2.515588873016617697e+02
-1.821951643810252541e+00 7.071696808291474845e+00 2.515614259582617649e+02
-1.417911239710249793e+00 7.071696808291483727e+00 2.515639646149617761e+02
-1.013870835710226626e+00 7.071696808291481062e+00 2.515665032716617588e+02
-6.098304317102171135e-01 7.071696808291480174e+00 2.515690419283617700e+02
-2.057900276102112291e-01 7.071696808291479286e+00 2.515715805849617652e+02
1.982503763897919824e-01 7.071696808291476621e+00 2.515741192416617764e+02
6.022907804897450479e-01 7.071696808291470404e+00 2.515766578983617592e+02
1.006331184489701824e+00 7.071696808291470404e+00 2.515791965549617544e+02
1.410371588489638173e+00 7.071696808291470404e+00 2.515817352116617656e+02
1.814411992589657352e+00 7.071696808291468628e+00 2.515842738683617767e+02
2.218452396589718045e+00 7.071696808291470404e+00 2.515868125249617719e+02
2.622492800689784964e+00 7.071696808291475733e+00 2.515893511816617547e+02
3.026533204689821233e+00 7.071696808291473069e+00 2.515918898383617659e+02
3.430573608689837517e+00 7.071696808291476621e+00 2.515944284949617611e+02
-3.034072855910291633e+00 7.475737212291474698e+00 2.515531434842617671e+02
-2.630032451910276237e+00 7.475737212291477363e+00 2.515556821409617783e+02
-2.225992047810265273e+00 7.475737212291479139e+00 2.515582207976617610e+02
-1.821951643810264310e+00 7.475737212291475586e+00 2.515607594542617562e+02
-1.417911239710258675e+00 7.475737212291478251e+00 2.515632981109617674e+02
-1.013870835710209972e+00 7.475737212291482692e+00 2.515658367676617786e+02
-6.098304317102007932e-01 7.475737212291486244e+00 2.515683754242617738e+02
-2.057900276101979342e-01 7.475737212291486244e+00 2.515709140809617566e+02
1.982503763897850713e-01 7.475737212291487133e+00 2.515734527376617677e+02
6.022907804897528194e-01 7.475737212291480915e+00 2.515759913942617629e+02
1.006331184489694497e+00 7.475737212291484468e+00 2.515785300509617741e+02
1.410371588489669925e+00 7.475737212291482692e+00 2.515810687076617569e+02
1.814411992589692657e+00 7.475737212291483580e+00 2.515836073642617805e+02
2.218452396589710940e+00 7.475737212291482692e+00 2.515861460209617633e+02
2.622492800689761872e+00 7.475737212291480027e+00 2.515886846776617745e+02
3.026533204689802581e+00 7.475737212291475586e+00 2.515912233342617697e+02
3.430573608689821974e+00 7.475737212291478251e+00 2.515937619909617808e+02
-3.034072855910314281e+00 7.879777616391485218e+00 2.515524769802617584e+02
-2.630032451910307323e+00 7.879777616391479889e+00 2.515550156369617696e+02
-2.225992047810310126e+00 7.879777616391482553e+00 2.515575542935617648e+02
-1.821951643810286514e+00 7.879777616391480777e+00 2.515600929502617760e+02
-1.417911239710246907e+00 7.879777616391484329e+00 2.515626316069617587e+02
-1.013870835710243279e+00 7.879777616391492323e+00 2.515651702635617539e+02
-6.098304317102107852e-01 7.879777616391492323e+00 2.515677089202617651e+02
-2.057900276102106185e-01 7.879777616391490547e+00 2.515702475769617763e+02
1.982503763897784099e-01 7.879777616391488770e+00 2.515727862335617715e+02
6.022907804897522643e-01 7.879777616391486106e+00 2.515753248902617543e+02
1.006331184489737129e+00 7.879777616391486106e+00 2.515778635469617655e+02
1.410371588489738537e+00 7.879777616391487882e+00 2.515804022035617606e+02
1.814411992589713085e+00 7.879777616391489659e+00 2.515829408602617718e+02
2.218452396589716269e+00 7.879777616391493211e+00 2.515854795169617546e+02
2.622492800689764536e+00 7.879777616391484329e+00 2.515880181735617782e+02
3.026533204689781265e+00 7.879777616391486994e+00 2.515905568302617610e+02
3.430573608689798881e+00 7.879777616391480777e+00 2.515930954869617722e+02
-3.034072855910323607e+00 8.283818020391491288e+00 2.515518104762617781e+02
-2.630032451910312652e+00 8.283818020391493064e+00 2.515543491328617733e+02
-2.225992047810343433e+00 8.283818020391494841e+00 2.515568877895617561e+02
-1.821951643810311161e+00 8.283818020391493064e+00 2.515594264462617673e+02
-1.417911239710315519e+00 8.283818020391489512e+00 2.515619651028617625e+02
-1.013870835710245943e+00 8.283818020391491288e+00 2.515645037595617737e+02
-6.098304317102400951e-01 8.283818020391493064e+00 2.515670424162617564e+02
-2.057900276102198611e-01 8.283818020391489512e+00 2.515695810728617801e+02
1.982503763897647819e-01 8.283818020391484183e+00 2.515721197295617628e+02
6.022907804897641437e-01 8.283818020391491288e+00 2.515746583862617740e+02
1.006331184489773767e+00 8.283818020391489512e+00 2.515771970429617568e+02
1.410371588489774064e+00 8.283818020391491288e+00 2.515797356995617804e+02
1.814411992589763933e+00 8.283818020391493064e+00 2.515822743562617632e+02
2.218452396589778886e+00 8.283818020391493064e+00 2.515848130129617743e+02
2.622492800689768977e+00 8.283818020391493064e+00 2.515873516695617695e+02
3.026533204689770162e+00 8.283818020391493064e+00 2.515898903262617807e+02
-3.034072855910313393e+00 8.687858424491500031e+00 2.515511439722617695e+02
-2.630032451910331748e+00 8.687858424491500031e+00 2.515536826288617647e+02
-2.225992047810306129e+00 8.687858424491496478e+00 2.515562212855617759e+02
-1.821951643810322929e+00 8.687858424491494702e+00 2.515587599422617586e+02
-1.417911239710338167e+00 8.687858424491487597e+00 2.515612985988617538e+02
-1.013870835710297236e+00 8.687858424491487597e+00 2.515638372555617650e+02
-6.098304317102589689e-01 8.687858424491492926e+00 2.515663759122617762e+02
-2.057900276102500592e-01 8.687858424491498255e+00 2.515689145688617714e+02
1.982503763897577598e-01 8.687858424491496478e+00 2.515714532255617542e+02
6.022907804897902340e-01 8.687858424491494702e+00 2.515739918822617653e+02
1.006331184489814845e+00 8.687858424491494702e+00 2.515765305388617605e+02
1.410371588489783390e+00 8.687858424491492926e+00 2.515790691955617717e+02
1.814411992589788580e+00 8.687858424491492926e+00 2.515816078522617545e+02
2.218452396589792208e+00 8.687858424491491149e+00 2.515841465088617781e+02
2.622492800689808501e+00 8.687858424491482268e+00 2.515866851655617609e+02
3.026533204689787926e+00 8.687858424491487597e+00 2.515892238222617721e+02
-3.034072855910262323e+00 9.091898828491498108e+00 2.515504774681617732e+02
-2.630032451910285118e+00 9.091898828491496332e+00 2.515530161248617560e+02
-2.225992047810290142e+00 9.091898828491492779e+00 2.515555547815617672e+02
-1.821951643810307608e+00 9.091898828491492779e+00 2.515580934381617624e+02
-1.417911239710336613e+00 9.091898828491491003e+00 2.515606320948617736e+02
-1.013870835710297680e+00 9.091898828491492779e+00 2.515631707515617563e+02
-6.098304317102547500e-01 9.091898828491492779e+00 2.515657094081617799e+02
-2.057900276102476445e-01 9.091898828491485673e+00 2.515682480648617627e+02
1.982503763897880411e-01 9.091898828491487450e+00 2.515707867215617739e+02
6.022907804898093298e-01 9.091898828491483897e+00 2.515733253781617691e+02
1.006331184489806185e+00 9.091898828491487450e+00 2.515758640348617803e+02
1.410371588489798933e+00 9.091898828491482121e+00 2.515784026915617630e+02
1.814411992589796574e+00 9.091898828491478568e+00 2.515809413481617582e+02
2.218452396589793096e+00 9.091898828491482121e+00 2.515834800048617694e+02
2.622492800689800507e+00 9.091898828491489226e+00 2.515860186615617806e+02
3.026533204689813239e+00 9.091898828491496332e+00 2.515885573181617758e+02
3.430573608689821974e+00 9.091898828491496332e+00 2.515910959748617586e+02
-3.034072855910247668e+00 9.495939232491496185e+00 2.515498109641617646e+02
-2.630032451910250924e+00 9.495939232491497961e+00 2.515523496208617757e+02
-2.225992047810244845e+00 9.495939232491497961e+00 2.515548882774617709e+02
-1.821951643810301835e+00 9.495939232491492632e+00 2.515574269341617537e+02
-1.417911239710286875e+00 9.495939232491485527e+00 2.515599655908617649e+02
-1.013870835710258822e+00 9.495939232491490856e+00 2.515625042474617601e+02
-6.098304317102702932e-01 9.495939232491494408e+00 2.515650429041617713e+02
-2.057900276102386239e-01 9.495939232491489079e+00 2.515675815608617540e+02
1.982503763897581761e-01 9.495939232491492632e+00 2.515701202174617777e+02
6.022907804897762452e-01 9.495939232491492632e+00 2.515726588741617604e+02
1.006331184489787089e+00 9.495939232491489079e+00 2.515751975308617716e+02
1.410371588489779837e+00 9.495939232491490856e+00 2.515777361875617544e+02
1.814411992589772371e+00 9.495939232491485527e+00 2.515802748441617780e+02
2.218452396589806419e+00 9.495939232491489079e+00 2.515828135008617608e+02
2.622492800689852910e+00 9.495939232491485527e+00 2.515853521575617719e+02
3.026533204689852763e+00 9.495939232491487303e+00 2.515878908141617671e+02
3.430573608689893028e+00 9.495939232491496185e+00 2.515904294708617783e+02
3.834614012789865800e+00 9.495939232491494408e+00 2.515929681275617611e+02
4.238654416789851886e+00 9.495939232491501514e+00 2.515955067841617563e+02
4.642694820889814444e+00 9.495939232491499737e+00 2.515980454408617675e+02
-3.034072855910213029e+00 9.899979636591499599e+00 2.515491444601617559e+02
-2.630032451910259805e+00 9.899979636591496046e+00 2.515516831167617795e+02
-2.225992047810231522e+00 9.899979636591488941e+00 2.515542217734617623e+02
-1.821951643810255428e+00 9.899979636591492493e+00 2.515567604301617735e+02
-1.417911239710282212e+00 9.899979636591496046e+00 2.515592990868617562e+02
-1.013870835710269702e+00 9.899979636591494270e+00 2.515618377434617798e+02
-6.098304317102524186e-01 9.899979636591492493e+00 2.515643764001617626e+02
-2.057900276102792025e-01 9.899979636591496046e+00 2.515669150568617738e+02
1.982503763897425497e-01 9.899979636591496046e+00 2.515694537134617690e+02
6.022907804897517092e-01 9.899979636591490717e+00 2.515719923701617802e+02
1.006331184489765995e+00 9.899979636591488941e+00 2.515745310268617629e+02
1.410371588489764516e+00 9.899979636591492493e+00 2.515770696834617581e+02
1.814411992589773481e+00 9.899979636591490717e+00 2.515796083401617693e+02
2.218452396589803310e+00 9.899979636591490717e+00 2.515821469968617805e+02
2.622492800689843140e+00 9.899979636591488941e+00 2.515846856534617757e+02
3.026533204689879852e+00 9.899979636591490717e+00 2.515872243101617585e+02
3.430573608689893916e+00 9.899979636591488941e+00 2.515897629668617697e+02
3.834614012789869353e+00 9.899979636591492493e+00 2.515923016234617648e+02
4.238654416789874091e+00 9.899979636591496046e+00 2.515948402801617760e+02
4.642694820889855301e+00 9.899979636591497822e+00 2.515973789368617588e+02
-1.821951643810252985e+00 1.030402004059149768e+01 2.515560939261617648e+02
-1.417911239710269999e+00 1.030402004059149768e+01 2.515586325827617600e+02
-1.013870835710276364e+00 1.030402004059149590e+01 2.515611712394617712e+02
-6.098304317102497540e-01 1.030402004059149412e+01 2.515637098961617539e+02
-2.057900276102391512e-01 1.030402004059149412e+01 2.515662485527617775e+02
1.982503763897554838e-01 1.030402004059148879e+01 2.515687872094617603e+02
6.022907804897585926e-01 1.030402004059148702e+01 2.515713258661617715e+02
1.006331184489765995e+00 1.030402004059149057e+01 2.515738645227617667e+02
1.410371588489750305e+00 1.030402004059148169e+01 2.515764031794617779e+02
1.814411992589775036e+00 1.030402004059148169e+01 2.515789418361617606e+02
2.218452396589803755e+00 1.030402004059148702e+01 2.515814804927617558e+02
2.622492800689840475e+00 1.030402004059149057e+01 2.515840191494617670e+02
3.026533204689870526e+00 1.030402004059149057e+01 2.515865578061617782e+02
3.430573608689866383e+00 1.030402004059149235e+01 2.515890964627617734e+02
3.834614012789875126e+00 1.030402004059149057e+01 2.515916351194617562e+02
4.238654416789858992e+00 1.030402004059149057e+01 2.515941737761617674e+02
4.642694820889891716e+00 1.030402004059148879e+01 2.515967124327617626e+02
-1.417911239710269777e+00 1.070806044469149576e+01 2.515579660787617797e+02
-1.013870835710243057e+00 1.070806044469149043e+01 2.515605047354617625e+02
-6.098304317102399841e-01 1.070806044469149043e+01 2.515630433920617577e+02
-2.057900276102357096e-01 1.070806044469149398e+01 2.515655820487617689e+02
1.982503763897551230e-01 1.070806044469149221e+01 2.515681207054617801e+02
6.022907804897548179e-01 1.070806044469149576e+01 2.515706593620617753e+02
1.006331184489780650e+00 1.070806044469149576e+01 2.515731980187617580e+02
1.410371588489773620e+00 1.070806044469149576e+01 2.515757366754617692e+02
1.814411992589736844e+00 1.070806044469149221e+01 2.515782753320617644e+02
2.218452396589796649e+00 1.070806044469149221e+01 2.515808139887617756e+02
2.622492800689826709e+00 1.070806044469149043e+01 2.515833526454617584e+02
3.026533204689879852e+00 1.070806044469149221e+01 2.515858913021617695e+02
3.430573608689901466e+00 1.070806044469149398e+01 2.515884299587617647e+02
3.834614012789883564e+00 1.070806044469149043e+01 2.515909686154617759e+02
4.238654416789874091e+00 1.070806044469149043e+01 2.515935072721617587e+02
4.642694820889877505e+00 1.070806044469149221e+01 2.515960459287617539e+02
-1.821951643810260313e+00 1.111210084869149384e+01 2.515547609180617599e+02
-1.417911239710256677e+00 1.111210084869148673e+01 2.515572995747617711e+02
-1.013870835710240614e+00 1.111210084869149561e+01 2.515598382314617538e+02
-6.098304317102464234e-01 1.111210084869149739e+01 2.515623768880617774e+02
-2.057900276102329062e-01 1.111210084869149561e+01 2.515649155447617602e+02
1.982503763897643934e-01 1.111210084869149384e+01 2.515674542014617714e+02
6.022907804897476014e-01 1.111210084869150272e+01 2.515699928580617666e+02
1.006331184489773767e+00 1.111210084869150094e+01 2.515725315147617778e+02
1.410371588489758299e+00 1.111210084869149561e+01 2.515750701714617605e+02
1.814411992589749723e+00 1.111210084869149561e+01 2.515776088280617557e+02
2.218452396589800202e+00 1.111210084869149384e+01 2.515801474847617669e+02
2.622492800689832482e+00 1.111210084869149028e+01 2.515826861414617781e+02
3.026533204689847434e+00 1.111210084869149028e+01 2.515852247980617733e+02
3.430573608689895249e+00 1.111210084869149028e+01 2.515877634547617561e+02
3.834614012789885784e+00 1.111210084869149561e+01 2.515903021114617673e+02
4.238654416789889190e+00 1.111210084869149206e+01 2.515928407680617624e+02
4.642694820889861518e+00 1.111210084869149917e+01 2.515953794247617736e+02
-1.821951643810278521e+00 1.151614125279149548e+01 2.515540944140617796e+02
-1.417911239710269999e+00 1.151614125279149725e+01 2.515566330707617624e+02
-1.013870835710243279e+00 1.151614125279149370e+01 2.515591717273617576e+02
-6.098304317102416494e-01 1.151614125279149548e+01 2.515617103840617688e+02
-2.057900276102421488e-01 1.151614125279149370e+01 2.515642490407617800e+02
1.982503763897578986e-01 1.151614125279149370e+01 2.515667876973617751e+02
6.022907804897453810e-01 1.151614125279149548e+01 2.515693263540617579e+02
1.006331184489768438e+00 1.151614125279149548e+01 2.515718650107617691e+02
1.410371588489760741e+00 1.151614125279149903e+01 2.515744036673617643e+02
1.814411992589752609e+00 1.151614125279149370e+01 2.515769423240617755e+02
2.218452396589764675e+00 1.151614125279149015e+01 2.515794809807617582e+02
2.622492800689815162e+00 1.151614125279149015e+01 2.515820196373617819e+02
3.026533204689867862e+00 1.151614125279148837e+01 2.515845582940617646e+02
3.430573608689893028e+00 1.151614125279148304e+01 2.515870969507617758e+02
3.834614012789876902e+00 1.151614125279149192e+01 2.515896356073617710e+02
4.238654416789876755e+00 1.151614125279149192e+01 2.515921742640617538e+02
4.642694820889867735e+00 1.151614125279149725e+01 2.515947129207617650e+02
-1.821951643810304722e+00 1.192018165679150243e+01 2.515534279100617709e+02
-1.417911239710256233e+00 1.192018165679150066e+01 2.515559665666617661e+02
-1.013870835710268148e+00 1.192018165679149533e+01 2.515585052233617773e+02
-6.098304317102442029e-01 1.192018165679149178e+01 2.515610438800617601e+02
-2.057900276102515857e-01 1.192018165679150066e+01 2.515635825366617553e+02
1.982503763897802973e-01 1.192018165679150421e+01 2.515661211933617665e+02
6.022907804897800199e-01 1.192018165679150066e+01 2.515686598500617777e+02
1.006331184489765551e+00 1.192018165679150421e+01 2.515711985066617729e+02
1.410371588489750971e+00 1.192018165679150421e+01 2.515737371633617556e+02
1.814411992589751721e+00 1.192018165679150243e+01 2.515762758200617668e+02
2.218452396589761566e+00 1.192018165679149178e+01 2.515788144766617620e+02
2.622492800689797399e+00 1.192018165679149355e+01 2.515813531333617732e+02
3.026533204689866974e+00 1.192018165679149355e+01 2.515838917900617560e+02
3.430573608689879705e+00 1.192018165679149355e+01 2.515864304466617796e+02
3.834614012789890669e+00 1.192018165679149000e+01 2.515889691033617623e+02
4.238654416789874091e+00 1.192018165679149178e+01 2.515915077600617735e+02
4.642694820889875729e+00 1.192018165679149355e+01 2.515940464167617563e+02
-1.821951643810288735e+00 1.232422206079150229e+01 2.515527614059617747e+02
-1.417911239710268667e+00 1.232422206079150229e+01 2.515553000626617575e+02
-1.013870835710255713e+00 1.232422206079149518e+01 2.515578387193617687e+02
-6.098304317102452021e-01 1.232422206079150229e+01 2.515603773759617638e+02
-2.057900276102613835e-01 1.232422206079150406e+01 2.515629160326617750e+02
1.982503763897768279e-01 1.232422206079150406e+01 2.515654546893617578e+02
6.022907804897793538e-01 1.232422206079150762e+01 2.515679933460617690e+02
1.006331184489762443e+00 1.232422206079150762e+01 2.515705320026617642e+02
1.410371588489771844e+00 1.232422206079150584e+01 2.515730706593617754e+02
1.814411992589747946e+00 1.232422206079150584e+01 2.515756093160617581e+02
2.218452396589766451e+00 1.232422206079150229e+01 2.515781479726617818e+02
2.622492800689758319e+00 1.232422206079149518e+01 2.515806866293617645e+02
3.026533204689829226e+00 1.232422206079149518e+01 2.515832252860617757e+02
3.430573608689870380e+00 1.232422206079149696e+01 2.515857639426617709e+02
3.834614012789884008e+00 1.232422206079149696e+01 2.515883025993617537e+02
4.238654416789895407e+00 1.232422206079148808e+01 2.515908412560617649e+02
4.642694820889858853e+00 1.232422206079148985e+01 2.515933799126617600e+02
-1.821951643810288735e+00 1.272826246489150392e+01 2.515520949019617660e+02
-1.417911239710265336e+00 1.272826246489150037e+01 2.515546335586617772e+02
-1.013870835710271701e+00 1.272826246489150215e+01 2.515571722153617600e+02
-6.098304317102455352e-01 1.272826246489149860e+01 2.515597108719617552e+02
-2.057900276102583581e-01 1.272826246489150392e+01 2.515622495286617664e+02
1.982503763897569826e-01 1.272826246489150392e+01 2.515647881853617776e+02
6.022907804897627004e-01 1.272826246489150570e+01 2.515673268419617727e+02
1.006331184489775321e+00 1.272826246489150392e+01 2.515698654986617555e+02
1.410371588489753414e+00 1.272826246489150392e+01 2.515724041553617667e+02
1.814411992589742395e+00 1.272826246489150392e+01 2.515749428119617619e+02
2.218452396589739806e+00 1.272826246489150037e+01 2.515774814686617731e+02
2.622492800689760983e+00 1.272826246489150037e+01 2.515800201253617558e+02
3.026533204689804357e+00 1.272826246489149327e+01 2.515825587819617795e+02
3.430573608689858389e+00 1.272826246489149504e+01 2.515850974386617622e+02
3.834614012789877791e+00 1.272826246489150037e+01 2.515876360953617734e+02
4.238654416789889190e+00 1.272826246489149860e+01 2.515901747519617686e+02
4.642694820889878393e+00 1.272826246489149504e+01 2.515927134086617798e+02
-1.821951643810300281e+00 1.313230286889149667e+01 2.515514283979617574e+02
-1.417911239710290205e+00 1.313230286889150200e+01 2.515539670546617685e+02
-1.013870835710259266e+00 1.313230286889150022e+01 2.515565057112617637e+02
-6.098304317102485328e-01 1.313230286889150022e+01 2.515590443679617749e+02
-2.057900276102609671e-01 1.313230286889150200e+01 2.515615830246617577e+02
1.982503763897569826e-01 1.313230286889150378e+01 2.515641216812617813e+02
6.022907804897600359e-01 1.313230286889150200e+01 2.515666603379617641e+02
1.006331184489772435e+00 1.313230286889150200e+01 2.515691989946617753e+02
1.410371588489762518e+00 1.313230286889150555e+01 2.515717376512617705e+02
1.814411992589748612e+00 1.313230286889149845e+01 2.515742763079617816e+02
2.218452396589740250e+00 1.313230286889149845e+01 2.515768149646617644e+02
2.622492800689758763e+00 1.313230286889150200e+01 2.515793536212617596e+02
3.026533204689794143e+00 1.313230286889149845e+01 2.515818922779617708e+02
3.430573608689821086e+00 1.313230286889149134e+01 2.515844309346617536e+02
3.834614012789852033e+00 1.313230286889149490e+01 2.515869695912617772e+02
4.238654416789871426e+00 1.313230286889149667e+01 2.515895082479617599e+02
4.642694820889864182e+00 1.313230286889149490e+01 2.515920469046617711e+02
-2.225992047810277263e+00 1.353634327299149831e+01 2.515482232372617659e+02
-1.821951643810289845e+00 1.353634327299149831e+01 2.515507618939617771e+02
-1.417911239710298421e+00 1.353634327299150009e+01 2.515533005505617723e+02
-1.013870835710248386e+00 1.353634327299149831e+01 2.515558392072617551e+02
-6.098304317102456462e-01 1.353634327299150009e+01 2.515583778639617663e+02
-2.057900276102828108e-01 1.353634327299150364e+01 2.515609165205617614e+02
1.982503763897572324e-01 1.353634327299150186e+01 2.515634551772617726e+02
6.022907804897541517e-01 1.353634327299150186e+01 2.515659938339617554e+02
1.006331184489763109e+00 1.353634327299150364e+01 2.515685324906617666e+02
1.410371588489762296e+00 1.353634327299150719e+01 2.515710711472617618e+02
1.814411992589766820e+00 1.353634327299150009e+01 2.515736098039617730e+02
2.218452396589740250e+00 1.353634327299149831e+01 2.515761484606617557e+02
2.622492800689762316e+00 1.353634327299149831e+01 2.515786871172617793e+02
3.026533204689800804e+00 1.353634327299150009e+01 2.515812257739617621e+02
3.430573608689821086e+00 1.353634327299148943e+01 2.515837644306617733e+02
3.834614012789846704e+00 1.353634327299149653e+01 2.515863030872617685e+02
4.238654416789853663e+00 1.353634327299149831e+01 2.515888417439617797e+02
4.642694820889838425e+00 1.353634327299149653e+01 2.515913804006617625e+02
-2.225992047810298580e+00 1.394038367699149639e+01 2.515475567332617572e+02
-1.821951643810293398e+00 1.394038367699150172e+01 2.515500953899617684e+02
-1.417911239710287319e+00 1.394038367699150172e+01 2.515526340465617636e+02
-1.013870835710248386e+00 1.394038367699149816e+01 2.515551727032617748e+02
-6.098304317102580807e-01 1.394038367699150172e+01 2.515577113599617576e+02
