-1.429220716540942293e+00 -1.272331377693396171e+01 2.533965853338470140e+02
-1.025180312540944882e+00 -1.231927337283396007e+01 2.533984574864470005e+02
-6.211399085410099774e-01 -1.231927337283396184e+01 2.534009961431470117e+02
-2.170995044408455810e-01 -1.231927337283396717e+01 2.534035347997470069e+02
1.869408995591879119e-01 -1.231927337283397073e+01 2.534060734564470181e+02
5.909813036592986846e-01 -1.231927337283397605e+01 2.534086121131470009e+02
9.950217076592728915e-01 -1.231927337283397605e+01 2.534111507697470245e+02
1.399062111659305829e+00 -1.231927337283397961e+01 2.534136894264470072e+02
1.803102515759298807e+00 -1.231927337283397961e+01 2.534162280831470184e+02
2.207142919759275568e+00 -1.231927337283397783e+01 2.534187667397470136e+02
-1.025180312540919347e+00 -1.191523296883395666e+01 2.533977909824470203e+02
-6.211399085409378129e-01 -1.191523296883395844e+01 2.534003296390470155e+02
-2.170995044408444985e-01 -1.191523296883397798e+01 2.534028682957470267e+02
1.869408995591324285e-01 -1.191523296883397975e+01 2.534054069524470094e+02
5.909813036592603819e-01 -1.191523296883397087e+01 2.534079456090470046e+02
9.950217076592229315e-01 -1.191523296883397087e+01 2.534104842657470158e+02
1.399062111659272745e+00 -1.191523296883397798e+01 2.534130229224470270e+02
1.803102515759236857e+00 -1.191523296883396732e+01 2.534155615790470222e+02
2.207142919759297772e+00 -1.191523296883396554e+01 2.534181002357470049e+02
-1.025180312540894700e+00 -1.151119256483394437e+01 2.533971244784470116e+02
-6.211399085409275989e-01 -1.151119256483394437e+01 2.533996631350470068e+02
-2.170995044409273766e-01 -1.151119256483394615e+01 2.534022017917470180e+02
1.869408995591862466e-01 -1.151119256483395503e+01 2.534047404484470007e+02
5.909813036592599378e-01 -1.151119256483396569e+01 2.534072791050470244e+02
9.950217076592219323e-01 -1.151119256483396036e+01 2.534098177617470071e+02
1.399062111659209906e+00 -1.151119256483395681e+01 2.534123564184470183e+02
1.803102515759234636e+00 -1.151119256483394793e+01 2.534148950750470135e+02
-1.025180312540824534e+00 -1.110715216073396583e+01 2.533964579743470154e+02
-6.211399085408484400e-01 -1.110715216073394096e+01 2.533989966310470265e+02
-2.170995044408466079e-01 -1.110715216073395695e+01 2.534015352877470093e+02
1.869408995592096445e-01 -1.110715216073395517e+01 2.534040739443470045e+02
5.909813036592023172e-01 -1.110715216073395339e+01 2.534066126010470157e+02
9.950217076591986176e-01 -1.110715216073396050e+01 2.534091512577470269e+02
1.399062111659242325e+00 -1.110715216073395339e+01 2.534116899143470221e+02
1.803102515759196001e+00 -1.110715216073393563e+01 2.534142285710470048e+02
-1.025180312540797889e+00 -1.070311175673399617e+01 2.533957914703470067e+02
-6.211399085408447762e-01 -1.070311175673397663e+01 2.533983301270470179e+02
-2.170995044408482177e-01 -1.070311175673394288e+01 2.534008687836470131e+02
1.869408995592086453e-01 -1.070311175673394644e+01 2.534034074403470242e+02
5.909813036591805568e-01 -1.070311175673396953e+01 2.534059460970470070e+02
9.950217076592219323e-01 -1.070311175673396065e+01 2.534084847536470022e+02
1.399062111659186369e+00 -1.070311175673395709e+01 2.534110234103470134e+02
1.803102515759175350e+00 -1.070311175673396420e+01 2.534135620670470246e+02
2.207142919759276900e+00 -1.070311175673399084e+01 2.534161007236470198e+02
-6.211399085407859344e-01 -1.029907135263399809e+01 2.533976636229470216e+02
-2.170995044408561836e-01 -1.029907135263397855e+01 2.534002022796470044e+02
1.869408995591536338e-01 -1.029907135263396079e+01 2.534027409363470156e+02
5.909813036591854418e-01 -1.029907135263397322e+01 2.534052795930470268e+02
9.950217076592234866e-01 -1.029907135263397677e+01 2.534078182496470220e+02
1.399062111659224117e+00 -1.029907135263398388e+01 2.534103569063470047e+02
1.803102515759152924e+00 -1.029907135263399809e+01 2.534128955630470159e+02
2.207142919759167654e+00 -1.029907135263399987e+01 2.534154342196470111e+02
-1.025180312540820982e+00 -9.895030948634001788e+00 2.533944584623470178e+02
-6.211399085407743881e-01 -9.895030948633998236e+00 2.533969971189470130e+02
-2.170995044408663699e-01 -9.895030948633992907e+00 2.533995357756470241e+02
1.869408995591455291e-01 -9.895030948633994683e+00 2.534020744323470069e+02
5.909813036591980984e-01 -9.895030948633982248e+00 2.534046130889470021e+02
9.950217076591471033e-01 -9.895030948634010670e+00 2.534071517456470133e+02
1.399062111659239438e+00 -9.895030948634017776e+00 2.534096904023470245e+02
1.803102515759176905e+00 -9.895030948634003565e+00 2.534122290589470197e+02
2.207142919759194299e+00 -9.895030948634014223e+00 2.534147677156470024e+02
-1.025180312540865835e+00 -9.490990544533998374e+00 2.533937919582470215e+02
-6.211399085407423026e-01 -9.490990544533989492e+00 2.533963306149470043e+02
-2.170995044408299268e-01 -9.490990544533982387e+00 2.533988692716470155e+02
1.869408995592040656e-01 -9.490990544533971729e+00 2.534014079282470107e+02
5.909813036592653779e-01 -9.490990544533975282e+00 2.534039465849470218e+02
9.950217076592244858e-01 -9.490990544533985940e+00 2.534064852416470046e+02
1.399062111659211682e+00 -9.490990544534001927e+00 2.534090238982470282e+02
1.803102515759232416e+00 -9.490990544533994822e+00 2.534115625549470110e+02
2.207142919759293775e+00 -9.490990544533980611e+00 2.534141012116470222e+02
-1.025180312540926453e+00 -9.086950140534003850e+00 2.533931254542470128e+02
-6.211399085408374487e-01 -9.086950140533978981e+00 2.533956641109470240e+02
-2.170995044407774965e-01 -9.086950140533943454e+00 2.533982027675470192e+02
1.869408995592078127e-01 -9.086950140533938125e+00 2.534007414242470020e+02
5.909813036592035385e-01 -9.086950140533966547e+00 2.534032800809470132e+02
9.950217076592832166e-01 -9.086950140533964770e+00 2.534058187376470244e+02
1.399062111659292285e+00 -9.086950140533984310e+00 2.534083573942470196e+02
1.803102515759329449e+00 -9.086950140533980758e+00 2.534108960509470023e+02
2.207142919759352839e+00 -9.086950140534005627e+00 2.534134347076470135e+02
-1.025180312540901806e+00 -8.682909736534014655e+00 2.533924589502470042e+02
-6.211399085410088672e-01 -8.682909736534000444e+00 2.533949976069470154e+02
-2.170995044409763375e-01 -8.682909736533995115e+00 2.533975362635470105e+02
1.869408995591891054e-01 -8.682909736534009326e+00 2.534000749202470217e+02
5.909813036593146718e-01 -8.682909736534019984e+00 2.534026135769470045e+02
9.950217076594435328e-01 -8.682909736534018208e+00 2.534051522335470281e+02
1.399062111659525209e+00 -8.682909736534039524e+00 2.534076908902470109e+02
1.803102515759481106e+00 -8.682909736534019984e+00 2.534102295469470221e+02
-1.025180312541001504e+00 -8.278869332434004136e+00 2.533917924462470239e+02
-6.211399085409629039e-01 -8.278869332434013018e+00 2.533943311028470191e+02
-2.170995044408768893e-01 -8.278869332434004136e+00 2.533968697595470019e+02
1.869408995592601597e-01 -8.278869332434013018e+00 2.533994084162470131e+02
5.909813036594504521e-01 -8.278869332434018347e+00 2.534019470728470083e+02
9.950217076595001542e-01 -8.278869332434021899e+00 2.534044857295470194e+02
1.399062111659497676e+00 -8.278869332434023676e+00 2.534070243862470022e+02
1.803102515759571478e+00 -8.278869332434009465e+00 2.534095630428470258e+02
-1.025180312540865168e+00 -7.874828928434051356e+00 2.533911259421470277e+02
-6.211399085408125798e-01 -7.874828928434037145e+00 2.533936645988470104e+02
-2.170995044407807439e-01 -7.874828928434025599e+00 2.533962032555470216e+02
1.869408995592458655e-01 -7.874828928434012276e+00 2.533987419121470168e+02
5.909813036592747038e-01 -7.874828928433996289e+00 2.534012805688470280e+02
9.950217076593862453e-01 -7.874828928434008724e+00 2.534038192255470108e+02
1.399062111659467256e+00 -7.874828928434023823e+00 2.534063578821470060e+02
1.803102515759402946e+00 -7.874828928434034481e+00 2.534088965388470172e+02
-1.429220716540757108e+00 -7.470788524334003533e+00 2.533879207815470238e+02
-1.025180312540697303e+00 -7.470788524334017744e+00 2.533904594381470190e+02
-6.211399085409443632e-01 -7.470788524334009750e+00 2.533929980948470018e+02
-2.170995044409130825e-01 -7.470788524334017744e+00 2.533955367515470130e+02
1.869408995591328726e-01 -7.470788524334009750e+00 2.533980754081470081e+02
5.909813036591694546e-01 -7.470788524333999980e+00 2.534006140648470193e+02
9.950217076592116072e-01 -7.470788524333999980e+00 2.534031527215470021e+02
1.399062111659350238e+00 -7.470788524334025738e+00 2.534056913781470257e+02
1.803102515759447799e+00 -7.470788524334015968e+00 2.534082300348470085e+02
2.207142919759414568e+00 -7.470788524334032843e+00 2.534107686915470197e+02
-1.025180312540768135e+00 -7.066748120333991245e+00 2.533897929341470103e+02
-6.211399085408487730e-01 -7.066748120333982364e+00 2.533923315908470215e+02
-2.170995044409050612e-01 -7.066748120333981475e+00 2.533948702474470167e+02
1.869408995590608746e-01 -7.066748120333972594e+00 2.533974089041470279e+02
5.909813036590996216e-01 -7.066748120333983252e+00 2.533999475608470107e+02
9.950217076591525434e-01 -7.066748120333973482e+00 2.534024862174470059e+02
1.399062111659393981e+00 -7.066748120333971706e+00 2.534050248741470170e+02
1.803102515759573476e+00 -7.066748120333984140e+00 2.534075635308470282e+02
2.207142919759482513e+00 -7.066748120333988581e+00 2.534101021874470234e+02
-6.211399085408139120e-01 -6.662707716333979846e+00 2.533916650867470253e+02
-2.170995044409071983e-01 -6.662707716333962082e+00 2.533942037434470080e+02
1.869408995591047840e-01 -6.662707716333963859e+00 2.533967424001470192e+02
5.909813036592451718e-01 -6.662707716333961194e+00 2.533992810567470144e+02
9.950217076592762222e-01 -6.662707716333965635e+00 2.534018197134470256e+02
1.399062111659418406e+00 -6.662707716333982511e+00 2.534043583701470084e+02
1.803102515759498203e+00 -6.662707716333983399e+00 2.534068970267470036e+02
2.207142919759310207e+00 -6.662707716333975405e+00 2.534094356834470148e+02
-6.211399085407570686e-01 -6.258667312233984426e+00 2.533909985827470166e+02
-2.170995044408288999e-01 -6.258667312233947122e+00 2.533935372394470278e+02
1.869408995592298506e-01 -6.258667312233925806e+00 2.533960758961470106e+02
5.909813036592785895e-01 -6.258667312233921365e+00 2.533986145527470057e+02
9.950217076592389187e-01 -6.258667312233924029e+00 2.534011532094470169e+02
1.399062111659328256e+00 -6.258667312233950675e+00 2.534036918661470281e+02
1.803102515759375191e+00 -6.258667312233971991e+00 2.534062305227470233e+02
-1.025180312540711514e+00 -5.854626908233993454e+00 2.533877934220470252e+02
-6.211399085407696141e-01 -5.854626908233973914e+00 2.533903320787470079e+02
-2.170995044407408314e-01 -5.854626908233958815e+00 2.533928707354470191e+02
1.869408995593693223e-01 -5.854626908233958815e+00 2.533954093920470143e+02
5.909813036594181446e-01 -5.854626908233953486e+00 2.533979480487470255e+02
9.950217076593708132e-01 -5.854626908233925953e+00 2.534004867054470083e+02
1.399062111659316043e+00 -5.854626908233944604e+00 2.534030253620470035e+02
1.803102515759293922e+00 -5.854626908233954374e+00 2.534055640187470146e+02
-1.025180312540765470e+00 -5.450586504134016685e+00 2.533871269180470165e+02
-6.211399085406985598e-01 -5.450586504134005139e+00 2.533896655747470277e+02
-2.170995044405132635e-01 -5.450586504134004251e+00 2.533922042313470229e+02
1.869408995594294409e-01 -5.450586504133994481e+00 2.533947428880470056e+02
5.909813036593428714e-01 -5.450586504133997146e+00 2.533972815447470168e+02
9.950217076593663723e-01 -5.450586504133998034e+00 2.533998202013470120e+02
1.399062111659263419e+00 -5.450586504134000698e+00 2.534023588580470232e+02
1.803102515759249735e+00 -5.450586504134004251e+00 2.534048975147470060e+02
2.207142919759196964e+00 -5.450586504134014021e+00 2.534074361713470012e+02
-1.025180312540765915e+00 -5.046546100134012391e+00 2.533864604140470078e+02
-6.211399085406859033e-01 -5.046546100134014168e+00 2.533889990706470030e+02
-2.170995044406242580e-01 -5.046546100133996404e+00 2.533915377273470142e+02
1.869408995593616618e-01 -5.046546100133997292e+00 2.533940763840470254e+02
5.909813036593042357e-01 -5.046546100133986634e+00 2.533966150407470082e+02
9.950217076592997589e-01 -5.046546100133986634e+00 2.533991536973470033e+02
1.399062111659331364e+00 -5.046546100133999957e+00 2.534016923540470145e+02
1.803102515759356983e+00 -5.046546100134021273e+00 2.534042310107470257e+02
2.207142919759260025e+00 -5.046546100134034596e+00 2.534067696673470209e+02
-1.025180312540848293e+00 -4.642505696133987669e+00 2.533857939100470276e+02
-6.211399085408656484e-01 -4.642505696134000992e+00 2.533883325666470228e+02
-2.170995044407937336e-01 -4.642505696133969018e+00 2.533908712233470055e+02
1.869408995592605482e-01 -4.642505696133972570e+00 2.533934098800470167e+02
5.909813036592811430e-01 -4.642505696133989446e+00 2.533959485366470119e+02
9.950217076594478627e-01 -4.642505696133991222e+00 2.533984871933470231e+02
1.399062111659517438e+00 -4.642505696134008097e+00 2.534010258500470059e+02
1.803102515759440028e+00 -4.642505696134028526e+00 2.534035645066470011e+02
-6.211399085409170517e-01 -4.238465292033979814e+00 2.533876660626470141e+02
-2.170995044410233277e-01 -4.238465292034018006e+00 2.533902047193470253e+02
1.869408995591864409e-01 -4.238465292034026888e+00 2.533927433759470205e+02
5.909813036593479785e-01 -4.238465292034048204e+00 2.533952820326470032e+02
9.950217076595038179e-01 -4.238465292034057086e+00 2.533978206893470144e+02
1.399062111659467256e+00 -4.238465292034043763e+00 2.534003593459470096e+02
1.803102515759407831e+00 -4.238465292034057974e+00 2.534028980026470208e+02
-6.211399085410020948e-01 -3.834424888033971968e+00 2.533869995586470054e+02
-2.170995044410921337e-01 -3.834424888033964862e+00 2.533895382152470006e+02
1.869408995589199596e-01 -3.834424888033968859e+00 2.533920768719470118e+02
5.909813036591177182e-01 -3.834424888033975964e+00 2.533946155286470230e+02
9.950217076592852150e-01 -3.834424888033983958e+00 2.533971541852470182e+02
1.399062111659262087e+00 -3.834424888033988399e+00 2.533996928419470009e+02
1.803102515759279267e+00 -3.834424888033990175e+00 2.534022314986470121e+02
-6.211399085411789533e-01 -3.430384483933984985e+00 2.533863330546470252e+02
-2.170995044412803721e-01 -3.430384483933980988e+00 2.533888717112470204e+02
1.869408995587852618e-01 -3.430384483933982764e+00 2.533914103679470031e+02
5.909813036588885682e-01 -3.430384483933984541e+00 2.533939490246470143e+02
9.950217076590199827e-01 -3.430384483933982320e+00 2.533964876812470095e+02
1.399062111659008067e+00 -3.430384483933982764e+00 2.533990263379470207e+02
1.803102515759064772e+00 -3.430384483933985873e+00 2.534015649946470035e+02
-1.025180312540959759e+00 -3.026344079934019327e+00 2.533831278939470053e+02
-6.211399085410905796e-01 -3.026344079934001119e+00 2.533856665505470005e+02
-2.170995044410671260e-01 -3.026344079934001563e+00 2.533882052072470117e+02
1.869408995590287614e-01 -3.026344079934000231e+00 2.533907438639470229e+02
5.909813036590637614e-01 -3.026344079934000231e+00 2.533932825205470181e+02
9.950217076590852638e-01 -3.026344079934000231e+00 2.533958211772470008e+02
1.399062111658941676e+00 -3.026344079933998010e+00 2.533983598339470120e+02
1.803102515759037017e+00 -3.026344079934010001e+00 2.534008984905470072e+02
-1.025180312541021044e+00 -2.622303675934015921e+00 2.533824613898470091e+02
-6.211399085409333720e-01 -2.622303675934023914e+00 2.533850000465470202e+02
-2.170995044409329278e-01 -2.622303675934027911e+00 2.533875387032470030e+02
1.869408995590280675e-01 -2.622303675934038569e+00 2.533900773598470266e+02
5.909813036589927071e-01 -2.622303675934039013e+00 2.533926160165470094e+02
9.950217076588825371e-01 -2.622303675934039457e+00 2.533951546732470206e+02
1.399062111658933460e+00 -2.622303675934031908e+00 2.533976933298470158e+02
1.803102515758910007e+00 -2.622303675934030576e+00 2.534002319865470270e+02
-1.025180312540755923e+00 -2.218263271834015615e+00 2.533817948858470004e+02
-6.211399085407859344e-01 -2.218263271834020056e+00 2.533843335425470116e+02
-2.170995044409581298e-01 -2.218263271834034711e+00 2.533868721992470228e+02
1.869408995590777500e-01 -2.218263271834042705e+00 2.533894108558470180e+02
5.909813036588803525e-01 -2.218263271834038708e+00 2.533919495125470007e+02
9.950217076587929421e-01 -2.218263271834032047e+00 2.533944881692470119e+02
1.399062111658841090e+00 -2.218263271834021388e+00 2.533970268258470071e+02
1.803102515758842728e+00 -2.218263271834013395e+00 2.533995654825470183e+02
-1.429220716540979375e+00 -1.814222867834008435e+00 2.533785897251470089e+02
-1.025180312540934002e+00 -1.814222867834017094e+00 2.533811283818470201e+02
-6.211399085409597953e-01 -1.814222867834017983e+00 2.533836670385470029e+02
-2.170995044408982888e-01 -1.814222867834024200e+00 2.533862056951470265e+02
1.869408995589094957e-01 -1.814222867834025088e+00 2.533887443518470093e+02
5.909813036588748014e-01 -1.814222867834028197e+00 2.533912830085470205e+02
9.950217076588421250e-01 -1.814222867834031749e+00 2.533938216651470157e+02
1.399062111658942786e+00 -1.814222867834027975e+00 2.533963603218470269e+02
1.803102515758866042e+00 -1.814222867834013320e+00 2.533988989785470096e+02
-6.211399085409322618e-01 -1.410182463733964831e+00 2.533830005344470067e+02
-2.170995044409893548e-01 -1.410182463733957947e+00 2.533855391911470178e+02
1.869408995590783051e-01 -1.410182463733953950e+00 2.533880778478470006e+02
5.909813036589088853e-01 -1.410182463733950398e+00 2.533906165044470242e+02
9.950217076588410148e-01 -1.410182463733951064e+00 2.533931551611470070e+02
1.399062111658606611e+00 -1.410182463733955505e+00 2.533956938178470182e+02
1.803102515758571389e+00 -1.410182463733953284e+00 2.533982324744470134e+02
2.207142919758712019e+00 -1.410182463733955505e+00 2.534007711311470246e+02
-6.211399085408526588e-01 -1.006142059733962979e+00 2.533823340304470264e+02
-2.170995044408532415e-01 -1.006142059733957206e+00 2.533848726871470092e+02
1.869408995591092248e-01 -1.006142059733958094e+00 2.533874113438470204e+02
5.909813036590525481e-01 -1.006142059733955429e+00 2.533899500004470156e+02
9.950217076589161769e-01 -1.006142059733952321e+00 2.533924886571470267e+02
1.399062111658662344e+00 -1.006142059733948768e+00 2.533950273138470095e+02
1.803102515758396862e+00 -1.006142059733943661e+00 2.533975659704470047e+02
2.207142919758363853e+00 -1.006142059733946770e+00 2.534001046271470159e+02
-6.211399085409022858e-01 -6.021016557339589070e-01 2.533816675264470177e+02
-2.170995044408641494e-01 -6.021016557339647912e-01 2.533842061831470005e+02
1.869408995590982336e-01 -6.021016557339641251e-01 2.533867448397470241e+02
5.909813036590982893e-01 -6.021016557339645692e-01 2.533892834964470069e+02
9.950217076588981913e-01 -6.021016557339593511e-01 2.533918221531470181e+02
1.399062111658738283e+00 -6.021016557339551323e-01 2.533943608097470133e+02
1.803102515758625124e+00 -6.021016557339509134e-01 2.533968994664470245e+02
-1.025180312541237759e+00 -1.980612516339615437e-01 2.533784623657470263e+02
-6.211399085410262977e-01 -1.980612516339639861e-01 2.533810010224470091e+02
-2.170995044409015362e-01 -1.980612516339664841e-01 2.533835396790470043e+02
1.869408995590984834e-01 -1.980612516339660123e-01 2.533860783357470154e+02
5.909813036591027302e-01 -1.980612516339642082e-01 2.533886169924470266e+02
9.950217076589500387e-01 -1.980612516339599893e-01 2.533911556490470218e+02
1.399062111658733620e+00 -1.980612516339555484e-01 2.533936943057470046e+02
1.803102515758776336e+00 -1.980612516339586571e-01 2.533962329624470158e+02
2.207142919758881661e+00 -1.980612516339586016e-01 2.533987716190470110e+02
-1.025180312541105643e+00 2.059791523660302881e-01 2.533777958617470176e+02
-6.211399085411244414e-01 2.059791523660332302e-01 2.533803345183470128e+02
-2.170995044410706232e-01 2.059791523660323698e-01 2.533828731750470240e+02
1.869408995590094713e-01 2.059791523660295665e-01 2.533854118317470068e+02
5.909813036590613189e-01 2.059791523660284840e-01 2.533879504883470020e+02
9.950217076590263110e-01 2.059791523660287615e-01 2.533904891450470132e+02
1.399062111659033381e+00 2.059791523660292611e-01 2.533930278017470243e+02
1.803102515759155366e+00 2.059791523660290113e-01 2.533955664584470071e+02
2.207142919759267574e+00 2.059791523660286228e-01 2.533981051150470023e+02
-1.025180312541094096e+00 6.100195564660335634e-01 2.533771293577470090e+02
-6.211399085411860588e-01 6.100195564660387815e-01 2.533796680143470041e+02
-2.170995044413554231e-01 6.100195564660424452e-01 2.533822066710470153e+02
1.869408995588609512e-01 6.100195564660370051e-01 2.533847453277470265e+02
5.909813036589929292e-01 6.100195564660316760e-01 2.533872839843470217e+02
9.950217076590260890e-01 6.100195564660306768e-01 2.533898226410470045e+02
1.399062111659150842e+00 6.100195564660267911e-01 2.533923612977470157e+02
1.803102515758956415e+00 6.100195564660279013e-01 2.533948999543470109e+02
2.207142919759096600e+00 6.100195564660257919e-01 2.533974386110470221e+02
-6.211399085413535914e-01 1.014059960466049626e+00 2.533790015103470239e+02
-2.170995044413721875e-01 1.014059960466046961e+00 2.533815401670470067e+02
1.869408995588185129e-01 1.014059960466039634e+00 2.533840788236470019e+02
5.909813036588750235e-01 1.014059960466038524e+00 2.533866174803470130e+02
9.950217076590794907e-01 1.014059960466035637e+00 2.533891561370470242e+02
1.399062111659168606e+00 1.014059960466036303e+00 2.533916947936470194e+02
1.803102515759171354e+00 1.014059960466034971e+00 2.533942334503470022e+02
-6.211399085409633480e-01 1.418100364466041485e+00 2.533783350063470152e+02
-2.170995044410427011e-01 1.418100364466037044e+00 2.533808736629470104e+02
1.869408995590490785e-01 1.418100364466033714e+00 2.533834123196470216e+02
5.909813036590232382e-01 1.418100364466033714e+00 2.533859509763470044e+02
9.950217076590046617e-01 1.418100364466031493e+00 2.533884896329470280e+02
1.399062111658952556e+00 1.418100364466039709e+00 2.533910282896470108e+02
1.803102515758888913e+00 1.418100364466041263e+00 2.533935669463470219e+02
-6.211399085410393983e-01 1.822140768566050451e+00 2.533776685023470066e+02
-2.170995044410243824e-01 1.822140768566042457e+00 2.533802071589470017e+02
1.869408995589305345e-01 1.822140768566046676e+00 2.533827458156470129e+02
5.909813036590939594e-01 1.822140768566052449e+00 2.533852844723470241e+02
9.950217076590469611e-01 1.822140768566056224e+00 2.533878231289470193e+02
1.399062111659034047e+00 1.822140768566066660e+00 2.533903617856470021e+02
1.803102515759103186e+00 1.822140768566056890e+00 2.533929004423470133e+02
-6.211399085406313914e-01 2.226181172566052524e+00 2.533770019982470103e+02
-2.170995044405649999e-01 2.226181172566044530e+00 2.533795406549470215e+02
1.869408995592022893e-01 2.226181172566051192e+00 2.533820793116470043e+02
5.909813036590254587e-01 2.226181172566056965e+00 2.533846179682470279e+02
9.950217076588665499e-01 2.226181172566052524e+00 2.533871566249470106e+02
1.399062111658766483e+00 2.226181172566066735e+00 2.533896952816470218e+02
1.803102515758879365e+00 2.226181172566066291e+00 2.533922339382470170e+02
-1.025180312540730831e+00 2.630221576666086580e+00 2.533737968375470189e+02
-6.211399085408361165e-01 2.630221576666084360e+00 2.533763354942470016e+02
-2.170995044408813024e-01 2.630221576666088801e+00 2.533788741509470128e+02
1.869408995590188527e-01 2.630221576666076366e+00 2.533814128075470080e+02
5.909813036589882662e-01 2.630221576666078587e+00 2.533839514642470192e+02
9.950217076590803789e-01 2.630221576666072369e+00 2.533864901209470020e+02
1.399062111658903707e+00 2.630221576666081251e+00 2.533890287775470256e+02
1.803102515759044122e+00 2.630221576666083472e+00 2.533915674342470084e+02
-1.025180312540603822e+00 3.034261980666060676e+00 2.533731303335470102e+02
-6.211399085405423515e-01 3.034261980666055347e+00 2.533756689902470214e+02
-2.170995044406995589e-01 3.034261980666053571e+00 2.533782076469470042e+02
1.869408995590096656e-01 3.034261980666052239e+00 2.533807463035470278e+02
5.909813036588033031e-01 3.034261980666049574e+00 2.533832849602470105e+02
9.950217076589465970e-01 3.034261980666049130e+00 2.533858236169470217e+02
1.399062111658874397e+00 3.034261980666043357e+00 2.533883622735470169e+02
1.803102515758979285e+00 3.034261980666052683e+00 2.533909009302470281e+02
2.207142919759098376e+00 3.034261980666053571e+00 2.533934395869470109e+02
-1.025180312541300598e+00 3.438302384666036993e+00 2.533724638295470015e+02
-6.211399085412209198e-01 3.438302384666037881e+00 2.533750024862470127e+02
-2.170995044410583552e-01 3.438302384666032552e+00 2.533775411428470079e+02
1.869408995591251010e-01 3.438302384666026779e+00 2.533800797995470191e+02
5.909813036591785584e-01 3.438302384666030331e+00 2.533826184562470019e+02
9.950217076591993948e-01 3.438302384666030775e+00 2.533851571128470255e+02
1.399062111659132412e+00 3.438302384666043654e+00 2.533876957695470082e+02
1.803102515758984392e+00 3.438302384666046319e+00 2.533902344262470194e+02
2.207142919758899868e+00 3.438302384666044986e+00 2.533927730828470146e+02
-1.025180312541079886e+00 3.842342788765962691e+00 2.533717973255470213e+02
-6.211399085409587961e-01 3.842342788765952477e+00 2.533743359821470165e+02
-2.170995044410603536e-01 3.842342788765937378e+00 2.533768746388470277e+02
1.869408995589744993e-01 3.842342788765939154e+00 2.533794132955470104e+02
5.909813036590468860e-01 3.842342788765941819e+00 2.533819519521470056e+02
9.950217076590570642e-01 3.842342788765932493e+00 2.533844906088470168e+02
1.399062111658889940e+00 3.842342788765935602e+00 2.533870292655470280e+02
1.803102515758890467e+00 3.842342788765911621e+00 2.533895679221470232e+02
2.207142919759074839e+00 3.842342788765915174e+00 2.533921065788470059e+02
-6.211399085411550836e-01 4.246383192765899928e+00 2.533736694781470078e+02
-2.170995044409875785e-01 4.246383192765915915e+00 2.533762081348470190e+02
1.869408995592511669e-01 4.246383192765920356e+00 2.533787467914470142e+02
5.909813036592783675e-01 4.246383192765927461e+00 2.533812854481470254e+02
9.950217076593461663e-01 4.246383192765931014e+00 2.533838241048470081e+02
1.399062111659151508e+00 4.246383192765924797e+00 2.533863627615470193e+02
1.803102515758929325e+00 4.246383192765899040e+00 2.533889014181470145e+02
-6.211399085411553056e-01 4.650423596865972620e+00 2.533730029741470275e+02
-2.170995044413300545e-01 4.650423596865982390e+00 2.533755416308470103e+02
1.869408995586799849e-01 4.650423596865954856e+00 2.533780802874470055e+02
5.909813036588008606e-01 4.650423596865939757e+00 2.533806189441470167e+02
9.950217076589706888e-01 4.650423596865953080e+00 2.533831576008470279e+02
1.399062111659044039e+00 4.650423596865925546e+00 2.533856962574470231e+02
1.803102515759309465e+00 4.650423596865921994e+00 2.533882349141470058e+02
-6.211399085412402377e-01 5.054464000865953821e+00 2.533723364701470189e+02
-2.170995044411621333e-01 5.054464000865923623e+00 2.533748751267470141e+02
1.869408995589858513e-01 5.054464000865922735e+00 2.533774137834470253e+02
5.909813036589764979e-01 5.054464000865919182e+00 2.533799524401470080e+02
9.950217076591242327e-01 5.054464000865921847e+00 2.533824910967470032e+02
1.399062111658998298e+00 5.054464000865914741e+00 2.533850297534470144e+02
1.803102515759068991e+00 5.054464000865910300e+00 2.533875684101470256e+02
-1.025180312541354777e+00 5.458504404865926141e+00 2.533691313094470274e+02
-6.211399085412859788e-01 5.458504404865919035e+00 2.533716699660470226e+02
-2.170995044412235842e-01 5.458504404865903936e+00 2.533742086227470054e+02
1.869408995588690003e-01 5.458504404865918147e+00 2.533767472794470166e+02
5.909813036589055546e-01 5.458504404865903936e+00 2.533792859360470118e+02
9.950217076589634724e-01 5.458504404865908377e+00 2.533818245927470230e+02
1.399062111659023167e+00 5.458504404865899495e+00 2.533843632494470057e+02
1.803102515759041458e+00 5.458504404865879955e+00 2.533869019061470169e+02
2.207142919759271571e+00 5.458504404865877291e+00 2.533894405627470121e+02
-1.025180312541297489e+00 5.862544808965891363e+00 2.533684648054470188e+02
-6.211399085413077392e-01 5.862544808965878040e+00 2.533710034620470140e+02
-2.170995044411774266e-01 5.862544808965890475e+00 2.533735421187470251e+02
1.869408995589453004e-01 5.862544808965881593e+00 2.533760807754470079e+02
5.909813036588974500e-01 5.862544808965868270e+00 2.533786194320470031e+02
9.950217076589340515e-01 5.862544808965853171e+00 2.533811580887470143e+02
1.399062111658967655e+00 5.862544808965846954e+00 2.533836967454470255e+02
1.803102515759066549e+00 5.862544808965842513e+00 2.533862354020470207e+02
2.207142919759236488e+00 5.862544808965850507e+00 2.533887740587470034e+02
-1.025180312541135619e+00 6.266585212965869012e+00 2.533677983013470225e+02
-6.211399085410875820e-01 6.266585212965880558e+00 2.533703369580470053e+02
-2.170995044410920505e-01 6.266585212965879670e+00 2.533728756147470165e+02
1.869408995589452449e-01 6.266585212965883223e+00 2.533754142713470117e+02
5.909813036589960378e-01 6.266585212965867235e+00 2.533779529280470229e+02
9.950217076590047727e-01 6.266585212965852136e+00 2.533804915847470056e+02
1.399062111658917251e+00 6.266585212965859242e+00 2.533830302413470008e+02
1.803102515758857161e+00 6.266585212965870788e+00 2.533855688980470120e+02
-1.025180312540939997e+00 6.670625617065880419e+00 2.533671317973470138e+02
-6.211399085409633480e-01 6.670625617065882196e+00 2.533696704540470250e+02
-2.170995044409501085e-01 6.670625617065867097e+00 2.533722091106470202e+02
1.869408995591421152e-01 6.670625617065884860e+00 2.533747477673470030e+02
5.909813036589451896e-01 6.670625617065883084e+00 2.533772864240470142e+02
9.950217076588714349e-01 6.670625617065869761e+00 2.533798250806470094e+02
1.399062111658675001e+00 6.670625617065863544e+00 2.533823637373470206e+02
1.803102515758648883e+00 6.670625617065865320e+00 2.533849023940470033e+02
-1.025180312540906691e+00 7.074666021065924681e+00 2.533664652933470052e+02
-6.211399085408686460e-01 7.074666021065920241e+00 2.533690039500470164e+02
-2.170995044408449148e-01 7.074666021065916688e+00 2.533715426066470116e+02
1.869408995591678724e-01 7.074666021065906030e+00 2.533740812633470227e+02
5.909813036589802726e-01 7.074666021065882937e+00 2.533766199200470055e+02
9.950217076588068199e-01 7.074666021065881161e+00 2.533791585766470007e+02
1.399062111658553320e+00 7.074666021065881161e+00 2.533816972333470119e+02
1.803102515758629121e+00 7.074666021065875832e+00 2.533842358900470231e+02
-6.211399085408030318e-01 7.478706425065944075e+00 2.533683374459470201e+02
-2.170995044407916519e-01 7.478706425065946739e+00 2.533708761026470029e+02
1.869408995591402556e-01 7.478706425065947627e+00 2.533734147593470141e+02
5.909813036590110258e-01 7.478706425065923646e+00 2.533759534159470093e+02
9.950217076587776210e-01 7.478706425065937857e+00 2.533784920726470204e+02
1.399062111658679886e+00 7.478706425065930752e+00 2.533810307293470032e+02
1.803102515758771007e+00 7.478706425065934305e+00 2.533835693859470268e+02
-1.025180312540972416e+00 7.882746829165970581e+00 2.533651322852470003e+02
-6.211399085408432219e-01 7.882746829165969693e+00 2.533676709419470114e+02
-2.170995044408424446e-01 7.882746829165961699e+00 2.533702095986470226e+02
1.869408995591135547e-01 7.882746829165955482e+00 2.533727482552470178e+02
5.909813036590090274e-01 7.882746829165943936e+00 2.533752869119470006e+02
9.950217076589479293e-01 7.882746829165945712e+00 2.533778255686470118e+02
1.399062111658954555e+00 7.882746829165951041e+00 2.533803642252470070e+02
1.803102515758852720e+00 7.882746829165958147e+00 2.533829028819470182e+02
-1.025180312540983296e+00 8.286787233165963329e+00 2.533644657812470200e+02
-6.211399085409604615e-01 8.286787233165968658e+00 2.533670044379470028e+02
-2.170995044408793873e-01 8.286787233165956224e+00 2.533695430945470264e+02
1.869408995590590983e-01 8.286787233165936684e+00 2.533720817512470092e+02
5.909813036590565449e-01 8.286787233165961553e+00 2.533746204079470203e+02
9.950217076590944787e-01 8.286787233165959776e+00 2.533771590646470031e+02
1.399062111659096441e+00 8.286787233165963329e+00 2.533796977212470267e+02
1.803102515759055446e+00 8.286787233165972211e+00 2.533822363779470095e+02
2.207142919759114363e+00 8.286787233165966882e+00 2.533847750346470207e+02
-1.025180312541188909e+00 8.690827637265952532e+00 2.533637992772470113e+02
-6.211399085410357346e-01 8.690827637265970296e+00 2.533663379339470225e+02
-2.170995044410001795e-01 8.690827637265989836e+00 2.533688765905470177e+02
1.869408995590309819e-01 8.690827637265982730e+00 2.533714152472470005e+02
5.909813036591609059e-01 8.690827637265975625e+00 2.533739539039470117e+02
9.950217076592592358e-01 8.690827637265977401e+00 2.533764925605470069e+02
1.399062111659133523e+00 8.690827637265968519e+00 2.533790312172470180e+02
1.803102515759154034e+00 8.690827637265972072e+00 2.533815698739470008e+02
2.207142919759168986e+00 8.690827637265961414e+00 2.533841085305470244e+02
-1.025180312541190464e+00 9.094868041265968372e+00 2.533631327732470027e+02
-6.211399085410191923e-01 9.094868041265966596e+00 2.533656714298470263e+02
-2.170995044409905206e-01 9.094868041265939951e+00 2.533682100865470090e+02
1.869408995591521627e-01 9.094868041265945280e+00 2.533707487432470202e+02
5.909813036592371782e-01 9.094868041265938174e+00 2.533732873998470154e+02
9.950217076592241527e-01 9.094868041265952385e+00 2.533758260565470266e+02
1.399062111659195917e+00 9.094868041265931069e+00 2.533783647132470094e+02
1.803102515759186231e+00 9.094868041265909753e+00 2.533809033698470046e+02
-1.025180312541035255e+00 9.498908445265962897e+00 2.533624662691470064e+02
-6.211399085410811427e-01 9.498908445265977107e+00 2.533650049258470176e+02
-2.170995044409544938e-01 9.498908445265955791e+00 2.533675435825470004e+02
1.869408995590327305e-01 9.498908445265966449e+00 2.533700822391470240e+02
5.909813036591050617e-01 9.498908445265970002e+00 2.533726208958470068e+02
9.950217076591483245e-01 9.498908445265959344e+00 2.533751595525470179e+02
1.399062111659119534e+00 9.498908445265966449e+00 2.533776982092470007e+02
1.803102515759088975e+00 9.498908445265941580e+00 2.533802368658470243e+02
2.207142919759225830e+00 9.498908445265954015e+00 2.533827755225470071e+02
-1.025180312541078331e+00 9.902948849365975192e+00 2.533617997651470262e+02
-6.211399085410097554e-01 9.902948849365968087e+00 2.533643384218470089e+02
-2.170995044411167252e-01 9.902948849365982298e+00 2.533668770785470201e+02
1.869408995589701417e-01 9.902948849365982298e+00 2.533694157351470153e+02
5.909813036590068069e-01 9.902948849365966311e+00 2.533719543918470265e+02
9.950217076590639476e-01 9.902948849365959205e+00 2.533744930485470093e+02
1.399062111659058028e+00 9.902948849365971640e+00 2.533770317051470045e+02
1.803102515759094082e+00 9.902948849365960982e+00 2.533795703618470156e+02
2.207142919759213839e+00 9.902948849365959205e+00 2.533821090185470268e+02
2.611183323859372685e+00 9.902948849365959205e+00 2.533846476751470220e+02
-6.211399085409990972e-01 1.030698925336597860e+01 2.533636719178470003e+02
-2.170995044409565478e-01 1.030698925336597505e+01 2.533662105744470239e+02
1.869408995590218781e-01 1.030698925336595728e+01 2.533687492311470066e+02
5.909813036590342294e-01 1.030698925336595018e+01 2.533712878878470178e+02
9.950217076590633924e-01 1.030698925336596439e+01 2.533738265444470130e+02
1.399062111659001628e+00 1.030698925336592708e+01 2.533763652011470242e+02
1.803102515759099855e+00 1.030698925336592886e+01 2.533789038578470070e+02
2.207142919759214728e+00 1.030698925336595018e+01 2.533814425144470022e+02
-6.211399085409599063e-01 1.071102965746596247e+01 2.533630054137470040e+02
-2.170995044409428365e-01 1.071102965746598024e+01 2.533655440704470152e+02
1.869408995590204903e-01 1.071102965746597135e+01 2.533680827271470264e+02
5.909813036590190194e-01 1.071102965746598557e+01 2.533706213837470216e+02
9.950217076591224563e-01 1.071102965746598201e+01 2.533731600404470043e+02
1.399062111659094665e+00 1.071102965746598024e+01 2.533756986971470155e+02
1.803102515758947755e+00 1.071102965746597313e+01 2.533782373537470107e+02
2.207142919759187194e+00 1.071102965746596780e+01 2.533807760104470219e+02
-6.211399085409857745e-01 1.111507006146598719e+01 2.533623389097470238e+02
-2.170995044409316233e-01 1.111507006146598364e+01 2.533648775664470065e+02
1.869408995590575995e-01 1.111507006146597654e+01 2.533674162231470177e+02
5.909813036589904867e-01 1.111507006146601206e+01 2.533699548797470129e+02
9.950217076590943677e-01 1.111507006146600496e+01 2.533724935364470241e+02
1.399062111659033603e+00 1.111507006146598187e+01 2.533750321931470069e+02
1.803102515758998603e+00 1.111507006146598187e+01 2.533775708497470021e+02
2.207142919759200517e+00 1.111507006146597476e+01 2.533801095064470132e+02
-1.025180312540972860e+00 1.151911046556597462e+01 2.533591337490470039e+02
-6.211399085409664567e-01 1.151911046556598173e+01 2.533616724057470151e+02
-2.170995044409685659e-01 1.151911046556597817e+01 2.533642110624470263e+02
1.869408995590315647e-01 1.151911046556597640e+01 2.533667497190470215e+02
5.909813036589814939e-01 1.151911046556598350e+01 2.533692883757470042e+02
9.950217076590733845e-01 1.151911046556598173e+01 2.533718270324470154e+02
1.399062111659043595e+00 1.151911046556599771e+01 2.533743656890470106e+02
1.803102515759010593e+00 1.151911046556597817e+01 2.533769043457470218e+02
2.207142919759059296e+00 1.151911046556596041e+01 2.533794430024470046e+02
-1.025180312541072114e+00 1.192315086956598158e+01 2.533584672450470237e+02
-6.211399085409766707e-01 1.192315086956596737e+01 2.533610059017470064e+02
-2.170995044410063135e-01 1.192315086956600290e+01 2.533635445583470016e+02
1.869408995591211875e-01 1.192315086956601888e+01 2.533660832150470128e+02
5.909813036591200497e-01 1.192315086956600645e+01 2.533686218717470240e+02
9.950217076590620602e-01 1.192315086956602244e+01 2.533711605283470192e+02
1.399062111659003849e+00 1.192315086956601888e+01 2.533736991850470019e+02
1.803102515759007041e+00 1.192315086956601355e+01 2.533762378417470131e+02
-1.025180312541022820e+00 1.232719127356597966e+01 2.533578007410470150e+02
-6.211399085409808896e-01 1.232719127356600808e+01 2.533603393976470102e+02
-2.170995044410455321e-01 1.232719127356602051e+01 2.533628780543470214e+02
1.869408995591072542e-01 1.232719127356601518e+01 2.533654167110470041e+02
5.909813036591173852e-01 1.232719127356603117e+01 2.533679553677470153e+02
9.950217076590491816e-01 1.232719127356603295e+01 2.533704940243470105e+02
1.399062111659087337e+00 1.232719127356602584e+01 2.533730326810470217e+02
1.803102515758991720e+00 1.232719127356602407e+01 2.533755713377470045e+02
-1.429220716541061753e+00 1.273123167766599551e+01 2.533545955803470235e+02
-1.025180312541086547e+00 1.273123167766600794e+01 2.533571342370470063e+02
-6.211399085409818888e-01 1.273123167766599551e+01 2.533596728936470015e+02
-2.170995044410333752e-01 1.273123167766601682e+01 2.533622115503470127e+02
1.869408995590279288e-01 1.273123167766601505e+01 2.533647502070470239e+02
5.909813036590507718e-01 1.273123167766601860e+01 2.533672888636470191e+02
9.950217076591005849e-01 1.273123167766601327e+01 2.533698275203470018e+02
1.399062111659013397e+00 1.273123167766601505e+01 2.533723661770470130e+02
1.803102515758969293e+00 1.273123167766601505e+01 2.533749048336470082e+02
2.207142919758959376e+00 1.273123167766599906e+01 2.533774434903470194e+02
-1.025180312541036587e+00 1.313527208166600246e+01 2.533564677329470101e+02
-6.211399085409941012e-01 1.313527208166600069e+01 2.533590063896470213e+02
-2.170995044410437835e-01 1.313527208166600424e+01 2.533615450463470040e+02
1.869408995590279288e-01 1.313527208166601490e+01 2.533640837029470276e+02
5.909813036590401136e-01 1.313527208166600957e+01 2.533666223596470104e+02
9.950217076590893717e-01 1.313527208166600957e+01 2.533691610163470216e+02
1.399062111659050478e+00 1.313527208166602023e+01 2.533716996729470168e+02
1.803102515758994828e+00 1.313527208166599536e+01 2.533742383296470280e+02
2.207142919758959820e+00 1.313527208166599358e+01 2.533767769863470107e+02
1.869408995590288725e-01 1.353931248576600410e+01 2.533634171989470190e+02
5.909813036590167989e-01 1.353931248576600943e+01 2.533659558556470017e+02
9.950217076590517351e-01 1.353931248576600943e+01 2.533684945123470129e+02
1.399062111659049590e+00 1.353931248576603075e+01 2.533710331689470081e+02
1.803102515759066993e+00 1.353931248576599877e+01 2.533735718256470193e+02
2.611183323859048500e+00 1.353931248576599344e+01 2.533786491389470257e+02
