-1.032719963761417281e+00 -1.231729389765094140e+01 2.545984321675705360e+02
9.874820564389092947e-01 -1.231729389765096627e+01 2.546111254508705599e+02
1.391522460438958886e+00 -1.231729389765096983e+01 2.546136641075705427e+02
-1.032719963761379089e+00 -1.191325349365093444e+01 2.545977656635705557e+02
-6.286795597614066589e-01 -1.191325349365093800e+01 2.546003043201705509e+02
-2.246391556612667428e-01 -1.191325349365096642e+01 2.546028429768705621e+02
1.794012483386986379e-01 -1.191325349365096997e+01 2.546053816335705449e+02
5.834416524388905678e-01 -1.191325349365095576e+01 2.546079202901705401e+02
9.874820564388344657e-01 -1.191325349365095754e+01 2.546104589468705512e+02
1.391522460438909370e+00 -1.191325349365096642e+01 2.546129976035705624e+02
1.795562864538855052e+00 -1.191325349365095043e+01 2.546155362601705576e+02
2.199603268538946388e+00 -1.191325349365094866e+01 2.546180749168705404e+02
-1.032719963761342008e+00 -1.150921308965091683e+01 2.545970991595705470e+02
-6.286795597613913378e-01 -1.150921308965091683e+01 2.545996378161705422e+02
-2.246391556613910323e-01 -1.150921308965092038e+01 2.546021764728705534e+02
1.794012483387793788e-01 -1.150921308965093459e+01 2.546047151295705362e+02
5.834416524388897907e-01 -1.150921308965094880e+01 2.546072537861705598e+02
9.874820564388328004e-01 -1.150921308965094170e+01 2.546097924428705426e+02
1.391522460438814779e+00 -1.150921308965093637e+01 2.546123310995705538e+02
1.795562864538851944e+00 -1.150921308965092216e+01 2.546148697561705490e+02
-1.032719963761236537e+00 -1.110517268555094894e+01 2.545964326554705508e+02
-6.286795597612725439e-01 -1.110517268555090986e+01 2.545989713121705620e+02
-2.246391556612699070e-01 -1.110517268555093651e+01 2.546015099688705448e+02
1.794012483388144619e-01 -1.110517268555093473e+01 2.546040486254705399e+02
5.834416524388035263e-01 -1.110517268555093118e+01 2.546065872821705511e+02
9.874820564387978283e-01 -1.110517268555094184e+01 2.546091259388705623e+02
1.391522460438863629e+00 -1.110517268555093118e+01 2.546116645954705575e+02
1.795562864538793990e+00 -1.110517268555090453e+01 2.546142032521705403e+02
-1.032719963761196791e+00 -1.070113228155099527e+01 2.545957661514705421e+02
-6.286795597612671038e-01 -1.070113228155096330e+01 2.545983048081705533e+02
-2.246391556612722940e-01 -1.070113228155091356e+01 2.546008434647705485e+02
1.794012483388129631e-01 -1.070113228155091889e+01 2.546033821214705597e+02
5.834416524387707748e-01 -1.070113228155095264e+01 2.546059207781705425e+02
9.874820564388329114e-01 -1.070113228155094198e+01 2.546084594347705377e+02
1.391522460438779696e+00 -1.070113228155093665e+01 2.546109980914705488e+02
1.795562864538763126e+00 -1.070113228155094554e+01 2.546135367481705600e+02
-6.286795597611789521e-01 -1.029709187745099719e+01 2.545976383040705571e+02
-2.246391556612842844e-01 -1.029709187745096699e+01 2.546001769607705398e+02
1.794012483387304735e-01 -1.029709187745094034e+01 2.546027156174705510e+02
5.834416524387782133e-01 -1.029709187745095988e+01 2.546052542741705622e+02
9.874820564388352429e-01 -1.029709187745096521e+01 2.546077929307705574e+02
1.391522460438836095e+00 -1.029709187745097410e+01 2.546103315874705402e+02
1.795562864538729375e+00 -1.029709187745099719e+01 2.546128702441705514e+02
2.199603268538751433e+00 -1.029709187745099896e+01 2.546154089007705466e+02
-6.286795597611616326e-01 -9.893051473450997335e+00 2.545969718000705484e+02
-2.246391556612995222e-01 -9.893051473450990230e+00 2.545995104567705596e+02
1.794012483387182888e-01 -9.893051473450993782e+00 2.546020491134705424e+02
5.834416524387970870e-01 -9.893051473450974242e+00 2.546045877700705375e+02
9.874820564387206678e-01 -9.893051473451015099e+00 2.546071264267705487e+02
1.391522460438859188e+00 -9.893051473451027533e+00 2.546096650834705599e+02
1.795562864538765124e+00 -9.893051473451004441e+00 2.546122037400705551e+02
2.199603268538791401e+00 -9.893051473451022204e+00 2.546147423967705379e+02
-1.032719963761298709e+00 -9.489011069350997474e+00 2.545937666393705570e+02
-6.286795597611134490e-01 -9.489011069350985039e+00 2.545963052960705397e+02
-2.246391556612448714e-01 -9.489011069350972605e+00 2.545988439527705509e+02
1.794012483388060797e-01 -9.489011069350956618e+00 2.546013826093705461e+02
5.834416524388980063e-01 -9.489011069350961947e+00 2.546039212660705573e+02
9.874820564388366861e-01 -9.489011069350979710e+00 2.546064599227705401e+02
1.391522460438817665e+00 -9.489011069351004579e+00 2.546089985793705637e+02
1.795562864538848613e+00 -9.489011069350993921e+00 2.546115372360705464e+02
2.199603268538940615e+00 -9.489011069350970828e+00 2.546140758927705576e+02
-1.032719963761389526e+00 -9.084970665351004726e+00 2.545931001353705483e+02
-6.286795597612562236e-01 -9.084970665350967423e+00 2.545956387920705595e+02
-2.246391556611662121e-01 -9.084970665350914132e+00 2.545981774486705547e+02
1.794012483388117141e-01 -9.084970665350907026e+00 2.546007161053705374e+02
5.834416524388053027e-01 -9.084970665350949659e+00 2.546032547620705486e+02
9.874820564389247268e-01 -9.084970665350947883e+00 2.546057934187705598e+02
1.391522460438938236e+00 -9.084970665350978081e+00 2.546083320753705550e+02
1.795562864538994274e+00 -9.084970665350970975e+00 2.546108707320705378e+02
2.199603268539028988e+00 -9.084970665351008279e+00 2.546134093887705490e+02
-1.032719963761352666e+00 -8.680930261351022637e+00 2.545924336313705396e+02
-6.286795597615133513e-01 -8.680930261350999544e+00 2.545949722880705508e+02
-2.246391556614645013e-01 -8.680930261350994215e+00 2.545975109446705460e+02
1.794012483387836532e-01 -8.680930261351013755e+00 2.546000496013705572e+02
5.834416524389719472e-01 -8.680930261351029742e+00 2.546025882580705400e+02
9.874820564391652011e-01 -8.680930261351027966e+00 2.546051269146705636e+02
1.391522460439287956e+00 -8.680930261351059940e+00 2.546076655713705463e+02
1.795562864539221648e+00 -8.680930261351029742e+00 2.546102042280705575e+02
-1.032719963761502102e+00 -8.276889857251005012e+00 2.545917671273705309e+02
-6.286795597614444064e-01 -8.276889857251019222e+00 2.545943057839705546e+02
-2.246391556613153428e-01 -8.276889857251006788e+00 2.545968444406705373e+02
1.794012483388902346e-01 -8.276889857251020999e+00 2.545993830973705485e+02
5.834416524391756731e-01 -8.276889857251026328e+00 2.546019217539705437e+02
9.874820564392501332e-01 -8.276889857251031657e+00 2.546044604106705549e+02
1.391522460439246656e+00 -8.276889857251035210e+00 2.546069990673705377e+02
1.795562864539357317e+00 -8.276889857251013893e+00 2.546095377239705613e+02
-1.032719963761297599e+00 -7.872849453251077101e+00 2.545911006232705631e+02
-6.286795597612189201e-01 -7.872849453251055785e+00 2.545936392799705459e+02
-2.246391556611710971e-01 -7.872849453251038021e+00 2.545961779366705571e+02
1.794012483388687795e-01 -7.872849453251018481e+00 2.545987165932705523e+02
5.834416524389119951e-01 -7.872849453250994500e+00 2.546012552499705635e+02
9.874820564390792699e-01 -7.872849453251013152e+00 2.546037939066705462e+02
1.391522460439200914e+00 -7.872849453251035357e+00 2.546063325632705414e+02
1.795562864539104631e+00 -7.872849453251051344e+00 2.546088712199705526e+02
-1.032719963761045801e+00 -7.468809049151027502e+00 2.545904341192705544e+02
-6.286795597614165398e-01 -7.468809049151014179e+00 2.545929727759705372e+02
-2.246391556613696050e-01 -7.468809049151026613e+00 2.545955114326705484e+02
1.794012483386993040e-01 -7.468809049151015067e+00 2.545980500892705436e+02
5.834416524387542324e-01 -7.468809049150999968e+00 2.546005887459705548e+02
9.874820564388174793e-01 -7.468809049150999968e+00 2.546031274026705375e+02
1.391522460439025499e+00 -7.468809049151039048e+00 2.546056660592705612e+02
1.795562864539171688e+00 -7.468809049151023949e+00 2.546082047159705439e+02
-1.032719963761151938e+00 -7.064768645150986792e+00 2.545897676152705458e+02
-6.286795597612730990e-01 -7.064768645150973470e+00 2.545923062719705570e+02
-2.246391556613576146e-01 -7.064768645150972581e+00 2.545948449285705522e+02
1.794012483385913348e-01 -7.064768645150958370e+00 2.545973835852705633e+02
5.834416524386494274e-01 -7.064768645150974358e+00 2.545999222419705461e+02
9.874820564387287725e-01 -7.064768645150959259e+00 2.546024608985705413e+02
1.391522460439090780e+00 -7.064768645150956594e+00 2.546049995552705525e+02
1.795562864539360204e+00 -7.064768645150975246e+00 2.546075382119705637e+02
2.199603268539223944e+00 -7.064768645150982351e+00 2.546100768685705589e+02
-6.286795597612208075e-01 -6.660728241150970064e+00 2.545916397678705607e+02
-2.246391556613607787e-01 -6.660728241150942530e+00 2.545941784245705435e+02
1.794012483386571433e-01 -6.660728241150946083e+00 2.545967170812705547e+02
5.834416524388676972e-01 -6.660728241150940754e+00 2.545992557378705499e+02
9.874820564389142907e-01 -6.660728241150948747e+00 2.546017943945705611e+02
1.391522460439127640e+00 -6.660728241150972728e+00 2.546043330512705438e+02
1.795562864539247405e+00 -6.660728241150975393e+00 2.546068717078705390e+02
2.199603268538965040e+00 -6.660728241150962958e+00 2.546094103645705502e+02
-6.286795597611355424e-01 -6.256687837050976420e+00 2.545909732638705520e+02
-2.246391556612433449e-01 -6.256687837050920464e+00 2.545935119205705632e+02
1.794012483388447710e-01 -6.256687837050888490e+00 2.545960505772705460e+02
5.834416524389179903e-01 -6.256687837050881384e+00 2.545985892338705412e+02
9.874820564388582245e-01 -6.256687837050885825e+00 2.546011278905705524e+02
1.391522460438992415e+00 -6.256687837050926682e+00 2.546036665472705636e+02
1.795562864539062664e+00 -6.256687837050956880e+00 2.546062052038705588e+02
-1.032719963761067339e+00 -5.852647433050989889e+00 2.545877681031705606e+02
-6.286795597611545272e-01 -5.852647433050961467e+00 2.545903067598705434e+02
-2.246391556611112561e-01 -5.852647433050938375e+00 2.545928454165705546e+02
1.794012483390539647e-01 -5.852647433050937487e+00 2.545953840731705498e+02
5.834416524391271563e-01 -5.852647433050930381e+00 2.545979227298705609e+02
9.874820564390561772e-01 -5.852647433050889525e+00 2.546004613865705437e+02
1.391522460438974207e+00 -5.852647433050917947e+00 2.546030000431705389e+02
1.795562864538940762e+00 -5.852647433050931269e+00 2.546055386998705501e+02
-1.032719963761148163e+00 -5.448607028951024667e+00 2.545871015991705519e+02
-6.286795597610478348e-01 -5.448607028951007791e+00 2.545896402558705631e+02
-2.246391556607698903e-01 -5.448607028951006015e+00 2.545921789124705583e+02
1.794012483391441426e-01 -5.448607028950992692e+00 2.545947175691705411e+02
5.834416524390142467e-01 -5.448607028950996245e+00 2.545972562258705523e+02
9.874820564390495159e-01 -5.448607028950997133e+00 2.545997948824705475e+02
1.391522460438895159e+00 -5.448607028951000686e+00 2.546023335391705587e+02
1.795562864538874592e+00 -5.448607028951006903e+00 2.546048721958705414e+02
2.199603268538795398e+00 -5.448607028951021114e+00 2.546074108524705366e+02
-1.032719963761148829e+00 -5.044566624951017708e+00 2.545864350951705433e+02
-6.286795597610288500e-01 -5.044566624951021261e+00 2.545889737517705385e+02
-2.246391556609363682e-01 -5.044566624950994616e+00 2.545915124084705496e+02
1.794012483390424739e-01 -5.044566624950996392e+00 2.545940510651705608e+02
5.834416524389564040e-01 -5.044566624950980405e+00 2.545965897218705436e+02
9.874820564389495958e-01 -5.044566624950980405e+00 2.545991283784705388e+02
1.391522460438997078e+00 -5.044566624950999945e+00 2.546016670351705500e+02
1.795562864539035353e+00 -5.044566624951031919e+00 2.546042056918705612e+02
2.199603268538889544e+00 -5.044566624951051459e+00 2.546067443484705564e+02
-1.032719963761272286e+00 -4.640526220950981440e+00 2.545857685911705630e+02
-6.286795597612984121e-01 -4.640526220951001868e+00 2.545883072477705582e+02
-2.246391556611905815e-01 -4.640526220950953018e+00 2.545908459044705410e+02
1.794012483388908175e-01 -4.640526220950958347e+00 2.545933845611705522e+02
5.834416524389217651e-01 -4.640526220950984104e+00 2.545959232177705474e+02
9.874820564391718625e-01 -4.640526220950986769e+00 2.545984618744705585e+02
1.391522460439276188e+00 -4.640526220951012526e+00 2.546010005311705413e+02
1.795562864539159920e+00 -4.640526220951042724e+00 2.546035391877705365e+02
-6.286795597613754616e-01 -4.236485816850970032e+00 2.545876407437705495e+02
-2.246391556615350005e-01 -4.236485816851025987e+00 2.545901794004705607e+02
1.794012483387796564e-01 -4.236485816851040198e+00 2.545927180570705559e+02
5.834416524390219072e-01 -4.236485816851072173e+00 2.545952567137705387e+02
9.874820564392557953e-01 -4.236485816851085495e+00 2.545977953704705499e+02
1.391522460439200914e+00 -4.236485816851065067e+00 2.546003340270705451e+02
1.795562864539111736e+00 -4.236485816851087272e+00 2.546028726837705563e+02
-6.286795597615031372e-01 -3.832445412850957744e+00 2.545869742397705409e+02
-2.246391556616381957e-01 -3.832445412850947086e+00 2.545895128963705076e+02
1.794012483383799483e-01 -3.832445412850952859e+00 2.545920515530705188e+02
5.834416524386765168e-01 -3.832445412850963962e+00 2.545945902097705584e+02
9.874820564389277244e-01 -3.832445412850975952e+00 2.545971288663705536e+02
1.391522460438893161e+00 -3.832445412850982613e+00 2.545996675230705364e+02
1.795562864538918779e+00 -3.832445412850985278e+00 2.546022061797705476e+02
-6.286795597617684805e-01 -3.428405008750977867e+00 2.545863077357705322e+02
-2.246391556619205532e-01 -3.428405008750971206e+00 2.545888463923705274e+02
1.794012483381778877e-01 -3.428405008750974314e+00 2.545913850490705101e+02
5.834416524383327918e-01 -3.428405008750976535e+00 2.545939237057705213e+02
9.874820564385299315e-01 -3.428405008750973426e+00 2.545964623623705165e+02
1.391522460438512354e+00 -3.428405008750973870e+00 2.545990010190705561e+02
1.795562864538597259e+00 -3.428405008750978311e+00 2.546015396757705389e+02
-1.032719963761439486e+00 -3.024364604751029084e+00 2.545831025750705408e+02
-6.286795597616358089e-01 -3.024364604751001551e+00 2.545856412316705075e+02
-2.246391556616006979e-01 -3.024364604751002439e+00 2.545881798883705187e+02
1.794012483385431234e-01 -3.024364604751000662e+00 2.545907185450705583e+02
5.834416524385956926e-01 -3.024364604751000218e+00 2.545932572016705535e+02
9.874820564386277422e-01 -3.024364604751000218e+00 2.545957958583705363e+02
1.391522460438412656e+00 -3.024364604750997110e+00 2.545983345150705190e+02
1.795562864538555292e+00 -3.024364604751014873e+00 2.546008731716705427e+02
-1.032719963761531412e+00 -2.620324200751023458e+00 2.545824360709705161e+02
-6.286795597613999975e-01 -2.620324200751035448e+00 2.545849747276705557e+02
-2.246391556613993867e-01 -2.620324200751042110e+00 2.545875133843705385e+02
1.794012483385420964e-01 -2.620324200751057653e+00 2.545900520409705621e+02
5.834416524384890002e-01 -2.620324200751058541e+00 2.545925906976705164e+02
9.874820564383237631e-01 -2.620324200751058985e+00 2.545951293543705276e+02
1.391522460438400222e+00 -2.620324200751047883e+00 2.545976680109705228e+02
1.795562864538365000e+00 -2.620324200751046106e+00 2.546002066676705340e+02
-1.032719963761133952e+00 -2.216283796651023597e+00 2.545817695669705358e+02
-6.286795597611789521e-01 -2.216283796651029814e+00 2.545843082236705470e+02
-2.246391556614371898e-01 -2.216283796651052018e+00 2.545868468803705582e+02
1.794012483386166201e-01 -2.216283796651064009e+00 2.545893855369705534e+02
5.834416524383204683e-01 -2.216283796651058235e+00 2.545919241936705077e+02
9.874820564381893151e-01 -2.216283796651048021e+00 2.545944628503705189e+02
1.391522460438261444e+00 -2.216283796651032034e+00 2.545970015069705141e+02
1.795562864538263970e+00 -2.216283796651020044e+00 2.545995401636705253e+02
-1.032719963761401072e+00 -1.812243392651025742e+00 2.545811030629705556e+02
-6.286795597614397435e-01 -1.812243392651027074e+00 2.545836417196705384e+02
-2.246391556613474283e-01 -1.812243392651036178e+00 2.545861803762705620e+02
1.794012483383642387e-01 -1.812243392651037510e+00 2.545887190329705163e+02
5.834416524383121416e-01 -1.812243392651042173e+00 2.545912576896705275e+02
9.874820564382631449e-01 -1.812243392651047724e+00 2.545937963462705227e+02
1.391522460438413988e+00 -1.812243392651041951e+00 2.545963350029705339e+02
1.795562864538299053e+00 -1.812243392651019969e+00 2.545988736596705166e+02
-6.286795597613984432e-01 -1.408202988550947277e+00 2.545829752155705421e+02
-2.246391556614840412e-01 -1.408202988550936841e+00 2.545855138722705533e+02
1.794012483386174528e-01 -1.408202988550931067e+00 2.545880525289705361e+02
5.834416524383633229e-01 -1.408202988550925516e+00 2.545905911855705313e+02
9.874820564382614796e-01 -1.408202988550926404e+00 2.545931298422705140e+02
1.391522460437909947e+00 -1.408202988550933288e+00 2.545956684989705252e+02
1.795562864537857184e+00 -1.408202988550929957e+00 2.545982071555705204e+02
2.199603268538067979e+00 -1.408202988550933066e+00 2.546007458122705316e+02
-6.286795597612789832e-01 -1.004162584550944537e+00 2.545823087115705619e+02
-2.246391556612798435e-01 -1.004162584550935877e+00 2.545848473682705446e+02
1.794012483386638324e-01 -1.004162584550937209e+00 2.545873860249705558e+02
5.834416524385789282e-01 -1.004162584550933213e+00 2.545899246815705510e+02
9.874820564383741672e-01 -1.004162584550928550e+00 2.545924633382705338e+02
1.391522460437993658e+00 -1.004162584550922999e+00 2.545950019949705165e+02
1.795562864537595171e+00 -1.004162584550915227e+00 2.545975406515705117e+02
2.199603268537545731e+00 -1.004162584550920112e+00 2.546000793082705229e+02
-6.286795597613533682e-01 -6.001221805509383556e-01 2.545816422075705532e+02
-2.246391556612961915e-01 -6.001221805509471263e-01 2.545841808642705359e+02
1.794012483386473455e-01 -6.001221805509461271e-01 2.545867195208705596e+02
5.834416524386474290e-01 -6.001221805509469043e-01 2.545892581775705423e+02
9.874820564383472998e-01 -6.001221805509390217e-01 2.545917968342705251e+02
1.391522460438107345e+00 -6.001221805509328044e-01 2.545943354908705203e+02
1.795562864537937564e+00 -6.001221805509263652e-01 2.545968741475705315e+02
-1.032719963761856707e+00 -1.960817764509423244e-01 2.545784370468705333e+02
-6.286795597615393305e-01 -1.960817764509459882e-01 2.545809757035705161e+02
-2.246391556613523133e-01 -1.960817764509497074e-01 2.545835143601705397e+02
1.794012483386477064e-01 -1.960817764509490135e-01 2.545860530168705509e+02
5.834416524386540903e-01 -1.960817764509463212e-01 2.545885916735705621e+02
9.874820564384250154e-01 -1.960817764509399930e-01 2.545911303301705289e+02
1.391522460438100461e+00 -1.960817764509333039e-01 2.545936689868705116e+02
1.795562864538164272e+00 -1.960817764509379946e-01 2.545962076435705228e+02
-1.032719963761658200e+00 2.079586275490454272e-01 2.545777705428705247e+02
-6.286795597616866571e-01 2.079586275490498404e-01 2.545803091994705198e+02
-2.246391556616059437e-01 2.079586275490485636e-01 2.545828478561705310e+02
1.794012483385142021e-01 2.079586275490443448e-01 2.545853865128705138e+02
5.834416524385919178e-01 2.079586275490427072e-01 2.545879251694705374e+02
9.874820564385394794e-01 2.079586275490431513e-01 2.545904638261705486e+02
1.391522460438549880e+00 2.079586275490438729e-01 2.545930024828705314e+02
1.795562864538732928e+00 2.079586275490435121e-01 2.545955411395705426e+02
2.199603268538901535e+00 2.079586275490429292e-01 2.545980797961705377e+02
-1.032719963761641324e+00 6.119990316490502291e-01 2.545771040388705160e+02
-6.286795597617790277e-01 6.119990316490582227e-01 2.545796426954705112e+02
-2.246391556620331020e-01 6.119990316490635518e-01 2.545821813521705224e+02
1.794012483382914080e-01 6.119990316490554472e-01 2.545847200088705335e+02
5.834416524384893332e-01 6.119990316490474536e-01 2.545872586654705287e+02
9.874820564385391464e-01 6.119990316490460103e-01 2.545897973221705115e+02
1.391522460438726405e+00 6.119990316490401261e-01 2.545923359788705511e+02
1.795562864538434500e+00 6.119990316490419024e-01 2.545948746354705463e+02
2.199603268538645295e+00 6.119990316490386828e-01 2.545974132921705575e+02
-6.286795597620304932e-01 1.016039435649074507e+00 2.545789761914705309e+02
-2.246391556620582763e-01 1.016039435649070510e+00 2.545815148481705137e+02
1.794012483382277645e-01 1.016039435649059630e+00 2.545840535047705089e+02
5.834416524383124747e-01 1.016039435649057854e+00 2.545865921614705201e+02
9.874820564386191935e-01 1.016039435649053413e+00 2.545891308181705597e+02
1.391522460438753050e+00 1.016039435649054301e+00 2.545916694747705549e+02
1.795562864538757131e+00 1.016039435649052303e+00 2.545942081314705376e+02
-6.286795597614450726e-01 1.420079839649062148e+00 2.545783096874705507e+02
-2.246391556615640328e-01 1.420079839649055709e+00 2.545808483440705174e+02
1.794012483385736267e-01 1.420079839649050601e+00 2.545833870007705571e+02
5.834416524385348524e-01 1.420079839649050824e+00 2.545859256574705114e+02
9.874820564385070609e-01 1.420079839649047271e+00 2.545884643140705634e+02
1.391522460438428643e+00 1.420079839649059483e+00 2.545910029707705178e+02
1.795562864538333470e+00 1.420079839649061926e+00 2.545935416274705290e+02
-6.286795597615590925e-01 1.824120243749075554e+00 2.545776431834705136e+02
-2.246391556615365825e-01 1.824120243749063563e+00 2.545801818400705088e+02
1.794012483383957968e-01 1.824120243749070225e+00 2.545827204967705200e+02
5.834416524386409897e-01 1.824120243749078663e+00 2.545852591534705596e+02
9.874820564385703436e-01 1.824120243749084214e+00 2.545877978100705548e+02
1.391522460438550990e+00 1.824120243749099979e+00 2.545903364667705091e+02
1.795562864538654990e+00 1.824120243749085324e+00 2.545928751234705487e+02
-6.286795597609470265e-01 2.228160647749079182e+00 2.545769766793705458e+02
-2.246391556608474671e-01 2.228160647749066747e+00 2.545795153360705569e+02
1.794012483388034151e-01 2.228160647749076517e+00 2.545820539927705397e+02
5.834416524385381830e-01 2.228160647749085843e+00 2.545845926493705633e+02
9.874820564382998933e-01 2.228160647749078294e+00 2.545871313060705177e+02
1.391522460438149755e+00 2.228160647749100054e+00 2.545896699627705289e+02
1.795562864538319037e+00 2.228160647749099166e+00 2.545922086193705240e+02
-1.032719963761096205e+00 2.632201051849129669e+00 2.545737715186705543e+02
-6.286795597612542252e-01 2.632201051849127005e+00 2.545763101753705371e+02
-2.246391556613219487e-01 2.632201051849133666e+00 2.545788488320705483e+02
1.794012483385282741e-01 2.632201051849115014e+00 2.545813874886705435e+02
5.834416524384823388e-01 2.632201051849118123e+00 2.545839261453705262e+02
9.874820564386205257e-01 2.632201051849108797e+00 2.545864648020705374e+02
1.391522460438355369e+00 2.632201051849121676e+00 2.545890034586705326e+02
1.795562864538566172e+00 2.632201051849125673e+00 2.545915421153705438e+02
-1.032719963760905468e+00 3.036241455849090887e+00 2.545731050146705456e+02
-6.286795597608134667e-01 3.036241455849083337e+00 2.545756436713705568e+02
-2.246391556610493612e-01 3.036241455849080673e+00 2.545781823280705396e+02
1.794012483385145074e-01 3.036241455849078452e+00 2.545807209846705632e+02
5.834416524382048941e-01 3.036241455849074011e+00 2.545832596413705176e+02
9.874820564384197974e-01 3.036241455849074011e+00 2.545857982980705287e+02
1.391522460438311626e+00 3.036241455849065130e+00 2.545883369546705239e+02
1.795562864538468917e+00 3.036241455849078896e+00 2.545908756113705351e+02
2.199603268538647960e+00 3.036241455849080229e+00 2.545934142680705463e+02
-1.032719963761950854e+00 3.440281859849055213e+00 2.545724385106705085e+02
-6.286795597618314302e-01 3.440281859849056545e+00 2.545749771673705197e+02
-2.246391556615875418e-01 3.440281859849048995e+00 2.545775158239705149e+02
1.794012483386876466e-01 3.440281859849040114e+00 2.545800544806705545e+02
5.834416524387678882e-01 3.440281859849045443e+00 2.545825931373705373e+02
9.874820564387990496e-01 3.440281859849046331e+00 2.545851317939705609e+02
1.391522460438698650e+00 3.440281859849065871e+00 2.545876704506705437e+02
1.795562864538476688e+00 3.440281859849069868e+00 2.545902091073705265e+02
2.199603268538349976e+00 3.440281859849067203e+00 2.545927477639705216e+02
-1.032719963761619564e+00 3.844322263948944052e+00 2.545717720066705283e+02
-6.286795597614381892e-01 3.844322263948928509e+00 2.545743106632705519e+02
-2.246391556615905116e-01 3.844322263948905860e+00 2.545768493199705347e+02
1.794012483384617440e-01 3.844322263948908969e+00 2.545793879766705459e+02
5.834416524385702685e-01 3.844322263948912521e+00 2.545819266332705411e+02
9.874820564385855537e-01 3.844322263948898755e+00 2.545844652899705522e+02
1.391522460438335163e+00 3.844322263948903640e+00 2.545870039466705350e+02
1.795562864538335690e+00 3.844322263948867668e+00 2.545895426032705302e+02
2.199603268538612433e+00 3.844322263948872553e+00 2.545920812599705414e+02
-6.286795597617326203e-01 4.248362667948850202e+00 2.545736441592705148e+02
-2.246391556614813489e-01 4.248362667948874183e+00 2.545761828159705544e+02
1.794012483388767454e-01 4.248362667948880400e+00 2.545787214725705496e+02
5.834416524389176573e-01 4.248362667948890170e+00 2.545812601292705608e+02
9.874820564390192068e-01 4.248362667948896387e+00 2.545837987859705436e+02
1.391522460438727515e+00 4.248362667948887506e+00 2.545863374426705548e+02
1.795562864538394088e+00 4.248362667948848426e+00 2.545888760992705215e+02
-6.286795597617329534e-01 4.652403072048958421e+00 2.545729776552705346e+02
-2.246391556619950769e-01 4.652403072048973520e+00 2.545755163119705173e+02
1.794012483380199585e-01 4.652403072048931776e+00 2.545780549685705125e+02
5.834416524382012303e-01 4.652403072048908683e+00 2.545805936252705237e+02
9.874820564384559907e-01 4.652403072048929111e+00 2.545831322819705633e+02
1.391522460438565867e+00 4.652403072048888255e+00 2.545856709385705585e+02
1.795562864538964076e+00 4.652403072048882926e+00 2.545882095952705413e+02
-6.286795597618604070e-01 5.056443476048930741e+00 2.545723111512705259e+02
-2.246391556617431950e-01 5.056443476048885444e+00 2.545748498078705211e+02
1.794012483384787582e-01 5.056443476048883667e+00 2.545773884645705607e+02
5.834416524384646863e-01 5.056443476048879226e+00 2.545799271212705435e+02
9.874820564386862509e-01 5.056443476048881891e+00 2.545824657778705387e+02
1.391522460438497477e+00 5.056443476048873009e+00 2.545850044345705214e+02
1.795562864538603254e+00 5.056443476048865016e+00 2.545875430912705610e+02
-1.032719963762032123e+00 5.460483880048888850e+00 2.545691059905705345e+02
-6.286795597619289078e-01 5.460483880048878191e+00 2.545716446471705297e+02
-2.246391556618353436e-01 5.460483880048855987e+00 2.545741833038705124e+02
1.794012483383034817e-01 5.460483880048877303e+00 2.545767219605705236e+02
5.834416524383583269e-01 5.460483880048855099e+00 2.545792606171705188e+02
9.874820564384452215e-01 5.460483880048863092e+00 2.545817992738705584e+02
1.391522460438534781e+00 5.460483880048849770e+00 2.545843379305705412e+02
1.795562864538562176e+00 5.460483880048820460e+00 2.545868765872705524e+02
2.199603268538907308e+00 5.460483880048816019e+00 2.545894152438705476e+02
-1.032719963761946191e+00 5.864524284148837197e+00 2.545684394865705258e+02
-6.286795597619615483e-01 5.864524284148816768e+00 2.545709781431705210e+02
-2.246391556617661489e-01 5.864524284148835420e+00 2.545735167998705322e+02
1.794012483384179457e-01 5.864524284148822986e+00 2.545760554565705149e+02
5.834416524383461145e-01 5.864524284148801669e+00 2.545785941131705101e+02
9.874820564384010346e-01 5.864524284148780353e+00 2.545811327698705213e+02
1.391522460438451514e+00 5.864524284148769695e+00 2.545836714265705609e+02
1.795562864538599923e+00 5.864524284148764366e+00 2.545862100831705561e+02
2.199603268538854906e+00 5.864524284148775912e+00 2.545887487398705389e+02
-1.032719963761703275e+00 6.268564688148802411e+00 2.545677729824705295e+02
-6.286795597616313680e-01 6.268564688148821062e+00 2.545703116391705123e+02
-2.246391556616380569e-01 6.268564688148819286e+00 2.545728502958705235e+02
1.794012483384178347e-01 6.268564688148824615e+00 2.545753889524705187e+02
5.834416524384941072e-01 6.268564688148801523e+00 2.545779276091705583e+02
9.874820564385071719e-01 6.268564688148778430e+00 2.545804662658705411e+02
1.391522460438375797e+00 6.268564688148788200e+00 2.545830049224705078e+02
1.795562864538285730e+00 6.268564688148805963e+00 2.545855435791705190e+02
-1.032719963761409732e+00 6.672605092248820924e+00 2.545671064784705493e+02
-6.286795597614449616e-01 6.672605092248822700e+00 2.545696451351705605e+02
-2.246391556614251439e-01 6.672605092248800496e+00 2.545721837917705557e+02
1.794012483387131540e-01 6.672605092248828029e+00 2.545747224484705384e+02
5.834416524384177238e-01 6.672605092248824477e+00 2.545772611051705212e+02
9.874820564383072208e-01 6.672605092248804937e+00 2.545797997617705164e+02
1.391522460438012532e+00 6.672605092248795167e+00 2.545823384184705276e+02
1.795562864537973313e+00 6.672605092248797831e+00 2.545848770751705104e+02
-1.032719963761359994e+00 7.076645496248886502e+00 2.545664399744705406e+02
-6.286795597613029640e-01 7.076645496248881173e+00 2.545689786311705518e+02
-2.246391556612673535e-01 7.076645496248874956e+00 2.545715172877705470e+02
1.794012483387517898e-01 7.076645496248858969e+00 2.545740559444705582e+02
5.834416524384704594e-01 7.076645496248823441e+00 2.545765946011705410e+02
9.874820564382101873e-01 7.076645496248821665e+00 2.545791332577705077e+02
1.391522460437830011e+00 7.076645496248821665e+00 2.545816719144705189e+02
1.795562864537943781e+00 7.076645496248813672e+00 2.545842105711705301e+02
-6.286795597612044872e-01 7.480685900248915665e+00 2.545683121270705556e+02
-2.246391556611874729e-01 7.480685900248920106e+00 2.545708507837705383e+02
1.794012483387103785e-01 7.480685900248920994e+00 2.545733894404705495e+02
5.834416524385166447e-01 7.480685900248885467e+00 2.545759280970705447e+02
9.874820564381664445e-01 7.480685900248906783e+00 2.545784667537705275e+02
1.391522460438019637e+00 7.480685900248896125e+00 2.545810054104705102e+02
1.795562864538156500e+00 7.480685900248901454e+00 2.545835440670705339e+02
-1.032719963761458581e+00 7.884726304348955495e+00 2.545651069663705357e+02
-6.286795597612647724e-01 7.884726304348954606e+00 2.545676456230705469e+02
-2.246391556612636620e-01 7.884726304348943060e+00 2.545701842797705581e+02
1.794012483386703549e-01 7.884726304348933290e+00 2.545727229363705533e+02
5.834416524385135361e-01 7.884726304348916415e+00 2.545752615930705360e+02
9.874820564384219068e-01 7.884726304348919079e+00 2.545778002497705188e+02
1.391522460438431752e+00 7.884726304348926185e+00 2.545803389063705140e+02
1.795562864538278847e+00 7.884726304348937731e+00 2.545828775630705252e+02
-1.032719963761475013e+00 8.288766708348944690e+00 2.545644404623705555e+02
-6.286795597614407427e-01 8.288766708348953571e+00 2.545669791190705382e+02
-2.246391556613190899e-01 8.288766708348934031e+00 2.545695177756705618e+02
1.794012483385886425e-01 8.288766708348903833e+00 2.545720564323705446e+02
5.834416524385848124e-01 8.288766708348941137e+00 2.545745950890705558e+02
9.874820564386417310e-01 8.288766708348939360e+00 2.545771337457705386e+02
1.391522460438644693e+00 8.288766708348944690e+00 2.545796724023705622e+02
1.795562864538583270e+00 8.288766708348958900e+00 2.545822110590705449e+02
2.199603268538671497e+00 8.288766708348950019e+00 2.545847497157705561e+02
-1.032719963761783211e+00 8.692807112448928564e+00 2.545637739583705184e+02
-6.286795597615536524e-01 8.692807112448955209e+00 2.545663126150705295e+02
-2.246391556615002505e-01 8.692807112448983631e+00 2.545688512716705532e+02
1.794012483385464818e-01 8.692807112448974749e+00 2.545713899283705359e+02
5.834416524387412428e-01 8.692807112448962314e+00 2.545739285850705471e+02
9.874820564388888666e-01 8.692807112448965867e+00 2.545764672416705423e+02
1.391522460438700426e+00 8.692807112448953433e+00 2.545790058983705535e+02
1.795562864538731151e+00 8.692807112448956985e+00 2.545815445550705363e+02
2.199603268538753209e+00 8.692807112448942775e+00 2.545840832116705599e+02
-1.032719963761785653e+00 9.096847516448951509e+00 2.545631074543705097e+02
-6.286795597615286724e-01 9.096847516448949733e+00 2.545656461109705333e+02
-2.246391556614857898e-01 9.096847516448908877e+00 2.545681847676705445e+02
1.794012483387282531e-01 9.096847516448917759e+00 2.545707234243705557e+02
5.834416524388558178e-01 9.096847516448907101e+00 2.545732620809705509e+02
9.874820564388362421e-01 9.096847516448928417e+00 2.545758007376705621e+02
1.391522460438793685e+00 9.096847516448894666e+00 2.545783393943705448e+02
1.795562864538779335e+00 9.096847516448864468e+00 2.545808780509705400e+02
-1.032719963761552728e+00 9.500887920448946034e+00 2.545624409502705134e+02
-6.286795597616215980e-01 9.500887920448965573e+00 2.545649796069705246e+02
-2.246391556614317497e-01 9.500887920448933599e+00 2.545675182636705358e+02
1.794012483385490908e-01 9.500887920448949586e+00 2.545700569202705594e+02
5.834416524386576430e-01 9.500887920448954915e+00 2.545725955769705422e+02
9.874820564387224442e-01 9.500887920448938928e+00 2.545751342336705534e+02
1.391522460438679332e+00 9.500887920448947810e+00 2.545776728903705362e+02
1.795562864538633452e+00 9.500887920448912283e+00 2.545802115469705598e+02
2.199603268538838918e+00 9.500887920448931823e+00 2.545827502036705425e+02
-1.032719963761617565e+00 9.904928324548961882e+00 2.545617744462705332e+02
-6.286795597615145725e-01 9.904928324548953000e+00 2.545643131029705160e+02
-2.246391556616750829e-01 9.904928324548974317e+00 2.545668517596705271e+02
1.794012483384552215e-01 9.904928324548974317e+00 2.545693904162705223e+02
5.834416524385102054e-01 9.904928324548949448e+00 2.545719290729705335e+02
9.874820564385959898e-01 9.904928324548937013e+00 2.545744677296705447e+02
1.391522460438587183e+00 9.904928324548956553e+00 2.545770063862705399e+02
1.795562864538641223e+00 9.904928324548942342e+00 2.545795450429705511e+02
2.199603268538820711e+00 9.904928324548938789e+00 2.545820836996705623e+02
-6.286795597614986963e-01 1.030896872854896884e+01 2.545636465989705357e+02
-2.246391556614348028e-01 1.030896872854896351e+01 2.545661852555705593e+02
1.794012483385328260e-01 1.030896872854893509e+01 2.545687239122705421e+02
5.834416524385513947e-01 1.030896872854892621e+01 2.545712625689705533e+02
9.874820564385949906e-01 1.030896872854894575e+01 2.545738012255705485e+02
1.391522460438502584e+00 1.030896872854888890e+01 2.545763398822705312e+02
1.795562864538649883e+00 1.030896872854889423e+01 2.545788785389705424e+02
2.199603268538822043e+00 1.030896872854892621e+01 2.545814171955705376e+02
-6.286795597614399655e-01 1.071300913264894383e+01 2.545629800948705395e+02
-2.246391556614142360e-01 1.071300913264896870e+01 2.545655187515705506e+02
1.794012483385307166e-01 1.071300913264895804e+01 2.545680574082705618e+02
5.834416524385285241e-01 1.071300913264897936e+01 2.545705960648705570e+02
9.874820564386836974e-01 1.071300913264897403e+01 2.545731347215705398e+02
1.391522460438642028e+00 1.071300913264897048e+01 2.545756733782705510e+02
1.795562864538421621e+00 1.071300913264895982e+01 2.545782120348705178e+02
2.199603268538780299e+00 1.071300913264895271e+01 2.545807506915705574e+02
-6.286795597614787123e-01 1.111704953664898099e+01 2.545623135908705592e+02
-2.246391556613974161e-01 1.111704953664897744e+01 2.545648522475705420e+02
1.794012483385863943e-01 1.111704953664896500e+01 2.545673909042705532e+02
5.834416524384856695e-01 1.111704953664901829e+01 2.545699295608705484e+02
9.874820564386415089e-01 1.111704953664900586e+01 2.545724682175705595e+02
1.391522460438550546e+00 1.111704953664897211e+01 2.545750068742705423e+02
1.795562864538498005e+00 1.111704953664897211e+01 2.545775455308705091e+02
2.199603268538800727e+00 1.111704953664896323e+01 2.545800841875705487e+02
-1.032719963761459248e+00 1.152108994074896309e+01 2.545591084301705394e+02
-6.286795597614496245e-01 1.152108994074897375e+01 2.545616470868705505e+02
-2.246391556614528440e-01 1.152108994074896664e+01 2.545641857435705617e+02
1.794012483385473422e-01 1.152108994074896486e+01 2.545667244001705569e+02
5.834416524384723468e-01 1.152108994074897552e+01 2.545692630568705113e+02
9.874820564386099786e-01 1.152108994074897197e+01 2.545718017135705509e+02
1.391522460438565423e+00 1.152108994074899684e+01 2.545743403701705461e+02
1.795562864538515990e+00 1.152108994074896664e+01 2.545768790268705573e+02
2.199603268538588896e+00 1.152108994074894177e+01 2.545794176835705400e+02
-1.032719963761608017e+00 1.192513034474897182e+01 2.545584419261705307e+02
-6.286795597614649456e-01 1.192513034474895228e+01 2.545609805828705419e+02
-2.246391556615094376e-01 1.192513034474900557e+01 2.545635192394705086e+02
1.794012483386817902e-01 1.192513034474902867e+01 2.545660578961705482e+02
5.834416524386799585e-01 1.192513034474900913e+01 2.545685965528705594e+02
9.874820564385929922e-01 1.192513034474903399e+01 2.545711352094705546e+02
1.391522460438505915e+00 1.192513034474902867e+01 2.545736738661705090e+02
1.795562864538510439e+00 1.192513034474901978e+01 2.545762125228705486e+02
-1.032719963761534077e+00 1.232917074874897168e+01 2.545577754221705504e+02
-6.286795597614712738e-01 1.232917074874901431e+01 2.545603140787705456e+02
-2.246391556615683072e-01 1.232917074874903030e+01 2.545628527354705284e+02
1.794012483386608903e-01 1.232917074874902319e+01 2.545653913921705396e+02
5.834416524386760727e-01 1.232917074874904628e+01 2.545679300488705508e+02
9.874820564385737853e-01 1.232917074874904984e+01 2.545704687054705460e+02
1.391522460438630926e+00 1.232917074874904095e+01 2.545730073621705571e+02
1.795562864538487569e+00 1.232917074874903562e+01 2.545755460188705115e+02
-1.032719963761629556e+00 1.273321115284901239e+01 2.545571089181705133e+02
-6.286795597614728281e-01 1.273321115284899285e+01 2.545596475747705369e+02
-2.246391556615500440e-01 1.273321115284902483e+01 2.545621862314705197e+02
1.794012483385418744e-01 1.273321115284902127e+01 2.545647248881705309e+02
5.834416524385761527e-01 1.273321115284902660e+01 2.545672635447705545e+02
9.874820564386508348e-01 1.273321115284901950e+01 2.545698022014705373e+02
1.391522460438520348e+00 1.273321115284902305e+01 2.545723408581705485e+02
1.795562864538454040e+00 1.273321115284902305e+01 2.545748795147705437e+02
2.199603268538439238e+00 1.273321115284899818e+01 2.545774181714705264e+02
-6.286795597614911468e-01 1.313725155684899981e+01 2.545589810707705283e+02
-2.246391556615656981e-01 1.313725155684900692e+01 2.545615197274705110e+02
1.794012483385418744e-01 1.313725155684902113e+01 2.545640583840705631e+02
5.834416524385601655e-01 1.313725155684901225e+01 2.545665970407705458e+02
9.874820564386339594e-01 1.313725155684901402e+01 2.545691356974705570e+02
1.391522460438575859e+00 1.313725155684903001e+01 2.545716743540705522e+02
1.795562864538492232e+00 1.313725155684899093e+01 2.545742130107705634e+02
2.199603268538439682e+00 1.313725155684899093e+01 2.545767516674705178e+02
2.603643672638573214e+00 1.354129196094899079e+01 2.545786238200705611e+02
