1.816925209663279750e+00 -5.050175137969501904e+00 2.512042774286872771e+02
2.220965613663271832e+00 -5.050175137969502792e+00 2.512068160852872722e+02
2.625006017763270361e+00 -5.050175137969503680e+00 2.512093547419872550e+02
3.029046421763268881e+00 -5.050175137969503680e+00 2.512118933986872662e+02
3.433086825763268735e+00 -5.050175137969502792e+00 2.512144320552872614e+02
3.837127229863261935e+00 -5.050175137969500128e+00 2.512169707119872726e+02
4.241167633863263120e+00 -5.050175137969499239e+00 2.512195093686872553e+02
4.645208037963248771e+00 -5.050175137969498351e+00 2.512220480252872790e+02
-2.223478830736754119e+00 -4.646134733969497610e+00 2.511782243579872613e+02
-1.819438426736744052e+00 -4.646134733969499386e+00 2.511807630145872565e+02
-1.415398022636730868e+00 -4.646134733969502051e+00 2.511833016712872677e+02
-1.011357618636737454e+00 -4.646134733969499386e+00 2.511858403279872789e+02
-6.073172146367388224e-01 -4.646134733969500274e+00 2.511883789845872741e+02
-2.032768105367328271e-01 -4.646134733969497610e+00 2.511909176412872569e+02
2.007635934632717167e-01 -4.646134733969497610e+00 2.511934562979872680e+02
6.048039975632734100e-01 -4.646134733969499386e+00 2.511959949545872632e+02
1.008844401563287363e+00 -4.646134733969499386e+00 2.511985336112872744e+02
1.412884805563292989e+00 -4.646134733969501163e+00 2.512010722679872572e+02
1.816925209663286633e+00 -4.646134733969502051e+00 2.512036109245872524e+02
2.220965613663276272e+00 -4.646134733969502939e+00 2.512061495812872636e+02
2.625006017763275690e+00 -4.646134733969504715e+00 2.512086882379872748e+02
3.029046421763267105e+00 -4.646134733969504715e+00 2.512112268945872700e+02
3.433086825763264294e+00 -4.646134733969502939e+00 2.512137655512872527e+02
3.837127229863258382e+00 -4.646134733969500274e+00 2.512163042079872639e+02
4.241167633863248909e+00 -4.646134733969502051e+00 2.512188428645872591e+02
4.645208037963231007e+00 -4.646134733969500274e+00 2.512213815212872703e+02
-3.435600042836738588e+00 -4.242094329869498637e+00 2.511699418838872759e+02
-3.031559638836727189e+00 -4.242094329869498637e+00 2.511724805405872587e+02
-2.627519234836734885e+00 -4.242094329869497749e+00 2.511750191972872699e+02
-2.223478830736738132e+00 -4.242094329869498637e+00 2.511775578538872651e+02
-1.819438426736746939e+00 -4.242094329869498637e+00 2.511800965105872763e+02
-1.415398022636749076e+00 -4.242094329869497749e+00 2.511826351672872590e+02
-1.011357618636756772e+00 -4.242094329869499525e+00 2.511851738238872542e+02
-6.073172146367430413e-01 -4.242094329869498637e+00 2.511877124805872654e+02
-2.032768105367519507e-01 -4.242094329869501301e+00 2.511902511372872766e+02
2.007635934632655550e-01 -4.242094329869502189e+00 2.511927897938872718e+02
6.048039975632789611e-01 -4.242094329869503966e+00 2.511953284505872546e+02
1.008844401563292026e+00 -4.242094329869504854e+00 2.511978671072872658e+02
1.412884805563288992e+00 -4.242094329869503966e+00 2.512004057638872609e+02
1.816925209663283969e+00 -4.242094329869504854e+00 2.512029444205872721e+02
2.220965613663276716e+00 -4.242094329869502189e+00 2.512054830772872549e+02
2.625006017763280575e+00 -4.242094329869501301e+00 2.512080217338872785e+02
3.029046421763269326e+00 -4.242094329869498637e+00 2.512105603905872613e+02
3.433086825763259853e+00 -4.242094329869499525e+00 2.512130990472872725e+02
3.837127229863237066e+00 -4.242094329869497749e+00 2.512156377038872677e+02
4.241167633863232922e+00 -4.242094329869498637e+00 2.512181763605872789e+02
4.645208037963224790e+00 -4.242094329869497749e+00 2.512207150172872616e+02
-3.435600042836740364e+00 -3.838053925869498340e+00 2.511692753798872673e+02
-3.031559638836724968e+00 -3.838053925869498340e+00 2.511718140365872785e+02
-2.627519234836724227e+00 -3.838053925869498340e+00 2.511743526931872736e+02
-2.223478830736721257e+00 -3.838053925869497895e+00 2.511768913498872564e+02
-1.819438426736742054e+00 -3.838053925869497895e+00 2.511794300065872676e+02
-1.415398022636745079e+00 -3.838053925869497895e+00 2.511819686631872628e+02
-1.011357618636749223e+00 -3.838053925869497895e+00 2.511845073198872740e+02
-6.073172146367501467e-01 -3.838053925869497451e+00 2.511870459765872567e+02
-2.032768105367576961e-01 -3.838053925869497007e+00 2.511895846331872519e+02
2.007635934632433505e-01 -3.838053925869497451e+00 2.511921232898872631e+02
6.048039975632598653e-01 -3.838053925869497895e+00 2.511946619465872743e+02
1.008844401563273818e+00 -3.838053925869498784e+00 2.511972006031872695e+02
1.412884805563271895e+00 -3.838053925869499228e+00 2.511997392598872523e+02
1.816925209663273311e+00 -3.838053925869499228e+00 2.512022779165872635e+02
2.220965613663274940e+00 -3.838053925869499228e+00 2.512048165732872747e+02
2.625006017763272581e+00 -3.838053925869499672e+00 2.512073552298872698e+02
3.029046421763263552e+00 -3.838053925869499672e+00 2.512098938865872526e+02
3.433086825763245198e+00 -3.838053925869499228e+00 2.512124325432872638e+02
3.837127229863254385e+00 -3.838053925869499228e+00 2.512149711998872590e+02
4.241167633863250686e+00 -3.838053925869498340e+00 2.512175098565872702e+02
4.645208037963234560e+00 -3.838053925869498784e+00 2.512200485132872529e+02
-3.435600042836742141e+00 -3.434013521769498922e+00 2.511686088758872586e+02
-3.031559638836738735e+00 -3.434013521769498922e+00 2.511711475324872538e+02
-2.627519234836740658e+00 -3.434013521769497590e+00 2.511736861891872650e+02
-2.223478830736744349e+00 -3.434013521769498034e+00 2.511762248458872762e+02
-1.819438426736742498e+00 -3.434013521769498922e+00 2.511787635025872589e+02
-1.415398022636760400e+00 -3.434013521769498922e+00 2.511813021591872541e+02
-1.011357618636768763e+00 -3.434013521769498922e+00 2.511838408158872653e+02
-6.073172146367649127e-01 -3.434013521769498922e+00 2.511863794725872765e+02
-2.032768105367733780e-01 -3.434013521769498478e+00 2.511889181291872717e+02
2.007635934632321095e-01 -3.434013521769498478e+00 2.511914567858872545e+02
6.048039975632407694e-01 -3.434013521769498922e+00 2.511939954425872656e+02
1.008844401563251836e+00 -3.434013521769498478e+00 2.511965340991872608e+02
1.412884805563250579e+00 -3.434013521769498478e+00 2.511990727558872720e+02
1.816925209663255325e+00 -3.434013521769498922e+00 2.512016114125872548e+02
2.220965613663263394e+00 -3.434013521769500255e+00 2.512041500691872784e+02
2.625006017763277022e+00 -3.434013521769500255e+00 2.512066887258872612e+02
3.029046421763269770e+00 -3.434013521769500255e+00 2.512092273825872724e+02
3.433086825763274508e+00 -3.434013521769500699e+00 2.512117660391872676e+02
3.837127229863265931e+00 -3.434013521769499366e+00 2.512143046958872787e+02
4.241167633863262232e+00 -3.434013521769500699e+00 2.512168433525872615e+02
4.645208037963264758e+00 -3.434013521769500699e+00 2.512193820091872567e+02
-3.435600042836723933e+00 -3.029973117769498625e+00 2.511679423718872783e+02
-3.031559638836724968e+00 -3.029973117769499513e+00 2.511704810284872735e+02
-2.627519234836742879e+00 -3.029973117769499513e+00 2.511730196851872563e+02
-2.223478830736738576e+00 -3.029973117769498625e+00 2.511755583418872675e+02
-1.819438426736748937e+00 -3.029973117769499513e+00 2.511780969984872627e+02
-1.415398022636743747e+00 -3.029973117769501290e+00 2.511806356551872739e+02
-1.011357618636746780e+00 -3.029973117769501290e+00 2.511831743118872566e+02
-6.073172146367575852e-01 -3.029973117769499957e+00 2.511857129684872518e+02
-2.032768105367556144e-01 -3.029973117769499957e+00 2.511882516251872630e+02
2.007635934632523989e-01 -3.029973117769499957e+00 2.511907902818872742e+02
6.048039975632553134e-01 -3.029973117769499957e+00 2.511933289384872694e+02
1.008844401563257165e+00 -3.029973117769499957e+00 2.511958675951872522e+02
1.412884805563245028e+00 -3.029973117769499513e+00 2.511984062518872634e+02
1.816925209663253105e+00 -3.029973117769500845e+00 2.512009449084872585e+02
2.220965613663254956e+00 -3.029973117769501734e+00 2.512034835651872697e+02
2.625006017763268584e+00 -3.029973117769501290e+00 2.512060222218872525e+02
3.029046421763278651e+00 -3.029973117769500845e+00 2.512085608784872761e+02
3.433086825763279393e+00 -3.029973117769500845e+00 2.512110995351872589e+02
3.837127229863279698e+00 -3.029973117769501290e+00 2.512136381918872701e+02
4.241167633863273778e+00 -3.029973117769501734e+00 2.512161768484872653e+02
4.645208037963271863e+00 -3.029973117769501734e+00 2.512187155051872764e+02
-3.435600042836732815e+00 -2.625932713769498328e+00 2.511672758677872537e+02
-3.031559638836732962e+00 -2.625932713769498772e+00 2.511698145244872649e+02
-2.627519234836738438e+00 -2.625932713769499216e+00 2.511723531811872760e+02
-2.223478830736731471e+00 -2.625932713769500548e+00 2.511748918377872712e+02
-1.819438426736736059e+00 -2.625932713769500104e+00 2.511774304944872540e+02
-1.415398022636745079e+00 -2.625932713769500992e+00 2.511799691511872652e+02
-1.011357618636751887e+00 -2.625932713769501436e+00 2.511825078077872604e+02
-6.073172146367444846e-01 -2.625932713769501881e+00 2.511850464644872716e+02
-2.032768105367444289e-01 -2.625932713769502325e+00 2.511875851211872543e+02
2.007635934632523433e-01 -2.625932713769503213e+00 2.511901237777872780e+02
6.048039975632494292e-01 -2.625932713769503213e+00 2.511926624344872607e+02
1.008844401563240289e+00 -2.625932713769503213e+00 2.511952010911872719e+02
1.412884805563244361e+00 -2.625932713769502769e+00 2.511977397477872671e+02
1.816925209663242446e+00 -2.625932713769502325e+00 2.512002784044872783e+02
2.220965613663246963e+00 -2.625932713769501881e+00 2.512028170611872611e+02
2.625006017763244603e+00 -2.625932713769501881e+00 2.512053557178872722e+02
3.029046421763259556e+00 -2.625932713769500992e+00 2.512078943744872674e+02
3.433086825763270511e+00 -2.625932713769500548e+00 2.512104330311872786e+02
3.837127229863268152e+00 -2.625932713769500548e+00 2.512129716878872614e+02
4.241167633863271114e+00 -2.625932713769500104e+00 2.512155103444872566e+02
4.645208037963285186e+00 -2.625932713769499216e+00 2.512180490011872678e+02
-3.435600042836738144e+00 -2.221892309669498022e+00 2.511666093637872734e+02
-3.031559638836741399e+00 -2.221892309669498466e+00 2.511691480204872562e+02
-2.627519234836729556e+00 -2.221892309669498466e+00 2.511716866770872514e+02
-2.223478830736742129e+00 -2.221892309669498466e+00 2.511742253337872626e+02
-1.819438426736735170e+00 -2.221892309669498466e+00 2.511767639904872738e+02
-1.415398022636726205e+00 -2.221892309669499355e+00 2.511793026470872690e+02
-1.011357618636729683e+00 -2.221892309669501575e+00 2.511818413037872517e+02
-6.073172146367321611e-01 -2.221892309669501575e+00 2.511843799604872629e+02
-2.032768105367465106e-01 -2.221892309669502907e+00 2.511869186171872741e+02
2.007635934632564789e-01 -2.221892309669503796e+00 2.511894572737872693e+02
6.048039975632399923e-01 -2.221892309669503351e+00 2.511919959304872521e+02
1.008844401563232740e+00 -2.221892309669502907e+00 2.511945345871872632e+02
1.412884805563236590e+00 -2.221892309669502019e+00 2.511970732437872584e+02
1.816925209663236895e+00 -2.221892309669501131e+00 2.511996119004872696e+02
2.220965613663257621e+00 -2.221892309669501131e+00 2.512021505571872524e+02
2.625006017763257482e+00 -2.221892309669499799e+00 2.512046892137872760e+02
3.029046421763261776e+00 -2.221892309669499799e+00 2.512072278704872588e+02
3.433086825763258965e+00 -2.221892309669499355e+00 2.512097665271872700e+02
3.837127229863258826e+00 -2.221892309669499799e+00 2.512123051837872652e+02
4.241167633863271114e+00 -2.221892309669499355e+00 2.512148438404872763e+02
4.645208037963254988e+00 -2.221892309669498466e+00 2.512173824971872591e+02
-3.435600042836757684e+00 -1.817851905669498835e+00 2.511659428597872648e+02
-3.031559638836762716e+00 -1.817851905669498835e+00 2.511684815164872759e+02
-2.627519234836752648e+00 -1.817851905669499724e+00 2.511710201730872711e+02
-2.223478830736751899e+00 -1.817851905669499724e+00 2.511735588297872539e+02
-1.819438426736750047e+00 -1.817851905669500168e+00 2.511760974864872651e+02
-1.415398022636748188e+00 -1.817851905669500834e+00 2.511786361430872603e+02
-1.011357618636744560e+00 -1.817851905669501500e+00 2.511811747997872715e+02
-6.073172146367467050e-01 -1.817851905669501500e+00 2.511837134564872542e+02
-2.032768105367415423e-01 -1.817851905669501944e+00 2.511862521130872778e+02
2.007635934632424624e-01 -1.817851905669502166e+00 2.511887907697872606e+02
6.048039975632395482e-01 -1.817851905669502388e+00 2.511913294264872718e+02
1.008844401563236959e+00 -1.817851905669502610e+00 2.511938680830872670e+02
1.412884805563245250e+00 -1.817851905669502388e+00 2.511964067397872782e+02
1.816925209663238894e+00 -1.817851905669501056e+00 2.511989453964872610e+02
2.220965613663242966e+00 -1.817851905669501056e+00 2.512014840530872561e+02
2.625006017763254373e+00 -1.817851905669500612e+00 2.512040227097872673e+02
3.029046421763237795e+00 -1.817851905669500168e+00 2.512065613664872785e+02
3.433086825763253191e+00 -1.817851905669499502e+00 2.512091000230872737e+02
3.837127229863252165e+00 -1.817851905669499724e+00 2.512116386797872565e+02
4.241167633863255126e+00 -1.817851905669499502e+00 2.512141773364872677e+02
4.645208037963254988e+00 -1.817851905669499724e+00 2.512167159930872629e+02
-3.435600042836759904e+00 -1.413811501569495865e+00 2.511652763557872561e+02
-3.031559638836762716e+00 -1.413811501569496309e+00 2.511678150123872513e+02
-2.627519234836740214e+00 -1.413811501569496532e+00 2.511703536690872625e+02
-2.223478830736745682e+00 -1.413811501569497198e+00 2.511728923257872736e+02
-1.819438426736740944e+00 -1.413811501569497198e+00 2.511754309823872688e+02
-1.415398022636737752e+00 -1.413811501569497198e+00 2.511779696390872516e+02
-1.011357618636735900e+00 -1.413811501569496976e+00 2.511805082957872628e+02
-6.073172146367443736e-01 -1.413811501569496976e+00 2.511830469523872580e+02
-2.032768105367491196e-01 -1.413811501569496532e+00 2.511855856090872692e+02
2.007635934632565344e-01 -1.413811501569496087e+00 2.511881242657872519e+02
6.048039975632424348e-01 -1.413811501569495865e+00 2.511906629223872756e+02
1.008844401563236737e+00 -1.413811501569495865e+00 2.511932015790872583e+02
1.412884805563217272e+00 -1.413811501569496309e+00 2.511957402357872695e+02
1.816925209663214247e+00 -1.413811501569496087e+00 2.511982788923872647e+02
2.220965613663226090e+00 -1.413811501569496309e+00 2.512008175490872759e+02
2.625006017763251265e+00 -1.413811501569496976e+00 2.512033562057872587e+02
3.029046421763240904e+00 -1.413811501569496754e+00 2.512058948623872539e+02
3.433086825763247862e+00 -1.413811501569496754e+00 2.512084335190872650e+02
3.837127229863243283e+00 -1.413811501569495865e+00 2.512109721757872762e+02
4.241167633863264008e+00 -1.413811501569495421e+00 2.512135108324872590e+02
4.645208037963251435e+00 -1.413811501569495643e+00 2.512160494890872542e+02
-3.435600042836770562e+00 -1.009771097569495346e+00 2.511646098516872598e+02
-3.031559638836768933e+00 -1.009771097569495346e+00 2.511671485083872710e+02
-2.627519234836766859e+00 -1.009771097569495124e+00 2.511696871650872538e+02
-2.223478830736764333e+00 -1.009771097569496012e+00 2.511722258216872774e+02
-1.819438426736761594e+00 -1.009771097569496456e+00 2.511747644783872602e+02
-1.415398022636758402e+00 -1.009771097569496678e+00 2.511773031350872714e+02
-1.011357618636747890e+00 -1.009771097569496678e+00 2.511798417916872666e+02
-6.073172146367377122e-01 -1.009771097569496900e+00 2.511823804483872777e+02
-2.032768105367377676e-01 -1.009771097569496456e+00 2.511849191050872605e+02
2.007635934632591157e-01 -1.009771097569496678e+00 2.511874577617872717e+02
6.048039975632544252e-01 -1.009771097569496456e+00 2.511899964183872669e+02
1.008844401563243176e+00 -1.009771097569496012e+00 2.511925350750872781e+02
1.412884805563221713e+00 -1.009771097569495790e+00 2.511950737317872608e+02
1.816925209663199814e+00 -1.009771097569495346e+00 2.511976123883872560e+02
2.220965613663197225e+00 -1.009771097569495568e+00 2.512001510450872672e+02
2.625006017763200639e+00 -1.009771097569495346e+00 2.512026897017872784e+02
3.029046421763216923e+00 -1.009771097569495346e+00 2.512052283583872736e+02
3.433086825763225214e+00 -1.009771097569495568e+00 2.512077670150872564e+02
3.837127229863232625e+00 -1.009771097569495790e+00 2.512103056717872676e+02
4.241167633863233810e+00 -1.009771097569495568e+00 2.512128443283872627e+02
4.645208037963237224e+00 -1.009771097569495790e+00 2.512153829850872739e+02
-3.435600042836786550e+00 -6.057306935694962702e-01 2.511639433476872796e+02
-3.031559638836783144e+00 -6.057306935694961592e-01 2.511664820043872624e+02
-2.627519234836770856e+00 -6.057306935694963812e-01 2.511690206610872735e+02
-2.223478830736771883e+00 -6.057306935694962702e-01 2.511715593176872687e+02
-1.819438426736739833e+00 -6.057306935694968253e-01 2.511740979743872515e+02
-1.415398022636741970e+00 -6.057306935694968253e-01 2.511766366310872627e+02
-1.011357618636739897e+00 -6.057306935694967143e-01 2.511791752876872579e+02
-6.073172146367418200e-01 -6.057306935694966032e-01 2.511817139443872691e+02
-2.032768105367386835e-01 -6.057306935694970473e-01 2.511842526010872518e+02
2.007635934632581998e-01 -6.057306935694970473e-01 2.511867912576872754e+02
6.048039975632581999e-01 -6.057306935694970473e-01 2.511893299143872582e+02
1.008844401563241622e+00 -6.057306935694966032e-01 2.511918685710872694e+02
1.412884805563228152e+00 -6.057306935694962702e-01 2.511944072276872646e+02
1.816925209663218688e+00 -6.057306935694959371e-01 2.511969458843872758e+02
2.220965613663226090e+00 -6.057306935694959371e-01 2.511994845410872585e+02
2.625006017763227728e+00 -6.057306935694959371e-01 2.512020231976872537e+02
3.029046421763228469e+00 -6.057306935694960481e-01 2.512045618543872649e+02
3.433086825763228767e+00 -6.057306935694963812e-01 2.512071005110872761e+02
3.837127229863233069e+00 -6.057306935694967143e-01 2.512096391676872713e+02
4.241167633863238251e+00 -6.057306935694970473e-01 2.512121778243872541e+02
4.645208037963224790e+00 -6.057306935694966032e-01 2.512147164810872653e+02
-3.435600042836781221e+00 -2.016902894694964643e-01 2.511632768436872709e+02
-3.031559638836764492e+00 -2.016902894694967419e-01 2.511658155003872537e+02
-2.627519234836771744e+00 -2.016902894694966031e-01 2.511683541569872773e+02
-2.223478830736769218e+00 -2.016902894694968529e-01 2.511708928136872601e+02
-1.819438426736782910e+00 -2.016902894694965198e-01 2.511734314703872712e+02
-1.415398022636781050e+00 -2.016902894694966586e-01 2.511759701269872664e+02
-1.011357618636769873e+00 -2.016902894694967974e-01 2.511785087836872776e+02
-6.073172146367521451e-01 -2.016902894694970194e-01 2.511810474403872604e+02
-2.032768105367417921e-01 -2.016902894694972137e-01 2.511835860969872556e+02
2.007635934632582275e-01 -2.016902894694971859e-01 2.511861247536872668e+02
6.048039975632585330e-01 -2.016902894694970194e-01 2.511886634103872780e+02
1.008844401563245841e+00 -2.016902894694966863e-01 2.511912020669872732e+02
1.412884805563227708e+00 -2.016902894694962978e-01 2.511937407236872559e+02
1.816925209663231344e+00 -2.016902894694965753e-01 2.511962793803872671e+02
2.220965613663240301e+00 -2.016902894694965476e-01 2.511988180369872623e+02
2.625006017763242827e+00 -2.016902894694964643e-01 2.512013566936872735e+02
3.029046421763248453e+00 -2.016902894694966308e-01 2.512038953503872563e+02
3.433086825763224326e+00 -2.016902894694961312e-01 2.512064340069872515e+02
3.837127229863229072e+00 -2.016902894694963255e-01 2.512089726636872626e+02
4.241167633863216047e+00 -2.016902894694961035e-01 2.512115113203872738e+02
4.645208037963209691e+00 -2.016902894694961867e-01 2.512140499769872690e+02
-3.435600042836764789e+00 2.023501145305034998e-01 2.511626103396872622e+02
-3.031559638836759607e+00 2.023501145305033611e-01 2.511651489962872574e+02
-2.627519234836760642e+00 2.023501145305033888e-01 2.511676876529872686e+02
-2.223478830736766998e+00 2.023501145305032223e-01 2.511702263096872514e+02
-1.819438426736773806e+00 2.023501145305031390e-01 2.511727649662872750e+02
-1.415398022636761288e+00 2.023501145305026949e-01 2.511753036229872578e+02
-1.011357618636758771e+00 2.023501145305025284e-01 2.511778422796872690e+02
-6.073172146367603608e-01 2.023501145305027782e-01 2.511803809362872641e+02
-2.032768105367558920e-01 2.023501145305026949e-01 2.511829195929872753e+02
2.007635934632507890e-01 2.023501145305024729e-01 2.511854582496872581e+02
6.048039975632550913e-01 2.023501145305023896e-01 2.511879969062872533e+02
1.008844401563252280e+00 2.023501145305024174e-01 2.511905355629872645e+02
1.412884805563252799e+00 2.023501145305024451e-01 2.511930742196872757e+02
1.816925209663262875e+00 2.023501145305024174e-01 2.511956128763872584e+02
2.220965613663272276e+00 2.023501145305023896e-01 2.511981515329872536e+02
2.625006017763259702e+00 2.023501145305026949e-01 2.512006901896872648e+02
3.029046421763251562e+00 2.023501145305029447e-01 2.512032288463872760e+02
3.433086825763239869e+00 2.023501145305031390e-01 2.512057675029872712e+02
3.837127229863253053e+00 2.023501145305030002e-01 2.512083061596872540e+02
4.241167633863247133e+00 2.023501145305030835e-01 2.512108448163872652e+02
4.645208037963228342e+00 2.023501145305033611e-01 2.512133834729872603e+02
-3.435600042836729706e+00 6.063905186305019734e-01 2.511619438355872660e+02
-3.031559638836716530e+00 6.063905186305020845e-01 2.511644824922872772e+02
-2.627519234836729112e+00 6.063905186305019734e-01 2.511670211489872599e+02
-2.223478830736735024e+00 6.063905186305024175e-01 2.511695598056872711e+02
-1.819438426736744274e+00 6.063905186305025286e-01 2.511720984622872663e+02
-1.415398022636748854e+00 6.063905186305026396e-01 2.511746371189872775e+02
-1.011357618636757882e+00 6.063905186305027506e-01 2.511771757756872603e+02
-6.073172146367654678e-01 6.063905186305031947e-01 2.511797144322872555e+02
-2.032768105367796230e-01 6.063905186305035278e-01 2.511822530889872667e+02
2.007635934632384100e-01 6.063905186305030837e-01 2.511847917456872779e+02
6.048039975632494292e-01 6.063905186305026396e-01 2.511873304022872730e+02
1.008844401563252280e+00 6.063905186305025286e-01 2.511898690589872558e+02
1.412884805563262569e+00 6.063905186305021955e-01 2.511924077156872670e+02
1.816925209663246443e+00 6.063905186305023065e-01 2.511949463722872622e+02
2.220965613663258065e+00 6.063905186305021955e-01 2.511974850289872734e+02
2.625006017763261479e+00 6.063905186305020845e-01 2.512000236856872561e+02
3.029046421763246233e+00 6.063905186305024175e-01 2.512025623422872513e+02
3.433086825763228322e+00 6.063905186305030837e-01 2.512051009989872625e+02
3.837127229863229516e+00 6.063905186305031947e-01 2.512076396556872737e+02
4.241167633863233810e+00 6.063905186305031947e-01 2.512101783122872689e+02
4.645208037963230119e+00 6.063905186305033057e-01 2.512127169689872517e+02
-3.435600042836717716e+00 1.010430922630501938e+00 2.511612773315872573e+02
-3.031559638836710313e+00 1.010430922630501493e+00 2.511638159882872685e+02
-2.627519234836719342e+00 1.010430922630501938e+00 2.511663546449872513e+02
-2.223478830736713263e+00 1.010430922630501938e+00 2.511688933015872749e+02
-1.819438426736728953e+00 1.010430922630502826e+00 2.511714319582872577e+02
-1.415398022636745523e+00 1.010430922630502826e+00 2.511739706149872688e+02
-1.011357618636755662e+00 1.010430922630503492e+00 2.511765092715872640e+02
-6.073172146367794566e-01 1.010430922630504158e+00 2.511790479282872752e+02
-2.032768105367810108e-01 1.010430922630503936e+00 2.511815865849872580e+02
2.007635934632348851e-01 1.010430922630503492e+00 2.511841252415872532e+02
6.048039975632395482e-01 1.010430922630503270e+00 2.511866638982872644e+02
1.008844401563256721e+00 1.010430922630503048e+00 2.511892025549872756e+02
1.412884805563263901e+00 1.010430922630503048e+00 2.511917412115872708e+02
1.816925209663264207e+00 1.010430922630503048e+00 2.511942798682872535e+02
2.220965613663279381e+00 1.010430922630503048e+00 2.511968185249872647e+02
2.625006017763264587e+00 1.010430922630503048e+00 2.511993571815872599e+02
3.029046421763265773e+00 1.010430922630502604e+00 2.512018958382872711e+02
3.433086825763261629e+00 1.010430922630502382e+00 2.512044344949872539e+02
3.837127229863264599e+00 1.010430922630502382e+00 2.512069731515872775e+02
4.241167633863250686e+00 1.010430922630502826e+00 2.512095118082872602e+02
4.645208037963258541e+00 1.010430922630502604e+00 2.512120504649872714e+02
-3.435600042836703061e+00 1.414471326630502679e+00 2.511606108275872771e+02
-3.031559638836701875e+00 1.414471326630503123e+00 2.511631494842872598e+02
-2.627519234836725115e+00 1.414471326630503345e+00 2.511656881408872550e+02
-2.223478830736731471e+00 1.414471326630503567e+00 2.511682267975872662e+02
-1.819438426736733394e+00 1.414471326630503567e+00 2.511707654542872774e+02
-1.415398022636746855e+00 1.414471326630504233e+00 2.511733041108872726e+02
-1.011357618636745448e+00 1.414471326630503789e+00 2.511758427675872554e+02
-6.073172146367469271e-01 1.414471326630503345e+00 2.511783814242872666e+02
-2.032768105367535605e-01 1.414471326630503123e+00 2.511809200808872617e+02
2.007635934632540919e-01 1.414471326630502679e+00 2.511834587375872729e+02
6.048039975632519827e-01 1.414471326630502679e+00 2.511859973942872557e+02
1.008844401563250504e+00 1.414471326630502679e+00 2.511885360508872793e+02
1.412884805563245916e+00 1.414471326630503345e+00 2.511910747075872621e+02
1.816925209663240670e+00 1.414471326630503345e+00 2.511936133642872733e+02
2.220965613663252736e+00 1.414471326630503789e+00 2.511961520209872560e+02
2.625006017763264587e+00 1.414471326630504233e+00 2.511986906775872512e+02
3.029046421763275987e+00 1.414471326630504455e+00 2.512012293342872624e+02
3.433086825763266514e+00 1.414471326630504899e+00 2.512037679909872736e+02
3.837127229863281475e+00 1.414471326630503789e+00 2.512063066475872688e+02
4.241167633863256903e+00 1.414471326630504455e+00 2.512088453042872516e+02
4.645208037963267422e+00 1.414471326630503567e+00 2.512113839609872628e+02
-3.435600042836720824e+00 1.818511730730504095e+00 2.511599443235872684e+02
-3.031559638836713422e+00 1.818511730730503428e+00 2.511624829801872636e+02
-2.627519234836730000e+00 1.818511730730503206e+00 2.511650216368872748e+02
-2.223478830736723033e+00 1.818511730730504539e+00 2.511675602935872575e+02
-1.819438426736737835e+00 1.818511730730502762e+00 2.511700989501872527e+02
-1.415398022636742414e+00 1.818511730730504095e+00 2.511726376068872639e+02
-1.011357618636743672e+00 1.818511730730504095e+00 2.511751762635872751e+02
-6.073172146367532553e-01 1.818511730730504317e+00 2.511777149202872579e+02
-2.032768105367520339e-01 1.818511730730503650e+00 2.511802535768872531e+02
2.007635934632442110e-01 1.818511730730503873e+00 2.511827922335872643e+02
6.048039975632578669e-01 1.818511730730504317e+00 2.511853308902872755e+02
1.008844401563254056e+00 1.818511730730504761e+00 2.511878695468872706e+02
1.412884805563252799e+00 1.818511730730505649e+00 2.511904082035872534e+02
1.816925209663258656e+00 1.818511730730504761e+00 2.511929468602872646e+02
2.220965613663270055e+00 1.818511730730504539e+00 2.511954855168872598e+02
2.625006017763269917e+00 1.818511730730504095e+00 2.511980241735872710e+02
3.029046421763275543e+00 1.818511730730504095e+00 2.512005628302872537e+02
3.433086825763278505e+00 1.818511730730504761e+00 2.512031014868872774e+02
3.837127229863290356e+00 1.818511730730505427e+00 2.512056401435872601e+02
4.241167633863280884e+00 1.818511730730504983e+00 2.512081788002872713e+02
4.645208037963281633e+00 1.818511730730505649e+00 2.512107174568872665e+02
-3.435600042836727042e+00 2.222552134730505280e+00 2.511592778195872597e+02
-3.031559638836715198e+00 2.222552134730504836e+00 2.511618164761872549e+02
-2.627519234836711348e+00 2.222552134730504392e+00 2.511643551328872661e+02
-2.223478830736729250e+00 2.222552134730505280e+00 2.511668937895872773e+02
-1.819438426736735614e+00 2.222552134730505280e+00 2.511694324461872725e+02
-1.415398022636712438e+00 2.222552134730505280e+00 2.511719711028872553e+02
-1.011357618636723910e+00 2.222552134730505280e+00 2.511745097595872664e+02
-6.073172146367192825e-01 2.222552134730504392e+00 2.511770484161872616e+02
-2.032768105367137590e-01 2.222552134730503948e+00 2.511795870728872728e+02
2.007635934632668595e-01 2.222552134730504392e+00 2.511821257295872556e+02
6.048039975632520937e-01 2.222552134730504836e+00 2.511846643861872792e+02
1.008844401563238957e+00 2.222552134730504392e+00 2.511872030428872620e+02
1.412884805563230373e+00 2.222552134730505724e+00 2.511897416995872732e+02
1.816925209663240004e+00 2.222552134730505724e+00 2.511922803561872684e+02
2.220965613663254512e+00 2.222552134730505280e+00 2.511948190128872795e+02
2.625006017763277466e+00 2.222552134730504836e+00 2.511973576695872623e+02
3.029046421763266217e+00 2.222552134730505724e+00 2.511998963261872575e+02
3.433086825763277616e+00 2.222552134730505724e+00 2.512024349828872687e+02
3.837127229863270372e+00 2.222552134730505724e+00 2.512049736395872515e+02
4.241167633863265785e+00 2.222552134730505280e+00 2.512075122961872751e+02
4.645208037963276304e+00 2.222552134730504392e+00 2.512100509528872578e+02
-3.435600042836755019e+00 2.626592538830506474e+00 2.511586113154872635e+02
-3.031559638836760051e+00 2.626592538830506918e+00 2.511611499721872747e+02
-2.627519234836749984e+00 2.626592538830506918e+00 2.511636886288872574e+02
-2.223478830736751455e+00 2.626592538830506918e+00 2.511662272854872526e+02
-1.819438426736731840e+00 2.626592538830506474e+00 2.511687659421872638e+02
-1.415398022636729980e+00 2.626592538830506474e+00 2.511713045988872750e+02
-1.011357618636727684e+00 2.626592538830507362e+00 2.511738432554872702e+02
-6.073172146367363800e-01 2.626592538830506918e+00 2.511763819121872530e+02
-2.032768105367401268e-01 2.626592538830507362e+00 2.511789205688872642e+02
2.007635934632515939e-01 2.626592538830506474e+00 2.511814592254872593e+02
6.048039975632489851e-01 2.626592538830506474e+00 2.511839978821872705e+02
1.008844401563256721e+00 2.626592538830506030e+00 2.511865365388872533e+02
1.412884805563241919e+00 2.626592538830506918e+00 2.511890751954872769e+02
1.816925209663253771e+00 2.626592538830506918e+00 2.511916138521872597e+02
2.220965613663254512e+00 2.626592538830506918e+00 2.511941525088872709e+02
2.625006017763276578e+00 2.626592538830506030e+00 2.511966911654872661e+02
3.029046421763276875e+00 2.626592538830505585e+00 2.511992298221872773e+02
3.433086825763287386e+00 2.626592538830505141e+00 2.512017684788872600e+02
3.837127229863285027e+00 2.626592538830505141e+00 2.512043071355872712e+02
4.241167633863291542e+00 2.626592538830504697e+00 2.512068457921872664e+02
4.645208037963281633e+00 2.626592538830504697e+00 2.512093844488872776e+02
-3.435600042836763901e+00 3.030632942830507659e+00 2.511579448114872548e+02
-3.031559638836767157e+00 3.030632942830507659e+00 2.511604834681872660e+02
-2.627519234836748652e+00 3.030632942830508103e+00 2.511630221247872612e+02
-2.223478830736743017e+00 3.030632942830508103e+00 2.511655607814872724e+02
-1.819438426736735614e+00 3.030632942830505883e+00 2.511680994381872551e+02
-1.415398022636721542e+00 3.030632942830504994e+00 2.511706380947872788e+02
-1.011357618636717026e+00 3.030632942830504994e+00 2.511731767514872615e+02
-6.073172146367118440e-01 3.030632942830504550e+00 2.511757154081872727e+02
-2.032768105367249722e-01 3.030632942830504106e+00 2.511782540648872555e+02
2.007635934632508168e-01 3.030632942830504106e+00 2.511807927214872791e+02
6.048039975632336640e-01 3.030632942830504106e+00 2.511833313781872619e+02
1.008844401563245619e+00 3.030632942830504106e+00 2.511858700348872731e+02
1.412884805563239476e+00 3.030632942830503662e+00 2.511884086914872682e+02
1.816925209663248220e+00 3.030632942830504106e+00 2.511909473481872794e+02
2.220965613663258509e+00 3.030632942830504106e+00 2.511934860048872622e+02
2.625006017763268584e+00 3.030632942830504994e+00 2.511960246614872574e+02
3.029046421763274211e+00 3.030632942830504550e+00 2.511985633181872686e+02
3.433086825763280281e+00 3.030632942830504106e+00 2.512011019748872513e+02
3.837127229863281030e+00 3.030632942830504550e+00 2.512036406314872750e+02
4.241167633863282660e+00 3.030632942830504550e+00 2.512061792881872577e+02
4.645208037963267422e+00 3.030632942830504994e+00 2.512087179448872689e+02
-3.435600042836747470e+00 3.434673346830505736e+00 2.511572783074872746e+02
-3.031559638836756054e+00 3.434673346830505292e+00 2.511598169641872573e+02
-2.627519234836762863e+00 3.434673346830504848e+00 2.511623556207872525e+02
-2.223478830736777656e+00 3.434673346830503515e+00 2.511648942774872637e+02
-1.819438426736775138e+00 3.434673346830504403e+00 2.511674329341872749e+02
-1.415398022636764175e+00 3.434673346830503515e+00 2.511699715907872701e+02
-1.011357618636775202e+00 3.434673346830503071e+00 2.511725102474872529e+02
-6.073172146367684654e-01 3.434673346830503071e+00 2.511750489041872640e+02
-2.032768105367548650e-01 3.434673346830502627e+00 2.511775875607872592e+02
2.007635934632604480e-01 3.434673346830502183e+00 2.511801262174872704e+02
6.048039975632648613e-01 3.434673346830502627e+00 2.511826648741872532e+02
1.008844401563266713e+00 3.434673346830502627e+00 2.511852035307872768e+02
1.412884805563261015e+00 3.434673346830503959e+00 2.511877421874872596e+02
1.816925209663248664e+00 3.434673346830503959e+00 2.511902808441872708e+02
2.220965613663241633e+00 3.434673346830503959e+00 2.511928195007872660e+02
2.625006017763250377e+00 3.434673346830504403e+00 2.511953581574872771e+02
3.029046421763260444e+00 3.434673346830503515e+00 2.511978968141872599e+02
3.433086825763256744e+00 3.434673346830504403e+00 2.512004354707872551e+02
3.837127229863263711e+00 3.434673346830504848e+00 2.512029741274872663e+02
4.241167633863274666e+00 3.434673346830505292e+00 2.512055127841872775e+02
4.645208037963269199e+00 3.434673346830505736e+00 2.512080514407872727e+02
-3.435600042836775891e+00 3.838713750930504709e+00 2.511566118034872659e+02
-3.031559638836779591e+00 3.838713750930503377e+00 2.511591504600872611e+02
-2.627519234836767748e+00 3.838713750930500268e+00 2.511616891167872723e+02
-2.223478830736772327e+00 3.838713750930499824e+00 2.511642277734872550e+02
-1.819438426736757597e+00 3.838713750930498048e+00 2.511667664300872786e+02
-1.415398022636749964e+00 3.838713750930495827e+00 2.511693050867872614e+02
-1.011357618636756772e+00 3.838713750930496715e+00 2.511718437434872726e+02
-6.073172146367465940e-01 3.838713750930495827e+00 2.511743824000872678e+02
-2.032768105367550315e-01 3.838713750930494939e+00 2.511769210567872790e+02
2.007635934632478747e-01 3.838713750930494939e+00 2.511794597134872618e+02
6.048039975632538701e-01 3.838713750930494939e+00 2.511819983700872569e+02
1.008844401563254944e+00 3.838713750930494495e+00 2.511845370267872681e+02
1.412884805563240809e+00 3.838713750930494495e+00 2.511870756834872793e+02
1.816925209663240892e+00 3.838713750930492719e+00 2.511896143400872745e+02
2.220965613663256288e+00 3.838713750930492719e+00 2.511921529967872573e+02
2.625006017763257038e+00 3.838713750930494939e+00 2.511946916534872685e+02
3.029046421763253338e+00 3.838713750930494495e+00 2.511972303100872637e+02
3.433086825763248751e+00 3.838713750930497604e+00 2.511997689667872748e+02
3.837127229863253497e+00 3.838713750930498048e+00 2.512023076234872576e+02
4.241167633863247133e+00 3.838713750930500268e+00 2.512048462800872528e+02
4.645208037963247882e+00 3.838713750930500712e+00 2.512073849367872640e+02
-3.435600042836764345e+00 4.242754154930497457e+00 2.511559452993872696e+02
-3.031559638836757831e+00 4.242754154930498345e+00 2.511584839560872524e+02
-2.627519234836756201e+00 4.242754154930495680e+00 2.511610226127872636e+02
-2.223478830736770551e+00 4.242754154930496568e+00 2.511635612693872588e+02
-1.819438426736767145e+00 4.242754154930495680e+00 2.511660999260872700e+02
-1.415398022636775055e+00 4.242754154930493904e+00 2.511686385827872527e+02
-1.011357618636775646e+00 4.242754154930493016e+00 2.511711772393872764e+02
-6.073172146367629143e-01 4.242754154930492128e+00 2.511737158960872591e+02
-2.032768105367489808e-01 4.242754154930493016e+00 2.511762545527872703e+02
2.007635934632709396e-01 4.242754154930493904e+00 2.511787932093872655e+02
6.048039975632731879e-01 4.242754154930493904e+00 2.511813318660872767e+02
1.008844401563278925e+00 4.242754154930494792e+00 2.511838705227872595e+02
1.412884805563262569e+00 4.242754154930493904e+00 2.511864091794872706e+02
1.816925209663244223e+00 4.242754154930492128e+00 2.511889478360872658e+02
2.220965613663248295e+00 4.242754154930490351e+00 2.511914864927872770e+02
2.625006017763268140e+00 4.242754154930492128e+00 2.511940251494872598e+02
3.029046421763266661e+00 4.242754154930493016e+00 2.511965638060872550e+02
3.433086825763270511e+00 4.242754154930493904e+00 2.511991024627872662e+02
3.837127229863261935e+00 4.242754154930494792e+00 2.512016411194872774e+02
4.241167633863270225e+00 4.242754154930495680e+00 2.512041797760872726e+02
4.645208037963265646e+00 4.242754154930495680e+00 2.512067184327872553e+02
-3.435600042836781221e+00 4.646794559030495542e+00 2.511552787953872610e+02
-3.031559638836760939e+00 4.646794559030494653e+00 2.511578174520872722e+02
-2.627519234836757978e+00 4.646794559030495542e+00 2.511603561087872549e+02
-2.223478830736762113e+00 4.646794559030495542e+00 2.511628947653872785e+02
-1.819438426736769587e+00 4.646794559030494653e+00 2.511654334220872613e+02
-1.415398022636771502e+00 4.646794559030496430e+00 2.511679720787872725e+02
-1.011357618636754108e+00 4.646794559030497318e+00 2.511705107353872677e+02
-6.073172146367629143e-01 4.646794559030498206e+00 2.511730493920872789e+02
-2.032768105367775135e-01 4.646794559030499094e+00 2.511755880487872616e+02
2.007635934632233388e-01 4.646794559030496430e+00 2.511781267053872568e+02
6.048039975632334420e-01 4.646794559030494653e+00 2.511806653620872680e+02
1.008844401563247617e+00 4.646794559030496430e+00 2.511832040187872792e+02
1.412884805563253687e+00 4.646794559030493765e+00 2.511857426753872744e+02
1.816925209663275753e+00 4.646794559030493765e+00 2.511882813320872572e+02
2.220965613663287375e+00 4.646794559030493765e+00 2.511908199887872684e+02
2.625006017763278354e+00 4.646794559030493765e+00 2.511933586453872636e+02
3.029046421763280428e+00 4.646794559030493765e+00 2.511958973020872747e+02
3.433086825763289163e+00 4.646794559030491989e+00 2.511984359587872575e+02
3.837127229863283695e+00 4.646794559030492877e+00 2.512009746153872527e+02
4.241167633863283548e+00 4.646794559030493765e+00 2.512035132720872639e+02
4.645208037963272751e+00 4.646794559030493765e+00 2.512060519287872751e+02
-3.435600042836747026e+00 5.050834963030491842e+00 2.511546122913872523e+02
-3.031559638836748061e+00 5.050834963030490954e+00 2.511571509480872635e+02
-2.627519234836757089e+00 5.050834963030493618e+00 2.511596896046872587e+02
-2.223478830736757228e+00 5.050834963030495395e+00 2.511622282613872699e+02
-1.819438426736760483e+00 5.050834963030495395e+00 2.511647669180872526e+02
-1.415398022636763287e+00 5.050834963030497171e+00 2.511673055746872762e+02
-1.011357618636761879e+00 5.050834963030496283e+00 2.511698442313872590e+02
-6.073172146367700197e-01 5.050834963030496283e+00 2.511723828880872702e+02
-2.032768105367635247e-01 5.050834963030493618e+00 2.511749215446872654e+02
2.007635934632488184e-01 5.050834963030493618e+00 2.511774602013872766e+02
6.048039975632480969e-01 5.050834963030493618e+00 2.511799988580872594e+02
1.008844401563260496e+00 5.050834963030493618e+00 2.511825375146872545e+02
1.412884805563249691e+00 5.050834963030492730e+00 2.511850761713872657e+02
1.816925209663255769e+00 5.050834963030492730e+00 2.511876148280872769e+02
2.220965613663265170e+00 5.050834963030493618e+00 2.511901534846872721e+02
2.625006017763291233e+00 5.050834963030493618e+00 2.511926921413872549e+02
3.029046421763294639e+00 5.050834963030492730e+00 2.511952307980872661e+02
3.433086825763292271e+00 5.050834963030494507e+00 2.511977694546872613e+02
3.837127229863294353e+00 5.050834963030490954e+00 2.512003081113872724e+02
4.241167633863292430e+00 5.050834963030491842e+00 2.512028467680872552e+02
4.645208037963291403e+00 5.050834963030490066e+00 2.512053854246872788e+02
-3.435600042836728818e+00 5.454875367030493472e+00 2.511539457873872720e+02
-3.031559638836736070e+00 5.454875367030495248e+00 2.511564844439872672e+02
-2.627519234836737549e+00 5.454875367030494360e+00 2.511590231006872784e+02
-2.223478830736748346e+00 5.454875367030494360e+00 2.511615617573872612e+02
-1.819438426736764036e+00 5.454875367030493472e+00 2.511641004139872564e+02
-1.415398022636765285e+00 5.454875367030494360e+00 2.511666390706872676e+02
-1.011357618636779643e+00 5.454875367030493472e+00 2.511691777273872788e+02
-6.073172146367737945e-01 5.454875367030493472e+00 2.511717163839872740e+02
-2.032768105367686318e-01 5.454875367030491695e+00 2.511742550406872567e+02
2.007635934632391039e-01 5.454875367030492583e+00 2.511767936973872679e+02
6.048039975632421017e-01 5.454875367030491695e+00 2.511793323539872631e+02
1.008844401563246951e+00 5.454875367030492583e+00 2.511818710106872743e+02
1.412884805563251911e+00 5.454875367030491695e+00 2.511844096673872571e+02
1.816925209663253549e+00 5.454875367030489919e+00 2.511869483240872682e+02
2.220965613663272720e+00 5.454875367030489919e+00 2.511894869806872634e+02
2.625006017763296118e+00 5.454875367030489031e+00 2.511920256373872746e+02
3.029046421763305741e+00 5.454875367030488142e+00 2.511945642940872574e+02
3.433086825763302485e+00 5.454875367030491695e+00 2.511971029506872526e+02
3.837127229863292133e+00 5.454875367030491695e+00 2.511996416073872638e+02
4.241167633863295094e+00 5.454875367030491695e+00 2.512021802640872750e+02
4.645208037963302061e+00 5.454875367030492583e+00 2.512047189206872702e+02
-3.435600042836731927e+00 5.858915771130492445e+00 2.511532792832872758e+02
-3.031559638836728521e+00 5.858915771130493333e+00 2.511558179399872586e+02
-2.627519234836741990e+00 5.858915771130494221e+00 2.511583565966872698e+02
-2.223478830736753675e+00 5.858915771130494221e+00 2.511608952532872649e+02
-1.819438426736762482e+00 5.858915771130494221e+00 2.511634339099872761e+02
-1.415398022636766395e+00 5.858915771130492445e+00 2.511659725666872589e+02
-1.011357618636774980e+00 5.858915771130490668e+00 2.511685112233872701e+02
-6.073172146367756818e-01 5.858915771130489780e+00 2.511710498799872653e+02
-2.032768105367648015e-01 5.858915771130490668e+00 2.511735885366872765e+02
2.007635934632454600e-01 5.858915771130489780e+00 2.511761271933872592e+02
6.048039975632414356e-01 5.858915771130488892e+00 2.511786658499872544e+02
1.008844401563244508e+00 5.858915771130487116e+00 2.511812045066872656e+02
1.412884805563247248e+00 5.858915771130487116e+00 2.511837431633872768e+02
1.816925209663255547e+00 5.858915771130486227e+00 2.511862818199872720e+02
2.220965613663269611e+00 5.858915771130487116e+00 2.511888204766872548e+02
2.625006017763276134e+00 5.858915771130488004e+00 2.511913591333872660e+02
3.029046421763291974e+00 5.858915771130489780e+00 2.511938977899872611e+02
3.433086825763299377e+00 5.858915771130491557e+00 2.511964364466872723e+02
3.837127229863301014e+00 5.858915771130492445e+00 2.511989751033872551e+02
4.241167633863296871e+00 5.858915771130492445e+00 2.512015137599872787e+02
4.645208037963301173e+00 5.858915771130493333e+00 2.512040524166872615e+02
-2.223478830736757228e+00 6.262956175130490521e+00 2.511602287492872563e+02
-1.819438426736763592e+00 6.262956175130491410e+00 2.511627674059872675e+02
-1.415398022636761288e+00 6.262956175130489633e+00 2.511653060626872787e+02
-1.011357618636761435e+00 6.262956175130489633e+00 2.511678447192872738e+02
-6.073172146367572521e-01 6.262956175130490521e+00 2.511703833759872566e+02
-2.032768105367576683e-01 6.262956175130490521e+00 2.511729220326872678e+02
2.007635934632454322e-01 6.262956175130490521e+00 2.511754606892872630e+02
6.048039975632496512e-01 6.262956175130489633e+00 2.511779993459872742e+02
1.008844401563250504e+00 6.262956175130487857e+00 2.511805380026872569e+02
1.412884805563243029e+00 6.262956175130488745e+00 2.511830766592872521e+02
1.816925209663238228e+00 6.262956175130489633e+00 2.511856153159872633e+02
2.220965613663260285e+00 6.262956175130490521e+00 2.511881539726872745e+02
2.625006017763269028e+00 6.262956175130489633e+00 2.511906926292872697e+02
3.029046421763287089e+00 6.262956175130489633e+00 2.511932312859872525e+02
3.433086825763299377e+00 6.262956175130490521e+00 2.511957699426872637e+02
3.837127229863293909e+00 6.262956175130493186e+00 2.511983085992872589e+02
4.241167633863295094e+00 6.262956175130494074e+00 2.512008472559872700e+02
4.645208037963299397e+00 6.262956175130494962e+00 2.512033859126872528e+02
-1.819438426736757375e+00 6.666996579230493047e+00 2.511621009019872588e+02
-1.415398022636755293e+00 6.666996579230493047e+00 2.511646395585872540e+02
-1.011357618636745004e+00 6.666996579230490383e+00 2.511671782152872652e+02
-6.073172146367469271e-01 6.666996579230490383e+00 2.511697168719872764e+02
-2.032768105367458444e-01 6.666996579230489495e+00 2.511722555285872716e+02
2.007635934632618635e-01 6.666996579230490383e+00 2.511747941852872543e+02
6.048039975632454324e-01 6.666996579230490383e+00 2.511773328419872655e+02
1.008844401563239401e+00 6.666996579230489495e+00 2.511798714985872607e+02
1.412884805563222823e+00 6.666996579230488607e+00 2.511824101552872719e+02
1.816925209663220686e+00 6.666996579230489495e+00 2.511849488119872547e+02
2.220965613663242966e+00 6.666996579230489495e+00 2.511874874685872783e+02
2.625006017763255706e+00 6.666996579230490383e+00 2.511900261252872610e+02
3.029046421763279984e+00 6.666996579230492159e+00 2.511925647819872722e+02
3.433086825763282945e+00 6.666996579230493047e+00 2.511951034386872550e+02
3.837127229863284583e+00 6.666996579230489495e+00 2.511976420952872786e+02
4.241167633863277331e+00 6.666996579230490383e+00 2.512001807519872614e+02
4.645208037963286074e+00 6.666996579230493047e+00 2.512027194086872726e+02
-2.223478830736762113e+00 7.071036983230489348e+00 2.511588957412872674e+02
-1.819438426736750936e+00 7.071036983230492012e+00 2.511614343978872625e+02
-1.415398022636749964e+00 7.071036983230494677e+00 2.511639730545872737e+02
-1.011357618636742339e+00 7.071036983230493789e+00 2.511665117112872565e+02
-6.073172146367390445e-01 7.071036983230493789e+00 2.511690503679872677e+02
-2.032768105367370737e-01 7.071036983230492901e+00 2.511715890245872629e+02
2.007635934632640007e-01 7.071036983230492012e+00 2.511741276812872741e+02
6.048039975632483189e-01 7.071036983230490236e+00 2.511766663379872568e+02
1.008844401563234072e+00 7.071036983230490236e+00 2.511792049945872520e+02
1.412884805563212609e+00 7.071036983230490236e+00 2.511817436512872632e+02
1.816925209663219132e+00 7.071036983230489348e+00 2.511842823079872744e+02
2.220965613663239413e+00 7.071036983230490236e+00 2.511868209645872696e+02
2.625006017763261479e+00 7.071036983230492012e+00 2.511893596212872524e+02
3.029046421763273766e+00 7.071036983230491124e+00 2.511918982779872636e+02
3.433086825763279393e+00 7.071036983230492012e+00 2.511944369345872587e+02
3.837127229863267264e+00 7.071036983230492012e+00 2.511969755912872699e+02
4.241167633863267561e+00 7.071036983230493789e+00 2.511995142479872527e+02
4.645208037963272751e+00 7.071036983230493789e+00 2.512020529045872763e+02
-3.031559638836763604e+00 7.475077387230491865e+00 2.511531519238872647e+02
-2.627519234836758866e+00 7.475077387230492754e+00 2.511556905805872759e+02
-2.223478830736755008e+00 7.475077387230492754e+00 2.511582292372872587e+02
-1.819438426736754710e+00 7.475077387230491865e+00 2.511607678938872539e+02
-1.415398022636752851e+00 7.475077387230492754e+00 2.511633065505872651e+02
-1.011357618636736788e+00 7.475077387230494530e+00 2.511658452072872763e+02
-6.073172146367336044e-01 7.475077387230495418e+00 2.511683838638872714e+02
-2.032768105367326605e-01 7.475077387230495418e+00 2.511709225205872542e+02
