-1.430477325077687434e+00 -1.272298386440345830e+01 2.535965811140342794e+02
-1.026436921077690245e+00 -1.231894346030345666e+01 2.535984532666342659e+02
-6.223965170777607803e-01 -1.231894346030346021e+01 2.536009919233342771e+02
-2.183561129775827003e-01 -1.231894346030346377e+01 2.536035305799342723e+02
1.856842910224535681e-01 -1.231894346030346910e+01 2.536060692366342835e+02
5.897246951225735279e-01 -1.231894346030347442e+01 2.536086078933342662e+02
9.937650991225456254e-01 -1.231894346030347442e+01 2.536111465499342899e+02
1.397805503122581339e+00 -1.231894346030347798e+01 2.536136852066342726e+02
1.801845907222573651e+00 -1.231894346030347798e+01 2.536162238633342838e+02
2.205886311222548191e+00 -1.231894346030347620e+01 2.536187625199342790e+02
-1.026436921077662712e+00 -1.191490305630345325e+01 2.535977867626342857e+02
-6.223965170776826206e-01 -1.191490305630345503e+01 2.536003254192342808e+02
-2.183561129775815624e-01 -1.191490305630347635e+01 2.536028640759342920e+02
1.856842910223934495e-01 -1.191490305630347812e+01 2.536054027326342748e+02
5.897246951225321165e-01 -1.191490305630346747e+01 2.536079413892342700e+02
9.937650991224915575e-01 -1.191490305630346924e+01 2.536104800459342812e+02
1.397805503122545590e+00 -1.191490305630347635e+01 2.536130187026342924e+02
1.801845907222506593e+00 -1.191490305630346391e+01 2.536155573592342876e+02
2.205886311222572616e+00 -1.191490305630346214e+01 2.536180960159342703e+02
-1.026436921077635844e+00 -1.151086265230344097e+01 2.535971202586342770e+02
-6.223965170776715183e-01 -1.151086265230343919e+01 2.535996589152342722e+02
-2.183561129776713239e-01 -1.151086265230344097e+01 2.536021975719342834e+02
1.856842910224517917e-01 -1.151086265230345163e+01 2.536047362286342661e+02
5.897246951225315614e-01 -1.151086265230346228e+01 2.536072748852342897e+02
9.937650991224903363e-01 -1.151086265230345695e+01 2.536098135419342725e+02
1.397805503122477200e+00 -1.151086265230345340e+01 2.536123521986342837e+02
1.801845907222504373e+00 -1.151086265230344274e+01 2.536148908552342789e+02
-1.026436921077559905e+00 -1.110682224820346420e+01 2.535964537545342807e+02
-6.223965170775858091e-01 -1.110682224820343578e+01 2.535989924112342919e+02
-2.183561129775838383e-01 -1.110682224820345354e+01 2.536015310679342747e+02
1.856842910224771048e-01 -1.110682224820345176e+01 2.536040697245342699e+02
5.897246951224692779e-01 -1.110682224820344999e+01 2.536066083812342811e+02
9.937650991224651342e-01 -1.110682224820345709e+01 2.536091470379342923e+02
1.397805503122512505e+00 -1.110682224820344999e+01 2.536116856945342874e+02
1.801845907222462406e+00 -1.110682224820343045e+01 2.536142243512342702e+02
-1.026436921077531039e+00 -1.070278184420349632e+01 2.535957872505342721e+02
-6.223965170775818123e-01 -1.070278184420347323e+01 2.535983259072342832e+02
-2.183561129775855592e-01 -1.070278184420343770e+01 2.536008645638342784e+02
1.856842910224760224e-01 -1.070278184420344125e+01 2.536034032205342896e+02
5.897246951224456302e-01 -1.070278184420346612e+01 2.536059418772342724e+02
9.937650991224904473e-01 -1.070278184420345724e+01 2.536084805338342676e+02
1.397805503122451887e+00 -1.070278184420345369e+01 2.536110191905342788e+02
1.801845907222439980e+00 -1.070278184420346079e+01 2.536135578472342900e+02
-6.223965170775181965e-01 -1.029874144010349823e+01 2.535976594031342870e+02
-2.183561129775942189e-01 -1.029874144010347514e+01 2.536001980598342698e+02
1.856842910224164589e-01 -1.029874144010345738e+01 2.536027367165342810e+02
5.897246951224509592e-01 -1.029874144010347159e+01 2.536052753732342921e+02
9.937650991224921126e-01 -1.029874144010347514e+01 2.536078140298342873e+02
1.397805503122492743e+00 -1.029874144010348225e+01 2.536103526865342701e+02
1.801845907222415777e+00 -1.029874144010349823e+01 2.536128913432342813e+02
2.205886311222431395e+00 -1.029874144010350001e+01 2.536154299998342765e+02
-6.223965170775056510e-01 -9.894701036103498382e+00 2.535969928991342783e+02
-2.183561129776052101e-01 -9.894701036103493053e+00 2.535995315558342895e+02
1.856842910224076604e-01 -9.894701036103494829e+00 2.536020702125342723e+02
5.897246951224646150e-01 -9.894701036103482394e+00 2.536046088691342675e+02
9.937650991224094010e-01 -9.894701036103510816e+00 2.536071475258342787e+02
1.397805503122509396e+00 -9.894701036103519698e+00 2.536096861825342899e+02
1.801845907222441534e+00 -9.894701036103503711e+00 2.536122248391342850e+02
2.205886311222460261e+00 -9.894701036103516145e+00 2.536147634958342678e+02
-1.026436921077604758e+00 -9.490660632003498520e+00 2.535937877384342869e+02
-6.223965170774709010e-01 -9.490660632003487862e+00 2.535963263951342697e+02
-2.183561129775657417e-01 -9.490660632003480757e+00 2.535988650518342808e+02
1.856842910224710541e-01 -9.490660632003468322e+00 2.536014037084342760e+02
5.897246951225374456e-01 -9.490660632003473651e+00 2.536039423651342872e+02
9.937650991224931118e-01 -9.490660632003486086e+00 2.536064810218342700e+02
1.397805503122479420e+00 -9.490660632003503849e+00 2.536090196784342936e+02
1.801845907222501708e+00 -9.490660632003494968e+00 2.536115583351342764e+02
2.205886311222568175e+00 -9.490660632003478980e+00 2.536140969918342876e+02
-1.026436921077670261e+00 -9.086620228003503996e+00 2.535931212344342782e+02
-6.223965170775739297e-01 -9.086620228003477351e+00 2.535956598911342894e+02
-2.183561129775089538e-01 -9.086620228003438271e+00 2.535981985477342846e+02
1.856842910224751342e-01 -9.086620228003432942e+00 2.536007372044342674e+02
5.897246951224704992e-01 -9.086620228003463140e+00 2.536032758611342786e+02
9.937650991225567276e-01 -9.086620228003463140e+00 2.536058145178342897e+02
1.397805503122566462e+00 -9.086620228003484456e+00 2.536083531744342849e+02
1.801845907222606957e+00 -9.086620228003479127e+00 2.536108918311342677e+02
2.205886311222632123e+00 -9.086620228003505773e+00 2.536134304878342789e+02
-1.026436921077643616e+00 -8.682579824003516578e+00 2.535924547304342695e+02
-6.223965170777596700e-01 -8.682579824003500590e+00 2.535949933871342807e+02
-2.183561129777243648e-01 -8.682579824003495261e+00 2.535975320437342759e+02
1.856842910224548726e-01 -8.682579824003509472e+00 2.536000707004342871e+02
5.897246951225908473e-01 -8.682579824003521907e+00 2.536026093571342699e+02
9.937650991227304775e-01 -8.682579824003520130e+00 2.536051480137342935e+02
1.397805503122819148e+00 -8.682579824003543223e+00 2.536076866704342763e+02
1.801845907222771270e+00 -8.682579824003521907e+00 2.536102253271342875e+02
-1.026436921077751530e+00 -8.278539419903504282e+00 2.535917882264342893e+02
-6.223965170777098210e-01 -8.278539419903513163e+00 2.535943268830342845e+02
-2.183561129776166454e-01 -8.278539419903506058e+00 2.535968655397342673e+02
1.856842910225318388e-01 -8.278539419903514940e+00 2.535994041964342784e+02
5.897246951227380629e-01 -8.278539419903520269e+00 2.536019428530342736e+02
9.937650991227917618e-01 -8.278539419903522045e+00 2.536044815097342848e+02
1.397805503122789172e+00 -8.278539419903525598e+00 2.536070201664342676e+02
1.801845907222869192e+00 -8.278539419903511387e+00 2.536095588230342912e+02
-1.026436921077603870e+00 -7.874499015903555055e+00 2.535911217223342931e+02
-6.223965170775469513e-01 -7.874499015903540844e+00 2.535936603790342758e+02
-2.183561129775124787e-01 -7.874499015903527521e+00 2.535961990357342870e+02
1.856842910225163512e-01 -7.874499015903513310e+00 2.535987376923342822e+02
5.897246951225475486e-01 -7.874499015903496435e+00 2.536012763490342934e+02
9.937650991226684161e-01 -7.874499015903508869e+00 2.536038150057342762e+02
1.397805503122756310e+00 -7.874499015903525745e+00 2.536063536623342713e+02
1.801845907222686671e+00 -7.874499015903537291e+00 2.536088923190342825e+02
-1.026436921077422015e+00 -7.470458611803519666e+00 2.535904552183342844e+02
-6.223965170776897260e-01 -7.470458611803510784e+00 2.535929938750342671e+02
-2.183561129776558363e-01 -7.470458611803518778e+00 2.535955325317342783e+02
1.856842910223939491e-01 -7.470458611803510784e+00 2.535980711883342735e+02
5.897246951224335287e-01 -7.470458611803500126e+00 2.536006098450342847e+02
9.937650991224792341e-01 -7.470458611803500126e+00 2.536031485017342675e+02
1.397805503122629522e+00 -7.470458611803528548e+00 2.536056871583342911e+02
1.801845907222735077e+00 -7.470458611803517002e+00 2.536082258150342739e+02
2.205886311222699181e+00 -7.470458611803535653e+00 2.536107644717342851e+02
-1.026436921077498621e+00 -7.066418207803490503e+00 2.535897887143342757e+02
-6.223965170775861422e-01 -7.066418207803480733e+00 2.535923273710342869e+02
-2.183561129776471488e-01 -7.066418207803479845e+00 2.535948660276342821e+02
1.856842910223159560e-01 -7.066418207803470075e+00 2.535974046843342933e+02
5.897246951223579225e-01 -7.066418207803481621e+00 2.535999433410342760e+02
9.937650991224152852e-01 -7.066418207803470963e+00 2.536024819976342712e+02
1.397805503122676818e+00 -7.066418207803469187e+00 2.536050206543342824e+02
1.801845907222871190e+00 -7.066418207803482510e+00 2.536075593110342936e+02
2.205886311222772900e+00 -7.066418207803487839e+00 2.536100979676342888e+02
-6.223965170775483946e-01 -6.662377803803478216e+00 2.535916608669342907e+02
-2.183561129776494525e-01 -6.662377803803458676e+00 2.535941995236342734e+02
1.856842910223635013e-01 -6.662377803803461340e+00 2.535967381803342846e+02
5.897246951225155742e-01 -6.662377803803457788e+00 2.535992768369342798e+02
9.937650991225491781e-01 -6.662377803803463117e+00 2.536018154936342910e+02
1.397805503122703241e+00 -6.662377803803480880e+00 2.536043541503342738e+02
1.801845907222789700e+00 -6.662377803803481768e+00 2.536068928069342689e+02
2.205886311222585938e+00 -6.662377803803472887e+00 2.536094314636342801e+02
-6.223965170774867772e-01 -6.258337399703483683e+00 2.535909943629342820e+02
-2.183561129775646592e-01 -6.258337399703442827e+00 2.535935330196342932e+02
1.856842910224990040e-01 -6.258337399703419734e+00 2.535960716763342759e+02
5.897246951225518785e-01 -6.258337399703414405e+00 2.535986103329342711e+02
9.937650991225087660e-01 -6.258337399703417958e+00 2.536011489896342823e+02
1.397805503122605764e+00 -6.258337399703447268e+00 2.536036876463342935e+02
1.801845907222656473e+00 -6.258337399703469472e+00 2.536062263029342887e+02
-1.026436921077437558e+00 -5.854296995703492712e+00 2.535877892022342905e+02
-6.223965170775004330e-01 -5.854296995703472284e+00 2.535903278589342733e+02
-2.183561129774692355e-01 -5.854296995703455408e+00 2.535928665156342845e+02
1.856842910226501053e-01 -5.854296995703455408e+00 2.535954051722342797e+02
5.897246951227029799e-01 -5.854296995703449191e+00 2.535979438289342909e+02
9.937650991226516517e-01 -5.854296995703419881e+00 2.536004824856342736e+02
1.397805503122592441e+00 -5.854296995703440309e+00 2.536030211422342688e+02
1.801845907222568322e+00 -5.854296995703450079e+00 2.536055597989342800e+02
-1.026436921077495956e+00 -5.450256591603517720e+00 2.535871226982342819e+02
-6.223965170774234945e-01 -5.450256591603505285e+00 2.535896613549342931e+02
-2.183561129772227105e-01 -5.450256591603504397e+00 2.535922000115342883e+02
1.856842910227152199e-01 -5.450256591603494627e+00 2.535947386682342710e+02
5.897246951226213785e-01 -5.450256591603497291e+00 2.535972773249342822e+02
9.937650991226468777e-01 -5.450256591603498180e+00 2.535998159815342774e+02
1.397805503122535375e+00 -5.450256591603500844e+00 2.536023546382342886e+02
1.801845907222520360e+00 -5.450256591603505285e+00 2.536048932949342714e+02
2.205886311222463370e+00 -5.450256591603515055e+00 2.536074319515342665e+02
-1.026436921077496400e+00 -5.046216187603513426e+00 2.535864561942342732e+02
-6.223965170774097277e-01 -5.046216187603515202e+00 2.535889948508342684e+02
-2.183561129773429477e-01 -5.046216187603496550e+00 2.535915335075342796e+02
1.856842910226418064e-01 -5.046216187603497438e+00 2.535940721642342908e+02
5.897246951225796341e-01 -5.046216187603485892e+00 2.535966108209342735e+02
9.937650991225747132e-01 -5.046216187603485892e+00 2.535991494775342687e+02
1.397805503122608872e+00 -5.046216187603500103e+00 2.536016881342342799e+02
1.801845907222636711e+00 -5.046216187603523196e+00 2.536042267909342911e+02
2.205886311222531315e+00 -5.046216187603537406e+00 2.536067654475342863e+02
-1.026436921077585662e+00 -4.642175783603486927e+00 2.535857896902342929e+02
-6.223965170776044609e-01 -4.642175783603501138e+00 2.535883283468342881e+02
-2.183561129775265508e-01 -4.642175783603466499e+00 2.535908670035342709e+02
1.856842910225322552e-01 -4.642175783603470052e+00 2.535934056602342821e+02
5.897246951225545430e-01 -4.642175783603488703e+00 2.535959443168342773e+02
9.937650991227352515e-01 -4.642175783603490480e+00 2.535984829735342885e+02
1.397805503122810489e+00 -4.642175783603509132e+00 2.536010216302342712e+02
1.801845907222726639e+00 -4.642175783603530448e+00 2.536035602868342664e+02
-6.223965170776600830e-01 -4.238135379503478184e+00 2.535876618428342795e+02
-2.183561129777752963e-01 -4.238135379503519040e+00 2.535902004995342907e+02
1.856842910224519860e-01 -4.238135379503528810e+00 2.535927391561342858e+02
5.897246951226269296e-01 -4.238135379503551903e+00 2.535952778128342686e+02
9.937650991227958697e-01 -4.238135379503561673e+00 2.535978164695342798e+02
1.397805503122756310e+00 -4.238135379503546574e+00 2.536003551261342750e+02
1.801845907222691778e+00 -4.238135379503563449e+00 2.536028937828342862e+02
-6.223965170777522316e-01 -3.834094975503469449e+00 2.535869953388342708e+02
-2.183561129778498200e-01 -3.834094975503461900e+00 2.535895339954342660e+02
1.856842910221633003e-01 -3.834094975503465896e+00 2.535920726521342772e+02
5.897246951223774625e-01 -3.834094975503473890e+00 2.535946113088342884e+02
9.937650991225589481e-01 -3.834094975503482772e+00 2.535971499654342836e+02
1.397805503122534043e+00 -3.834094975503487657e+00 2.535996886221342663e+02
1.801845907222552334e+00 -3.834094975503489433e+00 2.536022272788342775e+02
-6.223965170779438560e-01 -3.430054571403483799e+00 2.535863288348342905e+02
-2.183561129780537402e-01 -3.430054571403479358e+00 2.535888674914342857e+02
1.856842910220173615e-01 -3.430054571403481578e+00 2.535914061481342685e+02
5.897246951221292166e-01 -3.430054571403483354e+00 2.535939448048342797e+02
9.937650991222716224e-01 -3.430054571403480690e+00 2.535964834614342749e+02
1.397805503122258930e+00 -3.430054571403481134e+00 2.535990221181342861e+02
1.801845907222320298e+00 -3.430054571403484243e+00 2.536015607748342688e+02
-1.026436921077706454e+00 -3.026014167403520805e+00 2.535831236741342707e+02
-6.223965170778481548e-01 -3.026014167403501265e+00 2.535856623307342659e+02
-2.183561129778227305e-01 -3.026014167403501709e+00 2.535882009874342771e+02
1.856842910222811505e-01 -3.026014167403500377e+00 2.535907396441342883e+02
5.897246951223190647e-01 -3.026014167403500377e+00 2.535932783007342834e+02
9.937650991223423436e-01 -3.026014167403500377e+00 2.535958169574342662e+02
1.397805503122186765e+00 -3.026014167403497712e+00 2.535983556141342774e+02
1.801845907222289878e+00 -3.026014167403510591e+00 2.536008942707342726e+02
-1.026436921077772846e+00 -2.621973763403516955e+00 2.535824571700342744e+02
-6.223965170776778466e-01 -2.621973763403525837e+00 2.535849958267342856e+02
-2.183561129776773468e-01 -2.621973763403530278e+00 2.535875344834342684e+02
1.856842910222804011e-01 -2.621973763403541824e+00 2.535900731400342920e+02
5.897246951222420153e-01 -2.621973763403542268e+00 2.535926117967342748e+02
9.937650991221227414e-01 -2.621973763403542712e+00 2.535951504534342860e+02
1.397805503122177884e+00 -2.621973763403534718e+00 2.535976891100342812e+02
1.801845907222152654e+00 -2.621973763403533386e+00 2.536002277667342923e+02
-1.026436921077485520e+00 -2.217933359303517094e+00 2.535817906660342658e+02
-6.223965170775180855e-01 -2.217933359303521534e+00 2.535843293227342770e+02
-2.183561129777046306e-01 -2.217933359303537522e+00 2.535868679794342881e+02
1.856842910223342191e-01 -2.217933359303545959e+00 2.535894066360342833e+02
5.897246951221203348e-01 -2.217933359303541963e+00 2.535919452927342661e+02
9.937650991220257080e-01 -2.217933359303534857e+00 2.535944839494342773e+02
1.397805503122077742e+00 -2.217933359303523311e+00 2.535970226060342725e+02
1.801845907222079601e+00 -2.217933359303514429e+00 2.535995612627342837e+02
-1.430477325077727846e+00 -1.813892955303509247e+00 2.535785855053342743e+02
-1.026436921077678699e+00 -1.813892955303518573e+00 2.535811241620342855e+02
-6.223965170777064904e-01 -1.813892955303519461e+00 2.535836628187342683e+02
-2.183561129776398213e-01 -1.813892955303526122e+00 2.535862014753342919e+02
1.856842910221519483e-01 -1.813892955303527232e+00 2.535887401320342747e+02
5.897246951221143396e-01 -1.813892955303530341e+00 2.535912787887342859e+02
9.937650991220789987e-01 -1.813892955303534560e+00 2.535938174453342810e+02
1.397805503122187876e+00 -1.813892955303530341e+00 2.535963561020342922e+02
1.801845907222104914e+00 -1.813892955303514576e+00 2.535988947587342750e+02
-6.223965170776766254e-01 -1.409852551203461868e+00 2.535829963146342720e+02
-2.183561129777384646e-01 -1.409852551203454318e+00 2.535855349713342832e+02
1.856842910223348297e-01 -1.409852551203450099e+00 2.535880736280342660e+02
5.897246951221513100e-01 -1.409852551203446325e+00 2.535906122846342896e+02
9.937650991220777774e-01 -1.409852551203446991e+00 2.535931509413342724e+02
1.397805503121823945e+00 -1.409852551203451876e+00 2.535956895980342836e+02
1.801845907221785836e+00 -1.409852551203449433e+00 2.535982282546342788e+02
2.205886311221938012e+00 -1.409852551203451654e+00 2.536007669113342899e+02
-6.223965170775903610e-01 -1.005812147203460016e+00 2.535823298106342918e+02
-2.183561129775909992e-01 -1.005812147203453799e+00 2.535848684673342746e+02
1.856842910223683307e-01 -1.005812147203454687e+00 2.535874071240342857e+02
5.897246951223069633e-01 -1.005812147203451801e+00 2.535899457806342809e+02
9.937650991221591568e-01 -1.005812147203448470e+00 2.535924844373342921e+02
1.397805503121884341e+00 -1.005812147203444473e+00 2.535950230940342749e+02
1.801845907221596432e+00 -1.005812147203438922e+00 2.535975617506342701e+02
2.205886311221560980e+00 -1.005812147203442253e+00 2.536001004073342813e+02
-6.223965170776440958e-01 -6.017717432034555003e-01 2.535816633066342831e+02
-2.183561129776028231e-01 -6.017717432034618286e-01 2.535842019633342659e+02
1.856842910223564236e-01 -6.017717432034611624e-01 2.535867406199342895e+02
5.897246951223564793e-01 -6.017717432034616065e-01 2.535892792766342723e+02
9.937650991221397279e-01 -6.017717432034559444e-01 2.535918179333342835e+02
1.397805503121966497e+00 -6.017717432034513925e-01 2.535943565899342786e+02
1.801845907221843790e+00 -6.017717432034468406e-01 2.535968952466342898e+02
-1.026436921078007547e+00 -1.977313391034583312e-01 2.535784581459342917e+02
-6.223965170777784328e-01 -1.977313391034609957e-01 2.535809968026342744e+02
-2.183561129776433463e-01 -1.977313391034636880e-01 2.535835354592342696e+02
1.856842910223566734e-01 -1.977313391034631607e-01 2.535860741159342808e+02
5.897246951223612532e-01 -1.977313391034612455e-01 2.535886127726342920e+02
9.937650991221957941e-01 -1.977313391034566659e-01 2.535911514292342872e+02
1.397805503121961390e+00 -1.977313391034518364e-01 2.535936900859342700e+02
1.801845907222007659e+00 -1.977313391034552226e-01 2.535962287426342812e+02
-1.026436921077864328e+00 2.063090648965328344e-01 2.535777916419342830e+02
-6.223965170778847922e-01 2.063090648965359986e-01 2.535803302985342782e+02
-2.183561129778265053e-01 2.063090648965350826e-01 2.535828689552342894e+02
1.856842910222602783e-01 2.063090648965320295e-01 2.535854076119342722e+02
5.897246951223164002e-01 2.063090648965308638e-01 2.535879462685342673e+02
9.937650991222785057e-01 2.063090648965311691e-01 2.535904849252342785e+02
1.397805503122286019e+00 2.063090648965316964e-01 2.535930235819342897e+02
1.801845907222418219e+00 2.063090648965314466e-01 2.535955622386342725e+02
2.205886311222539753e+00 2.063090648965310303e-01 2.535981008952342677e+02
-1.026436921077852116e+00 6.103494689965363040e-01 2.535771251379342743e+02
-6.223965170779515166e-01 6.103494689965420772e-01 2.535796637945342695e+02
-2.183561129781350363e-01 6.103494689965459630e-01 2.535822024512342807e+02
1.856842910220993514e-01 6.103494689965400788e-01 2.535847411079342919e+02
5.897246951222423483e-01 6.103494689965343056e-01 2.535872797645342871e+02
9.937650991222782837e-01 6.103494689965331954e-01 2.535898184212342699e+02
1.397805503122413473e+00 6.103494689965289766e-01 2.535923570779342811e+02
1.801845907222202614e+00 6.103494689965303088e-01 2.535948957345342762e+02
2.205886311222355012e+00 6.103494689965279774e-01 2.535974343912342874e+02
-6.223965170781331491e-01 1.014389872996553921e+00 2.535789972905342893e+02
-2.183561129781531884e-01 1.014389872996550812e+00 2.535815359472342720e+02
1.856842910220533882e-01 1.014389872996543041e+00 2.535840746038342672e+02
5.897246951221145617e-01 1.014389872996541708e+00 2.535866132605342784e+02
9.937650991223361263e-01 1.014389872996538600e+00 2.535891519172342896e+02
1.397805503122432791e+00 1.014389872996539266e+00 2.535916905738342848e+02
1.801845907222435761e+00 1.014389872996537934e+00 2.535942292305342676e+02
-6.223965170777103761e-01 1.418430276996544892e+00 2.535783307865342806e+02
-2.183561129777962517e-01 1.418430276996540229e+00 2.535808694431342758e+02
1.856842910223031606e-01 1.418430276996536454e+00 2.535834080998342870e+02
5.897246951222750999e-01 1.418430276996536676e+00 2.535859467565342698e+02
9.937650991222550800e-01 1.418430276996534234e+00 2.535884854131342934e+02
1.397805503122198534e+00 1.418430276996542894e+00 2.535910240698342761e+02
1.801845907222129783e+00 1.418430276996544670e+00 2.535935627265342873e+02
-6.223965170777926437e-01 1.822470681096554523e+00 2.535776642825342719e+02
-2.183561129777764065e-01 1.822470681096545864e+00 2.535802029391342671e+02
1.856842910221747356e-01 1.822470681096550749e+00 2.535827415958342783e+02
5.897246951223518163e-01 1.822470681096556744e+00 2.535852802525342895e+02
9.937650991223008212e-01 1.822470681096560741e+00 2.535878189091342847e+02
1.397805503122286908e+00 1.822470681096572287e+00 2.535903575658342675e+02
1.801845907222361820e+00 1.822470681096561629e+00 2.535928962225342786e+02
-6.223965170773506639e-01 2.226511085096557263e+00 2.535769977784342757e+02
-2.183561129772787490e-01 2.226511085096548381e+00 2.535795364351342869e+02
1.856842910224691390e-01 2.226511085096555487e+00 2.535820750918342696e+02
5.897246951222775424e-01 2.226511085096561704e+00 2.535846137484342933e+02
9.937650991221054220e-01 2.226511085096556819e+00 2.535871524051342760e+02
1.397805503121996917e+00 2.226511085096572362e+00 2.535896910618342872e+02
1.801845907222119347e+00 2.226511085096571474e+00 2.535922297184342824e+02
-1.026436921077458431e+00 2.630551489196593540e+00 2.535737926177342842e+02
-6.223965170775724864e-01 2.630551489196591763e+00 2.535763312744342670e+02
-2.183561129776214194e-01 2.630551489196596204e+00 2.535788699311342782e+02
1.856842910222704368e-01 2.630551489196582882e+00 2.535814085877342734e+02
5.897246951222372413e-01 2.630551489196585102e+00 2.535839472444342846e+02
9.937650991223371255e-01 2.630551489196578441e+00 2.535864859011342674e+02
1.397805503122145465e+00 2.630551489196587767e+00 2.535890245577342910e+02
1.801845907222297649e+00 2.630551489196590431e+00 2.535915632144342737e+02
-1.026436921077320763e+00 3.034591893196565415e+00 2.535731261137342756e+02
-6.223965170772541855e-01 3.034591893196560086e+00 2.535756647704342868e+02
-2.183561129774245213e-01 3.034591893196558310e+00 2.535782034271342695e+02
1.856842910222604726e-01 3.034591893196556533e+00 2.535807420837342931e+02
5.897246951220369571e-01 3.034591893196553425e+00 2.535832807404342759e+02
9.937650991221921304e-01 3.034591893196553425e+00 2.535858193971342871e+02
1.397805503122113935e+00 3.034591893196547208e+00 2.535883580537342823e+02
1.801845907222227483e+00 3.034591893196556978e+00 2.535908967104342935e+02
2.205886311222356788e+00 3.034591893196557866e+00 2.535934353671342762e+02
-1.026436921078075493e+00 3.438632297196539955e+00 2.535724596097342669e+02
-6.223965170779893752e-01 3.438632297196540843e+00 2.535749982664342781e+02
-2.183561129778132381e-01 3.438632297196535514e+00 2.535775369230342733e+02
1.856842910223855114e-01 3.438632297196529297e+00 2.535800755797342845e+02
5.897246951224434097e-01 3.438632297196532850e+00 2.535826142364342672e+02
9.937650991224660224e-01 3.438632297196533738e+00 2.535851528930342909e+02
1.397805503122393489e+00 3.438632297196547505e+00 2.535876915497342736e+02
1.801845907222233034e+00 3.438632297196550169e+00 2.535902302064342848e+02
2.205886311222141405e+00 3.438632297196548393e+00 2.535927688630342800e+02
-1.026436921077836351e+00 3.842672701296459437e+00 2.535717931057342867e+02
-6.223965170777053801e-01 3.842672701296448334e+00 2.535743317623342818e+02
-2.183561129778153753e-01 3.842672701296431903e+00 2.535768704190342930e+02
1.856842910222223642e-01 3.842672701296434123e+00 2.535794090757342758e+02
5.897246951223007461e-01 3.842672701296436788e+00 2.535819477323342710e+02
9.937650991223118124e-01 3.842672701296427018e+00 2.535844863890342822e+02
1.397805503122130810e+00 3.842672701296430127e+00 2.535870250457342934e+02
1.801845907222131338e+00 3.842672701296404369e+00 2.535895637023342886e+02
2.205886311222331475e+00 3.842672701296407922e+00 2.535921023590342713e+02
-6.223965170779179878e-01 4.246713105296391788e+00 2.535736652583342732e+02
-2.183561129777365495e-01 4.246713105296408663e+00 2.535762039150342844e+02
1.856842910225220966e-01 4.246713105296413993e+00 2.535787425716342796e+02
5.897246951225516565e-01 4.246713105296421098e+00 2.535812812283342907e+02
9.937650991226250063e-01 4.246713105296425539e+00 2.535838198850342735e+02
1.397805503122414139e+00 4.246713105296419322e+00 2.535863585417342847e+02
1.801845907222173526e+00 4.246713105296390900e+00 2.535888971983342799e+02
-6.223965170779183209e-01 4.650753509396470697e+00 2.535729987543342929e+02
-2.183561129781075583e-01 4.650753509396481356e+00 2.535755374110342757e+02
1.856842910219033138e-01 4.650753509396450269e+00 2.535780760676342709e+02
5.897246951220342925e-01 4.650753509396434282e+00 2.535806147243342821e+02
9.937650991222182206e-01 4.650753509396448493e+00 2.535831533810342933e+02
1.397805503122297566e+00 4.650753509396419183e+00 2.535856920376342885e+02
1.801845907222585197e+00 4.650753509396415630e+00 2.535882306943342712e+02
-6.223965170780102474e-01 5.054793913396450122e+00 2.535723322503342843e+02
-2.183561129779256482e-01 5.054793913396417260e+00 2.535748709069342794e+02
1.856842910222346599e-01 5.054793913396415483e+00 2.535774095636342906e+02
5.897246951222244737e-01 5.054793913396412819e+00 2.535799482203342734e+02
9.937650991223845320e-01 5.054793913396414595e+00 2.535824868769342686e+02
1.397805503122248050e+00 5.054793913396408378e+00 2.535850255336342798e+02
1.801845907222324739e+00 5.054793913396403049e+00 2.535875641903342910e+02
-1.026436921078134334e+00 5.458834317396419777e+00 2.535691270896342928e+02
-6.223965170780597633e-01 5.458834317396411784e+00 2.535716657462342880e+02
-2.183561129779922061e-01 5.458834317396396685e+00 2.535742044029342708e+02
1.856842910221080667e-01 5.458834317396410896e+00 2.535767430596342820e+02
5.897246951221476463e-01 5.458834317396395797e+00 2.535792817162342772e+02
9.937650991222104491e-01 5.458834317396401126e+00 2.535818203729342883e+02
1.397805503122275139e+00 5.458834317396391356e+00 2.535843590296342711e+02
1.801845907222294763e+00 5.458834317396370039e+00 2.535868976863342823e+02
2.205886311222544194e+00 5.458834317396366487e+00 2.535894363429342775e+02
-1.026436921078072384e+00 5.862874721496382335e+00 2.535684605856342841e+02
-6.223965170780834111e-01 5.862874721496368124e+00 2.535709992422342793e+02
-2.183561129779422183e-01 5.862874721496381447e+00 2.535735378989342905e+02
1.856842910221907506e-01 5.862874721496371677e+00 2.535760765556342733e+02
5.897246951221388755e-01 5.862874721496356578e+00 2.535786152122342685e+02
9.937650991221784746e-01 5.862874721496341479e+00 2.535811538689342797e+02
1.397805503122214965e+00 5.862874721496333486e+00 2.535836925256342909e+02
1.801845907222322296e+00 5.862874721496329933e+00 2.535862311822342861e+02
2.205886311222506002e+00 5.862874721496337926e+00 2.535887698389342688e+02
-1.026436921077896747e+00 6.266915125496357319e+00 2.535677940815342879e+02
-6.223965170778448242e-01 6.266915125496370642e+00 2.535703327382342707e+02
-2.183561129778497090e-01 6.266915125496369754e+00 2.535728713949342819e+02
1.856842910221906673e-01 6.266915125496373307e+00 2.535754100515342770e+02
5.897246951222457900e-01 6.266915125496356431e+00 2.535779487082342882e+02
9.937650991222551911e-01 6.266915125496340444e+00 2.535804873649342710e+02
1.397805503122160342e+00 6.266915125496347549e+00 2.535830260215342662e+02
1.801845907222095367e+00 6.266915125496359984e+00 2.535855646782342774e+02
-1.026436921077684916e+00 6.670955529596370503e+00 2.535671275775342792e+02
-6.223965170777102651e-01 6.670955529596372280e+00 2.535696662342342904e+02
-2.183561129776959431e-01 6.670955529596356293e+00 2.535722048908342856e+02
1.856842910224039411e-01 6.670955529596375833e+00 2.535747435475342684e+02
5.897246951221906119e-01 6.670955529596373168e+00 2.535772822042342796e+02
9.937650991221107510e-01 6.670955529596358957e+00 2.535798208608342748e+02
1.397805503121897885e+00 6.670955529596351852e+00 2.535823595175342859e+02
1.801845907221869769e+00 6.670955529596354516e+00 2.535848981742342687e+02
-1.026436921077648945e+00 7.074995933596418318e+00 2.535664610735342706e+02
-6.223965170776076805e-01 7.074995933596413877e+00 2.535689997302342817e+02
-2.183561129775819787e-01 7.074995933596409436e+00 2.535715383868342769e+02
1.856842910224318632e-01 7.074995933596397890e+00 2.535740770435342881e+02
5.897246951222285816e-01 7.074995933596373021e+00 2.535766157002342709e+02
9.937650991220406960e-01 7.074995933596371245e+00 2.535791543568342661e+02
1.397805503121765991e+00 7.074995933596371245e+00 2.535816930135342773e+02
1.801845907221848231e+00 7.074995933596365028e+00 2.535842316702342885e+02
-6.223965170775366262e-01 7.479036337596439488e+00 2.535683332261342855e+02
-2.183561129775243026e-01 7.479036337596442152e+00 2.535708718828342683e+02
1.856842910224019427e-01 7.479036337596443040e+00 2.535734105395342795e+02
5.897246951222619993e-01 7.479036337596417283e+00 2.535759491961342746e+02
9.937650991220091656e-01 7.479036337596433270e+00 2.535784878528342858e+02
1.397805503121902992e+00 7.479036337596424389e+00 2.535810265095342686e+02
1.801845907222001886e+00 7.479036337596428829e+00 2.535835651661342922e+02
-1.026436921077720221e+00 7.883076741696467771e+00 2.535651280654342656e+02
-6.223965170775801470e-01 7.883076741696466883e+00 2.535676667221342768e+02
-2.183561129775793141e-01 7.883076741696458889e+00 2.535702053788342880e+02
1.856842910223730214e-01 7.883076741696451784e+00 2.535727440354342832e+02
5.897246951222597788e-01 7.883076741696439349e+00 2.535752826921342660e+02
9.937650991221935737e-01 7.883076741696441125e+00 2.535778213488342772e+02
1.397805503122200754e+00 7.883076741696446454e+00 2.535803600054342724e+02
1.801845907222090259e+00 7.883076741696454448e+00 2.535828986621342835e+02
-1.026436921077731990e+00 8.287117145696459630e+00 2.535644615614342854e+02
-6.223965170777072675e-01 8.287117145696466736e+00 2.535670002181342682e+02
-2.183561129776193654e-01 8.287117145696452525e+00 2.535695388747342918e+02
1.856842910223140131e-01 8.287117145696431209e+00 2.535720775314342745e+02
5.897246951223111822e-01 8.287117145696457854e+00 2.535746161881342857e+02
9.937650991223523356e-01 8.287117145696456078e+00 2.535771548448342685e+02
1.397805503122354409e+00 8.287117145696459630e+00 2.535796935014342921e+02
1.801845907222310084e+00 8.287117145696470288e+00 2.535822321581342749e+02
2.205886311222374108e+00 8.287117145696464959e+00 2.535847708148342861e+02
-1.026436921077954478e+00 8.691157549796447057e+00 2.535637950574342767e+02
-6.223965170777887579e-01 8.691157549796468373e+00 2.535663337141342879e+02
-2.183561129777501775e-01 8.691157549796487913e+00 2.535688723707342831e+02
1.856842910222835652e-01 8.691157549796482584e+00 2.535714110274342659e+02
5.897246951224242029e-01 8.691157549796471926e+00 2.535739496841342770e+02
9.937650991225308594e-01 8.691157549796475479e+00 2.535764883407342722e+02
1.397805503122394599e+00 8.691157549796466597e+00 2.535790269974342834e+02
1.801845907222416887e+00 8.691157549796470150e+00 2.535815656541342662e+02
2.205886311222432727e+00 8.691157549796457715e+00 2.535841043107342898e+02
-1.026436921077956255e+00 9.095197953796464674e+00 2.535631285534342680e+02
-6.223965170777707723e-01 9.095197953796464674e+00 2.535656672100342917e+02
-2.183561129777397414e-01 9.095197953796434476e+00 2.535682058667342744e+02
1.856842910224148491e-01 9.095197953796441581e+00 2.535707445234342856e+02
5.897246951225070255e-01 9.095197953796432699e+00 2.535732831800342808e+02
9.937650991224928898e-01 9.095197953796448687e+00 2.535758218367342920e+02
1.397805503122462101e+00 9.095197953796423818e+00 2.535783604934342748e+02
1.801845907222451748e+00 9.095197953796402501e+00 2.535808991500342700e+02
-1.026436921077788167e+00 9.499238357796460974e+00 2.535624620493342718e+02
-6.223965170778378297e-01 9.499238357796475185e+00 2.535650007060342830e+02
-2.183561129777007170e-01 9.499238357796452092e+00 2.535675393627342658e+02
1.856842910222854526e-01 9.499238357796464527e+00 2.535700780193342894e+02
5.897246951223638067e-01 9.499238357796466303e+00 2.535726166760342721e+02
9.937650991224107333e-01 9.499238357796455645e+00 2.535751553327342833e+02
1.397805503122379500e+00 9.499238357796462751e+00 2.535776939894342661e+02
1.801845907222346499e+00 9.499238357796436105e+00 2.535802326460342897e+02
2.205886311222494900e+00 9.499238357796450316e+00 2.535827713027342725e+02
-1.026436921077834796e+00 9.903278761896471494e+00 2.535617955453342915e+02
-6.223965170777605582e-01 9.903278761896466165e+00 2.535643342020342743e+02
-2.183561129778764653e-01 9.903278761896482152e+00 2.535668728587342855e+02
1.856842910222176735e-01 9.903278761896480376e+00 2.535694115153342807e+02
5.897246951222574474e-01 9.903278761896462612e+00 2.535719501720342919e+02
9.937650991223193619e-01 9.903278761896455507e+00 2.535744888287342746e+02
1.397805503122312887e+00 9.903278761896467941e+00 2.535770274853342698e+02
1.801845907222352050e+00 9.903278761896459059e+00 2.535795661420342810e+02
2.205886311222481577e+00 9.903278761896455507e+00 2.535821047987342922e+02
-6.223965170777490119e-01 1.030731916589647668e+01 2.535636676980342656e+02
-2.183561129777029097e-01 1.030731916589647312e+01 2.535662063546342893e+02
1.856842910222737120e-01 1.030731916589645358e+01 2.535687450113342720e+02
5.897246951222870903e-01 1.030731916589644648e+01 2.535712836680342832e+02
9.937650991223186958e-01 1.030731916589646069e+01 2.535738223246342784e+02
1.397805503122251825e+00 1.030731916589641983e+01 2.535763609813342896e+02
1.801845907222358267e+00 1.030731916589642339e+01 2.535788996380342724e+02
2.205886311222482465e+00 1.030731916589644648e+01 2.535814382946342675e+02
-6.223965170777066014e-01 1.071135956999645877e+01 2.535630011939342694e+02
-2.183561129776880605e-01 1.071135956999647831e+01 2.535655398506342806e+02
1.856842910222721854e-01 1.071135956999646943e+01 2.535680785073342918e+02
5.897246951222706590e-01 1.071135956999648542e+01 2.535706171639342870e+02
9.937650991223827557e-01 1.071135956999648187e+01 2.535731558206342697e+02
1.397805503122352411e+00 1.071135956999647831e+01 2.535756944773342809e+02
1.801845907222193288e+00 1.071135956999647121e+01 2.535782331339342761e+02
2.205886311222452711e+00 1.071135956999646588e+01 2.535807717906342873e+02
-6.223965170777345790e-01 1.111539997399648705e+01 2.535623346899342891e+02
-2.183561129776759036e-01 1.111539997399648350e+01 2.535648733466342719e+02
1.856842910223123755e-01 1.111539997399647461e+01 2.535674120033342831e+02
5.897246951222396838e-01 1.111539997399651369e+01 2.535699506599342783e+02
9.937650991223522245e-01 1.111539997399650481e+01 2.535724893166342895e+02
1.397805503122286463e+00 1.111539997399647994e+01 2.535750279733342722e+02
1.801845907222248577e+00 1.111539997399647994e+01 2.535775666299342674e+02
2.205886311222467366e+00 1.111539997399647284e+01 2.535801052866342786e+02
-1.026436921077720665e+00 1.151944037809647270e+01 2.535591295292342693e+02
-6.223965170777135958e-01 1.151944037809647980e+01 2.535616681859342805e+02
-2.183561129777159548e-01 1.151944037809647625e+01 2.535642068426342917e+02
1.856842910222841758e-01 1.151944037809647448e+01 2.535667454992342869e+02
5.897246951222300249e-01 1.151944037809648336e+01 2.535692841559342696e+02
9.937650991223294650e-01 1.151944037809647980e+01 2.535718228126342808e+02
1.397805503122297122e+00 1.151944037809649757e+01 2.535743614692342760e+02
1.801845907222261456e+00 1.151944037809647625e+01 2.535769001259342872e+02
2.205886311222314156e+00 1.151944037809645671e+01 2.535794387826342700e+02
-1.026436921077828135e+00 1.192348078209647966e+01 2.535584630252342890e+02
-6.223965170777246980e-01 1.192348078209646545e+01 2.535610016819342718e+02
-2.183561129777568111e-01 1.192348078209650453e+01 2.535635403385342670e+02
1.856842910223812926e-01 1.192348078209652051e+01 2.535660789952342782e+02
5.897246951223800160e-01 1.192348078209650630e+01 2.535686176519342894e+02
9.937650991223171415e-01 1.192348078209652407e+01 2.535711563085342846e+02
1.397805503122254267e+00 1.192348078209652051e+01 2.535736949652342673e+02
1.801845907222257459e+00 1.192348078209651518e+01 2.535762336219342785e+02
-1.026436921077774622e+00 1.232752118609647951e+01 2.535577965212342804e+02
-6.223965170777292499e-01 1.232752118609650971e+01 2.535603351778342756e+02
-2.183561129777993326e-01 1.232752118609652214e+01 2.535628738345342867e+02
1.856842910223661935e-01 1.232752118609651681e+01 2.535654124912342695e+02
5.897246951223771294e-01 1.232752118609653280e+01 2.535679511479342807e+02
9.937650991223032637e-01 1.232752118609653635e+01 2.535704898045342759e+02
1.397805503122344639e+00 1.232752118609652925e+01 2.535730284612342871e+02
1.801845907222241028e+00 1.232752118609652570e+01 2.535755671179342698e+02
-1.026436921077843678e+00 1.273156159019650957e+01 2.535571300172342717e+02
-6.223965170777303602e-01 1.273156159019649536e+01 2.535596686738342669e+02
-2.183561129777861487e-01 1.273156159019651845e+01 2.535622073305342781e+02
1.856842910222802623e-01 1.273156159019651490e+01 2.535647459872342893e+02
5.897246951223050759e-01 1.273156159019652023e+01 2.535672846438342845e+02
9.937650991223589969e-01 1.273156159019651490e+01 2.535698233005342672e+02
1.397805503122264703e+00 1.273156159019651668e+01 2.535723619572342784e+02
1.801845907222216825e+00 1.273156159019651668e+01 2.535749006138342736e+02
2.205886311222206242e+00 1.273156159019649891e+01 2.535774392705342848e+02
-6.223965170777436828e-01 1.313560199419650054e+01 2.535590021698342866e+02
-2.183561129777974452e-01 1.313560199419650587e+01 2.535615408265342694e+02
1.856842910222802623e-01 1.313560199419651475e+01 2.535640794831342930e+02
5.897246951222935296e-01 1.313560199419650942e+01 2.535666181398342758e+02
9.937650991223467845e-01 1.313560199419650942e+01 2.535691567965342870e+02
1.397805503122304893e+00 1.313560199419652186e+01 2.535716954531342822e+02
1.801845907222244358e+00 1.313560199419649344e+01 2.535742341098342933e+02
2.205886311222206686e+00 1.313560199419649344e+01 2.535767727665342761e+02
1.856842910222812892e-01 1.353964239829650396e+01 2.535634129791342843e+02
5.897246951222681055e-01 1.353964239829650928e+01 2.535659516358342671e+02
9.937650991223060393e-01 1.353964239829651106e+01 2.535684902925342783e+02
2.609926715322302915e+00 1.353964239829649330e+01 2.535786449191342911e+02
