1.756314227284817286e-01 -1.191226375605946508e+01 2.552053689741322842e+02
5.796718268287056608e-01 -1.191226375605944909e+01 2.552079076307322794e+02
1.756314227285759588e-01 -1.150822335205942260e+01 2.552047024701322755e+02
5.796718268287047726e-01 -1.150822335205943858e+01 2.552072411267322991e+02
1.756314227286168705e-01 -1.110418294795942273e+01 2.552040359660322792e+02
9.837122308286427863e-01 -9.488021331759476595e+00 2.552064472633322794e+02
-1.036489789371621173e+00 -9.083980927759505164e+00 2.551930874759322876e+02
5.796718268286061848e-01 -9.083980927759441215e+00 2.552032421026322879e+02
9.837122308287454819e-01 -9.083980927759439439e+00 2.552057807593322991e+02
-1.036489789371578096e+00 -8.679940523759524851e+00 2.551924209719322789e+02
-6.324493853717655378e-01 -8.679940523759499982e+00 2.551949596286322901e+02
-2.284089812717085832e-01 -8.679940523759492876e+00 2.551974982852322853e+02
1.756314227285809271e-01 -8.679940523759515969e+00 2.552000369419322965e+02
5.796718268288006959e-01 -8.679940523759535509e+00 2.552025755986322793e+02
9.837122308290260353e-01 -8.679940523759531956e+00 2.552051142552323029e+02
-1.036489789371752623e+00 -8.275900119659505449e+00 2.551917544679322987e+02
-6.324493853716851577e-01 -8.275900119659521437e+00 2.551942931245322939e+02
-2.284089812715345558e-01 -8.275900119659509002e+00 2.551968317812322766e+02
1.756314227287052998e-01 -8.275900119659523213e+00 2.551993704379322878e+02
5.796718268290383946e-01 -8.275900119659530318e+00 2.552019090945322830e+02
9.837122308291251782e-01 -8.275900119659537424e+00 2.552044477512322942e+02
-1.036489789371513925e+00 -7.871859715659589973e+00 2.551910879638323024e+02
-6.324493853714220348e-01 -7.871859715659565104e+00 2.551936266205322852e+02
-2.284089812713662737e-01 -7.871859715659544676e+00 2.551961652772322964e+02
1.756314227286802365e-01 -7.871859715659521584e+00 2.551987039338322916e+02
5.796718268287307518e-01 -7.871859715659494050e+00 2.552012425905323028e+02
9.837122308289258932e-01 -7.871859715659515366e+00 2.552037812472322855e+02
1.387752634829067855e+00 -7.871859715659542012e+00 2.552063199038322807e+02
1.791793038928955362e+00 -7.871859715659559775e+00 2.552088585605322919e+02
-1.036489789371220160e+00 -7.467819311559531492e+00 2.551904214598322937e+02
-6.324493853716526282e-01 -7.467819311559517281e+00 2.551929601165322765e+02
-2.284089812715978662e-01 -7.467819311559530604e+00 2.551954987732322877e+02
1.756314227284825336e-01 -7.467819311559517281e+00 2.551980374298322829e+02
5.796718268285465658e-01 -7.467819311559499518e+00 2.552005760865322941e+02
9.837122308286203598e-01 -7.467819311559499518e+00 2.552031147432322769e+02
1.387752634828863130e+00 -7.467819311559545703e+00 2.552056533998323005e+02
1.791793038929033743e+00 -7.467819311559527051e+00 2.552081920565322832e+02
-1.036489789371344061e+00 -7.063778907559484566e+00 2.551897549558322851e+02
-6.324493853714852065e-01 -7.063778907559468578e+00 2.551922936125322963e+02
-2.284089812715838497e-01 -7.063778907559467690e+00 2.551948322691322915e+02
1.756314227283565510e-01 -7.063778907559451703e+00 2.551973709258323026e+02
5.796718268284243303e-01 -7.063778907559470355e+00 2.551999095825322854e+02
9.837122308285168870e-01 -7.063778907559452591e+00 2.552024482391322806e+02
1.387752634828939291e+00 -7.063778907559449927e+00 2.552049868958322918e+02
1.791793038929253568e+00 -7.063778907559471243e+00 2.552075255525323030e+02
-6.324493853714242553e-01 -6.659738503559464284e+00 2.551916271084323000e+02
-2.284089812715875689e-01 -6.659738503559433198e+00 2.551941657651322828e+02
1.756314227284333507e-01 -6.659738503559437639e+00 2.551967044218322940e+02
5.796718268286789044e-01 -6.659738503559431422e+00 2.551992430784322892e+02
9.837122308287332695e-01 -6.659738503559439415e+00 2.552017817351323004e+02
1.387752634828982146e+00 -6.659738503559468725e+00 2.552043203918322831e+02
1.791793038929121895e+00 -6.659738503559471390e+00 2.552068590484322783e+02
2.195833442928792678e+00 -6.659738503559456291e+00 2.552093977051322895e+02
-6.324493853713248903e-01 -6.255698099459472417e+00 2.551909606044322913e+02
-2.284089812714505674e-01 -6.255698099459407580e+00 2.551934992611323025e+02
1.756314227286522311e-01 -6.255698099459369388e+00 2.551960379178322853e+02
5.796718268287376352e-01 -6.255698099459361394e+00 2.551985765744322805e+02
9.837122308286679884e-01 -6.255698099459366723e+00 2.552011152311322917e+02
1.387752634828824494e+00 -6.255698099459413797e+00 2.552036538878323029e+02
1.791793038928906512e+00 -6.255698099459450212e+00 2.552061925444322981e+02
-1.036489789371245029e+00 -5.851657695459487663e+00 2.551877554437322999e+02
-6.324493853713468727e-01 -5.851657695459454800e+00 2.551902941004322827e+02
-2.284089812712964407e-01 -5.851657695459428155e+00 2.551928327571322939e+02
1.756314227288963137e-01 -5.851657695459427266e+00 2.551953714137322891e+02
5.796718268289816622e-01 -5.851657695459418385e+00 2.551979100704323002e+02
9.837122308288988037e-01 -5.851657695459371311e+00 2.552004487271322830e+02
1.387752634828803400e+00 -5.851657695459404174e+00 2.552029873837322782e+02
1.791793038928764181e+00 -5.851657695459420161e+00 2.552055260404322894e+02
-1.036489789371339398e+00 -5.447617291359529546e+00 2.551870889397322912e+02
-6.324493853712225278e-01 -5.447617291359509117e+00 2.551896275964323024e+02
-2.284089812708982037e-01 -5.447617291359507341e+00 2.551921662530322976e+02
1.756314227290015073e-01 -5.447617291359491354e+00 2.551947049097322804e+02
1.791793038928686910e+00 -5.447617291359508229e+00 2.552048595364322807e+02
2.195833442928594614e+00 -5.447617291359525105e+00 2.552073981930322759e+02
-1.036489789371340287e+00 -5.043576887359520811e+00 2.551864224357322826e+02
-6.324493853712003233e-01 -5.043576887359525251e+00 2.551889610923322778e+02
-2.284089812710924372e-01 -5.043576887359494165e+00 2.551914997490322889e+02
1.756314227288829077e-01 -5.043576887359495942e+00 2.551940384057323001e+02
1.791793038928874759e+00 -5.043576887359537686e+00 2.552041930324323005e+02
2.195833442928704748e+00 -5.043576887359560779e+00 2.552067316890322957e+02
-1.036489789371484393e+00 -4.639536483359478325e+00 2.551857559317323023e+02
-6.324493853715148495e-01 -4.639536483359502306e+00 2.551882945883322975e+02
-2.284089812713890055e-01 -4.639536483359445462e+00 2.551908332450322803e+02
1.756314227287059659e-01 -4.639536483359451680e+00 2.551933719017322915e+02
5.796718268287419651e-01 -4.639536483359481878e+00 2.551959105583322867e+02
-6.324493853716047775e-01 -4.235496079259465141e+00 2.551876280843322888e+02
-2.284089812717908230e-01 -4.235496079259530866e+00 2.551901667410323000e+02
1.756314227285762919e-01 -4.235496079259546853e+00 2.551927053976322952e+02
5.796718268288588716e-01 -4.235496079259584157e+00 2.551952440543322780e+02
9.837122308291317285e-01 -4.235496079259599256e+00 2.551977827110322892e+02
-2.284089812719112267e-01 -3.831455675259438642e+00 2.551895002369322754e+02
1.756314227281099427e-01 -3.831455675259445304e+00 2.551920388936322865e+02
5.796718268284559716e-01 -3.831455675259457738e+00 2.551945775503322977e+02
9.837122308287490347e-01 -3.831455675259471949e+00 2.551971162069322929e+02
1.387752634828708809e+00 -3.831455675259479943e+00 2.551996548636322757e+02
1.791793038928738424e+00 -3.831455675259483051e+00 2.552021935203322869e+02
1.387752634828264275e+00 -3.427415271159469423e+00 2.551989883596322954e+02
1.791793038928363391e+00 -3.427415271159474752e+00 2.552015270163322782e+02
1.387752634828147924e+00 -3.023374867159496659e+00 2.551983218556322868e+02
1.791793038928314541e+00 -3.023374867159517532e+00 2.552008605122322820e+02
1.791793038928092496e+00 -2.619334463159553650e+00 2.552001940082323017e+02
-6.324493853713754055e-01 -2.215294059059534693e+00 2.551842955642322863e+02
-2.284089812716766921e-01 -2.215294059059560894e+00 2.551868342209322975e+02
1.756314227283860552e-01 -2.215294059059574661e+00 2.551893728775322927e+02
1.791793038927974591e+00 -2.215294059059523146e+00 2.551995275042322930e+02
-1.036489789371634496e+00 -1.811253655059529954e+00 2.551810904035322949e+02
-6.324493853716797176e-01 -1.811253655059531509e+00 2.551836290602322777e+02
-2.284089812715719980e-01 -1.811253655059542167e+00 2.551861677168323013e+02
1.756314227280916240e-01 -1.811253655059543943e+00 2.551887063735322840e+02
5.796718268280308672e-01 -1.811253655059549050e+00 2.551912450302322952e+02
-6.324493853716315339e-01 -1.407213250959438389e+00 2.551829625561322814e+02
5.796718268280905972e-01 -1.407213250959413298e+00 2.551905785261322990e+02
1.387752634827561726e+00 -1.407213250959422179e+00 2.551956558395322929e+02
1.791793038927500081e+00 -1.407213250959418183e+00 2.551981944961322881e+02
2.195833442927745960e+00 -1.407213250959421957e+00 2.552007331528322993e+02
5.796718268283420628e-01 -1.003172846959422104e+00 2.551899120221322903e+02
9.837122308281032179e-01 -1.003172846959416553e+00 2.551924506788323015e+02
1.387752634827659204e+00 -1.003172846959410336e+00 2.551949893355322843e+02
1.791793038927194326e+00 -1.003172846959401232e+00 2.551975279921322795e+02
2.195833442927136669e+00 -1.003172846959406783e+00 2.552000666488322906e+02
5.796718268284219988e-01 -5.991324429594380163e-01 2.551892455181322816e+02
9.837122308280717986e-01 -5.991324429594289125e-01 2.551917841748322928e+02
1.387752634827791987e+00 -5.991324429594215850e-01 2.551943228314322880e+02
1.791793038927594006e+00 -5.991324429594140355e-01 2.551968614881322992e+02
1.387752634827783993e+00 -1.950920388594221955e-01 2.551936563274322793e+02
1.791793038927858461e+00 -1.950920388594276633e-01 2.551961949841322905e+02
1.387752634828308240e+00 2.089483651405512066e-01 2.551929898234322991e+02
1.791793038928521709e+00 2.089483651405507625e-01 2.551955284801322819e+02
2.195833442928718515e+00 2.089483651405500964e-01 2.551980671367322770e+02
1.791793038928173543e+00 6.129887692405489030e-01 2.551948619760322856e+02
2.195833442928419199e+00 6.129887692405451283e-01 2.551974006327322968e+02
-6.324493853723688330e-01 1.017029173240586948e+00 2.551789635320322986e+02
-2.284089812724013069e-01 1.017029173240582063e+00 2.551815021887322814e+02
1.791793038928549908e+00 1.017029173240561191e+00 2.551941954720322769e+02
-6.324493853716859348e-01 1.421069577240572590e+00 2.551782970280322900e+02
-2.284089812718247126e-01 1.421069577240565041e+00 2.551808356846322852e+02
1.756314227283358731e-01 1.421069577240559045e+00 2.551833743413322964e+02
5.796718268282906594e-01 1.421069577240559267e+00 2.551859129980322791e+02
1.791793038928055637e+00 1.421069577240572368e+00 2.551935289680322967e+02
-6.324493853718189396e-01 1.825109981340588217e+00 2.551776305240322813e+02
-2.284089812717926549e-01 1.825109981340574006e+00 2.551801691806322765e+02
1.756314227281284279e-01 1.825109981340581777e+00 2.551827078373322877e+02
5.796718268284144493e-01 1.825109981340591769e+00 2.551852464940322989e+02
9.837122308283320349e-01 1.825109981340598209e+00 2.551877851506322941e+02
1.387752634828309573e+00 1.825109981340616638e+00 2.551903238073322768e+02
1.791793038928430670e+00 1.825109981340599541e+00 2.551928624640322880e+02
-6.324493853711048441e-01 2.229150385340592067e+00 2.551769640199322851e+02
-2.284089812709887146e-01 2.229150385340577856e+00 2.551795026766322962e+02
1.756314227286039920e-01 2.229150385340589402e+00 2.551820413333322790e+02
5.796718268282945452e-01 2.229150385340600060e+00 2.551845799899323026e+02
9.837122308280165095e-01 2.229150385340591622e+00 2.551871186466322854e+02
1.387752634827841280e+00 2.229150385340616491e+00 2.551896573033322966e+02
1.791793038928038762e+00 2.229150385340615603e+00 2.551921959599322918e+02
-1.036489789371278780e+00 2.633190789440651436e+00 2.551737588592322936e+02
-6.324493853714633351e-01 2.633190789440647883e+00 2.551762975159322764e+02
-2.284089812715422441e-01 2.633190789440655877e+00 2.551788361726322876e+02
1.756314227282829987e-01 2.633190789440634116e+00 2.551813748292322828e+02
5.796718268282294861e-01 2.633190789440637669e+00 2.551839134859322940e+02
9.837122308283906547e-01 2.633190789440626567e+00 2.551864521426322767e+02
1.387752634828081311e+00 2.633190789440642110e+00 2.551889907992323003e+02
1.791793038928327197e+00 2.633190789440646551e+00 2.551915294559322831e+02
-1.036489789371056514e+00 3.037231193440605992e+00 2.551730923552322849e+02
-6.324493853709490798e-01 3.037231193440597110e+00 2.551756310119322961e+02
-2.284089812712242484e-01 3.037231193440594001e+00 2.551781696686322789e+02
1.756314227282669282e-01 3.037231193440591781e+00 2.551807083252323025e+02
5.796718268279057451e-01 3.037231193440586452e+00 2.551832469819322853e+02
9.837122308281565086e-01 3.037231193440586452e+00 2.551857856386322965e+02
1.387752634828030462e+00 3.037231193440576238e+00 2.551883242952322917e+02
1.791793038928213733e+00 3.037231193440591781e+00 2.551908629519323028e+02
2.195833442928422308e+00 3.037231193440594001e+00 2.551934016086322856e+02
-1.036489789372275983e+00 3.441271597440564101e+00 2.551724258512322763e+02
-6.324493853721365744e-01 3.441271597440565877e+00 2.551749645079322875e+02
1.756314227284689333e-01 3.441271597440547225e+00 2.551800418212322938e+02
5.796718268285625530e-01 3.441271597440552998e+00 2.551825804779322766e+02
9.837122308285988215e-01 3.441271597440554331e+00 2.551851191345323002e+02
1.387752634828481657e+00 3.441271597440576535e+00 2.551876577912322830e+02
1.791793038928222614e+00 3.441271597440581420e+00 2.551901964479322942e+02
2.195833442928074586e+00 3.441271597440578311e+00 2.551927351045322894e+02
1.756314227282053664e-01 3.845312001540393876e+00 2.551793753172322852e+02
5.796718268283320707e-01 3.845312001540397873e+00 2.551819139738322804e+02
9.837122308283499095e-01 3.845312001540381885e+00 2.551844526305322916e+02
1.387752634828057552e+00 3.845312001540387659e+00 2.551869912872323027e+02
1.791793038928058301e+00 3.845312001540345470e+00 2.551895299438322979e+02
2.195833442928381452e+00 3.845312001540351687e+00 2.551920686005322807e+02
1.756314227286895346e-01 4.249352405540360422e+00 2.551787088131322889e+02
5.796718268287371911e-01 4.249352405540371969e+00 2.551812474698323001e+02
9.837122308288558381e-01 4.249352405540379074e+00 2.551837861265322829e+02
1.387752634828515408e+00 4.249352405540369304e+00 2.551863247832322941e+02
1.791793038928126469e+00 4.249352405540323119e+00 2.551888634398322893e+02
-6.324493853720218883e-01 4.653392809640451766e+00 2.551729649958323023e+02
5.796718268279015263e-01 4.653392809640394034e+00 2.551805809658322914e+02
9.837122308281986971e-01 4.653392809640417127e+00 2.551831196225323026e+02
1.387752634828326892e+00 4.653392809640369165e+00 2.551856582791322978e+02
1.791793038928791493e+00 4.653392809640363836e+00 2.551881969358322806e+02
-6.324493853721704362e-01 5.057433213640419645e+00 2.551722984918322936e+02
5.796718268282088360e-01 5.057433213640359249e+00 2.551799144618322828e+02
9.837122308284673711e-01 5.057433213640362801e+00 2.551824531184322780e+02
1.387752634828246956e+00 5.057433213640351255e+00 2.551849917751322891e+02
1.791793038928370496e+00 5.057433213640343261e+00 2.551875304318323003e+02
-1.036489789372370796e+00 5.461473617640370648e+00 2.551690933311323022e+02
-6.324493853722504833e-01 5.461473617640358214e+00 2.551716319877322974e+02
5.796718268280847131e-01 5.461473617640331568e+00 2.551792479577322865e+02
9.837122308281860406e-01 5.461473617640340450e+00 2.551817866144322977e+02
1.387752634828290477e+00 5.461473617640324463e+00 2.551843252711322805e+02
1.791793038928322535e+00 5.461473617640290712e+00 2.551868639278322917e+02
2.195833442928725177e+00 5.461473617640284495e+00 2.551894025844322869e+02
-1.036489789372270653e+00 5.865514021740310113e+00 2.551684268271322935e+02
-6.324493853722885639e-01 5.865514021740287021e+00 2.551709654837322887e+02
-2.284089812720604962e-01 5.865514021740308337e+00 2.551735041404322999e+02
1.756314227281542684e-01 5.865514021740293238e+00 2.551760427971322827e+02
5.796718268280705022e-01 5.865514021740269257e+00 2.551785814537322779e+02
9.837122308281345262e-01 5.865514021740243500e+00 2.551811201104322890e+02
1.387752634828193443e+00 5.865514021740231954e+00 2.551836587671323002e+02
1.791793038928366721e+00 5.865514021740224848e+00 2.551861974237322954e+02
2.195833442928663892e+00 5.865514021740238171e+00 2.551887360804322782e+02
-1.036489789371987102e+00 6.269554425740269998e+00 2.551677603230322973e+02
-6.324493853719032055e-01 6.269554425740291315e+00 2.551702989797322800e+02
-2.284089812719110602e-01 6.269554425740289538e+00 2.551728376364322912e+02
1.756314227281541573e-01 6.269554425740294867e+00 2.551753762930322864e+02
5.796718268282431419e-01 6.269554425740268222e+00 2.551779149497322976e+02
9.837122308282583161e-01 6.269554425740241577e+00 2.551804536064322804e+02
1.387752634828105069e+00 6.269554425740253123e+00 2.551829922630322756e+02
1.791793038928000126e+00 6.269554425740273551e+00 2.551855309197322867e+02
-1.036489789371644710e+00 6.673594829840291176e+00 2.551670938190322886e+02
-6.324493853716858238e-01 6.673594829840292952e+00 2.551696324757322998e+02
-2.284089812716626477e-01 6.673594829840267195e+00 2.551721711323322950e+02
9.837122308280250582e-01 6.673594829840272524e+00 2.551797871023322841e+02
1.387752634827681186e+00 6.673594829840260978e+00 2.551823257590322953e+02
1.791793038927635529e+00 6.673594829840264531e+00 2.551848644157322781e+02
-1.036489789371586534e+00 7.077635233840368301e+00 2.551664273150322799e+02
-6.324493853715200675e-01 7.077635233840361195e+00 2.551689659717322911e+02
-1.036489789371701775e+00 7.885716041940447951e+00 2.551650943069322750e+02
-1.036489789371720871e+00 8.289756445940435370e+00 2.551644278029322948e+02
-6.324493853716809388e-01 8.289756445940446028e+00 2.551669664596322775e+02
-1.036489789372080361e+00 8.693796850040415691e+00 2.551637612989322861e+02
-6.324493853718125003e-01 8.693796850040447666e+00 2.551662999556322973e+02
-2.284089812717502999e-01 8.693796850040481416e+00 2.551688386122322925e+02
1.756314227283042317e-01 8.693796850040470758e+00 2.551713772689322752e+02
5.796718268285314668e-01 8.693796850040454771e+00 2.551739159256322864e+02
2.195833442928545320e+00 8.693796850040433455e+00 2.551840705522322992e+02
-1.036489789372083026e+00 9.097837254040442190e+00 2.551630947949322774e+02
-6.324493853717835234e-01 9.097837254040442190e+00 2.551656334515323010e+02
-2.284089812717334245e-01 9.097837254040394228e+00 2.551681721082322838e+02
1.756314227285162843e-01 9.097837254040404886e+00 2.551707107649322950e+02
5.796718268286651377e-01 9.097837254040390675e+00 2.551732494215322902e+02
9.837122308286422312e-01 9.097837254040415544e+00 2.551757880782323014e+02
-1.036489789371811465e+00 9.501877658040436714e+00 2.551624282908322812e+02
-6.324493853718918812e-01 9.501877658040459806e+00 2.551649669475322924e+02
-2.284089812716703638e-01 9.501877658040422503e+00 2.551675056042322751e+02
1.756314227283072849e-01 9.501877658040442043e+00 2.551700442608322987e+02
5.796718268284338782e-01 9.501877658040447372e+00 2.551725829175322815e+02
9.837122308285095595e-01 9.501877658040427832e+00 2.551751215742322927e+02
1.387752634828459231e+00 9.501877658040440267e+00 2.551776602309322755e+02
1.791793038928405801e+00 9.501877658040397634e+00 2.551801988875322991e+02
2.195833442928645240e+00 9.501877658040420727e+00 2.551827375442322818e+02
-1.036489789371886960e+00 9.905918062140454339e+00 2.551617617868323009e+02
-6.324493853717669811e-01 9.905918062140445457e+00 2.551643004435322837e+02
-2.284089812719542756e-01 9.905918062140470326e+00 2.551668391002322949e+02
1.756314227281977614e-01 9.905918062140470326e+00 2.551693777568322901e+02
5.796718268282620157e-01 9.905918062140440128e+00 2.551719164135323012e+02
9.837122308283618999e-01 9.905918062140427693e+00 2.551744550702322840e+02
1.387752634828351761e+00 9.905918062140449010e+00 2.551769937268322792e+02
1.791793038928414683e+00 9.905918062140433022e+00 2.551795323835322904e+02
2.195833442928623924e+00 9.905918062140429470e+00 2.551820710402323016e+02
-6.324493853717484404e-01 1.030995846614046307e+01 2.551636339395322750e+02
-2.284089812716739443e-01 1.030995846614045774e+01 2.551661725961322986e+02
1.756314227282883000e-01 1.030995846614042399e+01 2.551687112528322814e+02
5.796718268283099773e-01 1.030995846614041334e+01 2.551712499095322926e+02
9.837122308283607897e-01 1.030995846614043643e+01 2.551737885661322878e+02
1.387752634828252951e+00 1.030995846614037070e+01 2.551763272228322990e+02
1.791793038928424897e+00 1.030995846614037603e+01 2.551788658795322817e+02
2.195833442928625701e+00 1.030995846614041511e+01 2.551814045361322769e+02
-6.324493853716799396e-01 1.071399887024043451e+01 2.551629674354322788e+02
-2.284089812716499357e-01 1.071399887024046471e+01 2.551655060921322900e+02
1.756314227282858575e-01 1.071399887024045050e+01 2.551680447488323011e+02
5.796718268282833320e-01 1.071399887024047537e+01 2.551705834054322963e+02
9.837122308284642624e-01 1.071399887024047004e+01 2.551731220621322791e+02
1.387752634828415710e+00 1.071399887024046649e+01 2.551756607188322903e+02
1.791793038928158444e+00 1.071399887024045228e+01 2.551781993754322855e+02
2.195833442928577295e+00 1.071399887024044340e+01 2.551807380321322967e+02
-6.324493853717251257e-01 1.111803927424047878e+01 2.551623009314322985e+02
-2.284089812716303125e-01 1.111803927424047345e+01 2.551648395881322813e+02
1.756314227283507778e-01 1.111803927424045924e+01 2.551673782448322925e+02
5.796718268282332609e-01 1.111803927424052141e+01 2.551699169014322877e+02
9.837122308284150796e-01 1.111803927424050720e+01 2.551724555581322988e+02
1.387752634828308906e+00 1.111803927424046812e+01 2.551749942148322816e+02
1.791793038928247483e+00 1.111803927424046812e+01 2.551775328714322768e+02
2.195833442928600832e+00 1.111803927424045568e+01 2.551800715281322880e+02
-1.036489789371702663e+00 1.152207967834045554e+01 2.551590957707322787e+02
-6.324493853716912639e-01 1.152207967834046798e+01 2.551616344274322898e+02
-2.284089812716949830e-01 1.152207967834046087e+01 2.551641730841323010e+02
1.756314227283052309e-01 1.152207967834045910e+01 2.551667117407322962e+02
5.796718268282177178e-01 1.152207967834047153e+01 2.551692503974322790e+02
9.837122308283783312e-01 1.152207967834046620e+01 2.551717890541322902e+02
1.387752634828326226e+00 1.152207967834049640e+01 2.551743277107322854e+02
1.791793038928268578e+00 1.152207967834046087e+01 2.551768663674322966e+02
2.195833442928353474e+00 1.152207967834043245e+01 2.551794050241322793e+02
-1.036489789371876080e+00 1.192612008234046783e+01 2.551584292667322984e+02
-6.324493853717091385e-01 1.192612008234044474e+01 2.551609679234322812e+02
-2.284089812717610135e-01 1.192612008234050691e+01 2.551635065800322764e+02
1.756314227284621055e-01 1.192612008234053356e+01 2.551660452367322875e+02
5.796718268284599684e-01 1.192612008234051046e+01 2.551685838934322987e+02
9.837122308283584582e-01 1.192612008234053889e+01 2.551711225500322939e+02
1.387752634828256726e+00 1.192612008234053178e+01 2.551736612067322767e+02
1.791793038928262138e+00 1.192612008234052290e+01 2.551761998634322879e+02
-1.036489789371789705e+00 1.233016048634046591e+01 2.551577627627322897e+02
-6.324493853717164660e-01 1.233016048634051565e+01 2.551603014193322849e+02
-2.284089812718296808e-01 1.233016048634053519e+01 2.551628400760322961e+02
1.756314227284377083e-01 1.233016048634052808e+01 2.551653787327322789e+02
5.796718268284554165e-01 1.233016048634055473e+01 2.551679173894322901e+02
9.837122308283360317e-01 1.233016048634055828e+01 2.551704560460322853e+02
1.387752634828402831e+00 1.233016048634054762e+01 2.551729947027322964e+02
1.791793038928235493e+00 1.233016048634054229e+01 2.551755333594322792e+02
-1.036489789371901171e+00 1.273420089044051373e+01 2.551570962587322811e+02
-6.324493853717183534e-01 1.273420089044049064e+01 2.551596349153322763e+02
-2.284089812718083645e-01 1.273420089044052794e+01 2.551621735720322874e+02
1.756314227282988749e-01 1.273420089044052439e+01 2.551647122287322986e+02
5.796718268283388431e-01 1.273420089044053150e+01 2.551672508853322938e+02
9.837122308284260708e-01 1.273420089044052261e+01 2.551697895420322766e+02
1.387752634828273601e+00 1.273420089044052617e+01 2.551723281987322878e+02
1.791793038928196191e+00 1.273420089044052617e+01 2.551748668553322830e+02
2.195833442928178947e+00 1.273420089044049774e+01 2.551774055120322942e+02
-6.324493853717396696e-01 1.313824129444049937e+01 2.551589684113322960e+02
5.796718268283203024e-01 1.313824129444051536e+01 2.551665843813322851e+02
9.837122308284063088e-01 1.313824129444051536e+01 2.551691230380322963e+02
1.387752634828338660e+00 1.313824129444053490e+01 2.551716616946322915e+02
1.791793038928240822e+00 1.313824129444049049e+01 2.551742003513323027e+02
2.195833442928179835e+00 1.313824129444048872e+01 2.551767390080322855e+02
