1.002561358879612285e+00 -9.492970019716993946e+00 2.522065105605234976e+02
1.406601762879605921e+00 -9.492970019717001051e+00 2.522090492171235212e+02
1.810642166979616219e+00 -9.492970019716997498e+00 2.522115878738235040e+02
2.214682570979646936e+00 -9.492970019716990393e+00 2.522141265305235152e+02
2.618722975079610382e+00 -9.492970019717002828e+00 2.522166651871235103e+02
-1.017640661320463158e+00 -9.088929615717001198e+00 2.521931507731235058e+02
-6.136002573204187849e-01 -9.088929615716988764e+00 2.521956894298235170e+02
-2.095598532203887532e-01 -9.088929615716971000e+00 2.521982280864235122e+02
1.944805507796039112e-01 -9.088929615716969224e+00 2.522007667431234950e+02
5.985209548796017742e-01 -9.088929615716983434e+00 2.522033053998235061e+02
1.002561358879641595e+00 -9.088929615716983434e+00 2.522058440565235173e+02
1.406601762879646111e+00 -9.088929615716992316e+00 2.522083827131235125e+02
1.810642166979664847e+00 -9.088929615716990540e+00 2.522109213698234953e+02
2.214682570979676246e+00 -9.088929615717002974e+00 2.522134600265235065e+02
2.618722975079604609e+00 -9.088929615717002974e+00 2.522159986831235017e+02
3.022763379079627999e+00 -9.088929615717004751e+00 2.522185373398235129e+02
-1.017640661320450945e+00 -8.684889211717008450e+00 2.521924842691234971e+02
-6.136002573205044941e-01 -8.684889211716999569e+00 2.521950229258235083e+02
-2.095598532204881737e-01 -8.684889211716997792e+00 2.521975615824235035e+02
1.944805507795945576e-01 -8.684889211717004898e+00 2.522001002391235147e+02
5.985209548796573964e-01 -8.684889211717010227e+00 2.522026388958234975e+02
1.002561358879721753e+00 -8.684889211717010227e+00 2.522051775524235211e+02
1.406601762879762685e+00 -8.684889211717020885e+00 2.522077162091235039e+02
1.810642166979740564e+00 -8.684889211717010227e+00 2.522102548658235150e+02
2.214682570979690901e+00 -8.684889211717019109e+00 2.522127935224235102e+02
2.618722975079604609e+00 -8.684889211717001345e+00 2.522153321791234930e+02
3.022763379079570267e+00 -8.684889211717013779e+00 2.522178708358235042e+02
-1.421681065320500315e+00 -8.280848807617005036e+00 2.521892791084235057e+02
-1.017640661320500683e+00 -8.280848807617001484e+00 2.521918177651235169e+02
-6.136002573204815125e-01 -8.280848807617006813e+00 2.521943564217235121e+02
-2.095598532204384634e-01 -8.280848807617003260e+00 2.521968950784234949e+02
1.944805507796300847e-01 -8.280848807617006813e+00 2.521994337351235060e+02
5.985209548797252310e-01 -8.280848807617008589e+00 2.522019723917235012e+02
1.002561358879750175e+00 -8.280848807617010365e+00 2.522045110484235124e+02
1.406601762879748918e+00 -8.280848807617012142e+00 2.522070497051234952e+02
1.810642166979785861e+00 -8.280848807617005036e+00 2.522095883617235188e+02
2.214682570979672249e+00 -8.280848807617008589e+00 2.522121270184235016e+02
2.618722975079645909e+00 -8.280848807617017471e+00 2.522146656751235128e+02
3.022763379079608015e+00 -8.280848807617012142e+00 2.522172043317235079e+02
-1.421681065320467674e+00 -7.876808403617012289e+00 2.521886126044234970e+02
-1.017640661320432516e+00 -7.876808403617025611e+00 2.521911512610235206e+02
-6.136002573204063504e-01 -7.876808403617018506e+00 2.521936899177235034e+02
-2.095598532203903630e-01 -7.876808403617012289e+00 2.521962285744235146e+02
1.944805507796229238e-01 -7.876808403617006071e+00 2.521987672310235098e+02
5.985209548796373014e-01 -7.876808403616998078e+00 2.522013058877235210e+02
1.002561358879693110e+00 -7.876808403617004295e+00 2.522038445444235037e+02
1.406601762879733597e+00 -7.876808403617011400e+00 2.522063832010234989e+02
1.810642166979701484e+00 -7.876808403617016729e+00 2.522089218577235101e+02
2.214682570979707776e+00 -7.876808403617021170e+00 2.522114605144234929e+02
2.618722975079697424e+00 -7.876808403617024723e+00 2.522139991711235041e+02
3.022763379079718149e+00 -7.876808403617023835e+00 2.522165378277234993e+02
-1.421681065320378412e+00 -7.472767999517001769e+00 2.521879461004235168e+02
-1.017640661320348583e+00 -7.472767999517008874e+00 2.521904847570235120e+02
-6.136002573204721866e-01 -7.472767999517004434e+00 2.521930234137234947e+02
-2.095598532204565323e-01 -7.472767999517008874e+00 2.521955620704235059e+02
1.944805507795664412e-01 -7.472767999517005322e+00 2.521981007270235011e+02
5.985209548795847878e-01 -7.472767999516999993e+00 2.522006393837235123e+02
1.002561358879605846e+00 -7.472767999516999993e+00 2.522031780404234951e+02
1.406601762879675199e+00 -7.472767999517013315e+00 2.522057166970235187e+02
1.810642166979723910e+00 -7.472767999517007986e+00 2.522082553537235015e+02
2.214682570979707332e+00 -7.472767999517016868e+00 2.522107940104235126e+02
2.618722975079761817e+00 -7.472767999517002657e+00 2.522133326670235078e+02
3.022763379079752344e+00 -7.472767999517002657e+00 2.522158713237235190e+02
-1.421681065320298698e+00 -7.068727595517015239e+00 2.521872795963235205e+02
-1.017640661320384110e+00 -7.068727595516995699e+00 2.521898182530235033e+02
-6.136002573204243360e-01 -7.068727595516991258e+00 2.521923569097235145e+02
-2.095598532204525355e-01 -7.068727595516991258e+00 2.521948955663235097e+02
1.944805507795304422e-01 -7.068727595516985929e+00 2.521974342230235209e+02
5.985209548795498158e-01 -7.068727595516991258e+00 2.521999728797235036e+02
1.002561358879576314e+00 -7.068727595516986817e+00 2.522025115363234988e+02
1.406601762879696960e+00 -7.068727595516985929e+00 2.522050501930235100e+02
1.810642166979786749e+00 -7.068727595516992146e+00 2.522075888497235212e+02
2.214682570979741527e+00 -7.068727595516993922e+00 2.522101275063235164e+02
2.618722975079809334e+00 -7.068727595517007245e+00 2.522126661630234992e+02
3.022763379079734580e+00 -7.068727595517012574e+00 2.522152048197235104e+02
-1.421681065320263837e+00 -6.664687191516988740e+00 2.521866130923235119e+02
-1.017640661320353246e+00 -6.664687191516987852e+00 2.521891517490234946e+02
-6.136002573204069055e-01 -6.664687191516990517e+00 2.521916904056235182e+02
-2.095598532204535902e-01 -6.664687191516980747e+00 2.521942290623235010e+02
1.944805507795523969e-01 -6.664687191516982523e+00 2.521967677190235122e+02
5.985209548796225354e-01 -6.664687191516980747e+00 2.521993063756235074e+02
1.002561358879638043e+00 -6.664687191516983411e+00 2.522018450323235186e+02
1.406601762879709172e+00 -6.664687191516991405e+00 2.522043836890235013e+02
1.810642166979749224e+00 -6.664687191516992293e+00 2.522069223456234965e+02
2.214682570979654930e+00 -6.664687191516987852e+00 2.522094610023235077e+02
2.618722975079663673e+00 -6.664687191516992293e+00 2.522119996590235189e+02
-1.825721469420341858e+00 -6.260646787417004866e+00 2.521834079316235204e+02
-1.421681065320389736e+00 -6.260646787416995984e+00 2.521859465883235032e+02
-1.017640661320393436e+00 -6.260646787416996872e+00 2.521884852449234984e+02
-6.136002573203784838e-01 -6.260646787416992431e+00 2.521910239016235096e+02
-2.095598532204144548e-01 -6.260646787416973780e+00 2.521935625583235208e+02
1.944805507796149302e-01 -6.260646787416963122e+00 2.521961012150235035e+02
5.985209548796392998e-01 -6.260646787416960457e+00 2.521986398716234987e+02
1.002561358879619391e+00 -6.260646787416962233e+00 2.522011785283235099e+02
1.406601762879664097e+00 -6.260646787416975556e+00 2.522037171850235211e+02
1.810642166979687495e+00 -6.260646787416986214e+00 2.522062558416235163e+02
2.214682570979630949e+00 -6.260646787416990655e+00 2.522087944983234991e+02
2.618722975079637472e+00 -6.260646787416991543e+00 2.522113331550235102e+02
3.022763379079658197e+00 -6.260646787416987991e+00 2.522138718116235054e+02
-1.421681065320421489e+00 -5.856606383416996131e+00 2.521852800843234945e+02
-1.017640661320355910e+00 -5.856606383416996131e+00 2.521878187409235181e+02
-6.136002573203848121e-01 -5.856606383416987249e+00 2.521903573976235009e+02
-2.095598532203704067e-01 -5.856606383416979256e+00 2.521928960543235121e+02
1.944805507796846800e-01 -5.856606383416979256e+00 2.521954347109235073e+02
5.985209548797090218e-01 -5.856606383416976591e+00 2.521979733676235185e+02
1.002561358879685338e+00 -5.856606383416963268e+00 2.522005120243235012e+02
1.406601762879658102e+00 -5.856606383416972150e+00 2.522030506809234964e+02
1.810642166979646861e+00 -5.856606383416976591e+00 2.522055893376235076e+02
2.214682570979605636e+00 -5.856606383416986361e+00 2.522081279943235188e+02
2.618722975079578852e+00 -5.856606383416989914e+00 2.522106666509235140e+02
3.022763379079641322e+00 -5.856606383417007677e+00 2.522132053076234968e+02
-1.421681065320472115e+00 -5.452565979317005151e+00 2.521846135802234983e+02
-1.017640661320382778e+00 -5.452565979317007816e+00 2.521871522369235095e+02
-6.136002573203492849e-01 -5.452565979317002487e+00 2.521896908936235207e+02
-2.095598532202566366e-01 -5.452565979317001599e+00 2.521922295502235158e+02
1.944805507797147115e-01 -5.452565979316997158e+00 2.521947682069234986e+02
5.985209548796713852e-01 -5.452565979316998934e+00 2.521973068636235098e+02
1.002561358879683118e+00 -5.452565979316998934e+00 2.521998455202235050e+02
1.406601762879631679e+00 -5.452565979316999822e+00 2.522023841769235162e+02
1.810642166979624879e+00 -5.452565979317002487e+00 2.522049228336234989e+02
2.214682570979598530e+00 -5.452565979317006928e+00 2.522074614902234941e+02
2.618722975079591730e+00 -5.452565979317002487e+00 2.522100001469235053e+02
3.022763379079631108e+00 -5.452565979316998046e+00 2.522125388036235165e+02
-1.421681065320425041e+00 -5.048525575317018621e+00 2.521839470762235180e+02
-1.017640661320383000e+00 -5.048525575317006187e+00 2.521864857329235008e+02
-6.136002573203429566e-01 -5.048525575317007075e+00 2.521890243895234960e+02
-2.095598532203121200e-01 -5.048525575316998193e+00 2.521915630462235072e+02
1.944805507796808497e-01 -5.048525575316999081e+00 2.521941017029235184e+02
5.985209548796521783e-01 -5.048525575316993752e+00 2.521966403596235011e+02
1.002561358879649811e+00 -5.048525575316993752e+00 2.521991790162234963e+02
1.406601762879665651e+00 -5.048525575316999969e+00 2.522017176729235075e+02
1.810642166979678391e+00 -5.048525575317010627e+00 2.522042563296235187e+02
2.214682570979630061e+00 -5.048525575317016845e+00 2.522067949862235139e+02
2.618722975079621929e+00 -5.048525575317020397e+00 2.522093336429234967e+02
3.022763379079614676e+00 -5.048525575317022174e+00 2.522118722996235078e+02
-1.421681065320386184e+00 -4.644485171317008998e+00 2.521832805722235094e+02
-1.017640661320424078e+00 -4.644485171316993899e+00 2.521858192289235205e+02
-6.136002573204327737e-01 -4.644485171317001004e+00 2.521883578855235157e+02
-2.095598532203968578e-01 -4.644485171316984129e+00 2.521908965422234985e+02
1.944805507796302790e-01 -4.644485171316985905e+00 2.521934351989235097e+02
5.985209548796406320e-01 -4.644485171316994787e+00 2.521959738555235049e+02
1.002561358879723974e+00 -4.644485171316995675e+00 2.521985125122235161e+02
1.406601762879758688e+00 -4.644485171317004557e+00 2.522010511689234988e+02
1.810642166979719914e+00 -4.644485171317014327e+00 2.522035898255234940e+02
2.214682570979658482e+00 -4.644485171317018768e+00 2.522061284822235052e+02
2.618722975079654347e+00 -4.644485171317026762e+00 2.522086671389235164e+02
-1.421681065320495208e+00 -4.240444767216985156e+00 2.521826140682235007e+02
-1.017640661320540207e+00 -4.240444767216994038e+00 2.521851527248234959e+02
-6.136002573204585309e-01 -4.240444767216990485e+00 2.521876913815235071e+02
-2.095598532205116826e-01 -4.240444767217009137e+00 2.521902300382235182e+02
1.944805507795932253e-01 -4.240444767217013577e+00 2.521927686948235134e+02
5.985209548796739387e-01 -4.240444767217024236e+00 2.521953073515234962e+02
1.002561358879751952e+00 -4.240444767217028676e+00 2.521978460082235074e+02
1.406601762879733597e+00 -4.240444767217021571e+00 2.522003846648235026e+02
1.810642166979703926e+00 -4.240444767217029565e+00 2.522029233215235138e+02
2.214682570979659815e+00 -4.240444767217012689e+00 2.522054619782234965e+02
2.618722975079682769e+00 -4.240444767217008248e+00 2.522080006348235202e+02
-1.421681065320470339e+00 -3.836404363216987079e+00 2.521819475641235044e+02
-1.017640661320495132e+00 -3.836404363216987967e+00 2.521844862208235156e+02
-6.136002573205010524e-01 -3.836404363216985747e+00 2.521870248775234984e+02
-2.095598532205460718e-01 -3.836404363216982194e+00 2.521895635341234936e+02
1.944805507794599986e-01 -3.836404363216984414e+00 2.521921021908235048e+02
5.985209548795588086e-01 -3.836404363216987967e+00 2.521946408475235160e+02
1.002561358879642706e+00 -3.836404363216991964e+00 2.521971795041235112e+02
1.406601762879631012e+00 -3.836404363216994184e+00 2.521997181608234939e+02
1.810642166979639534e+00 -3.836404363216995073e+00 2.522022568175235051e+02
2.214682570979648712e+00 -3.836404363216994629e+00 2.522047954742235163e+02
2.618722975079637028e+00 -3.836404363216996849e+00 2.522073341308235115e+02
-1.825721469420454657e+00 -3.432363959116992547e+00 2.521787424035235006e+02
-1.421681065320562487e+00 -3.432363959116992547e+00 2.521812810601234958e+02
-1.017640661320611928e+00 -3.432363959116992103e+00 2.521838197168235070e+02
-6.136002573205895372e-01 -3.432363959116992547e+00 2.521863583735235181e+02
-2.095598532206401909e-01 -3.432363959116990326e+00 2.521888970301235133e+02
1.944805507793926358e-01 -3.432363959116991659e+00 2.521914356868234961e+02
5.985209548794442336e-01 -3.432363959116992103e+00 2.521939743435235073e+02
1.002561358879509923e+00 -3.432363959116991214e+00 2.521965130001235025e+02
1.406601762879504003e+00 -3.432363959116991214e+00 2.521990516568235137e+02
1.810642166979532508e+00 -3.432363959116992991e+00 2.522015903135234964e+02
2.214682570979578990e+00 -3.432363959116999652e+00 2.522041289701235200e+02
2.618722975079661897e+00 -3.432363959117000540e+00 2.522066676268235028e+02
-1.825721469420493959e+00 -3.028323555116997134e+00 2.521780758994235043e+02
-1.421681065320462345e+00 -3.028323555117008681e+00 2.521806145561235155e+02
-1.017640661320479811e+00 -3.028323555117009569e+00 2.521831532128234983e+02
-6.136002573205452393e-01 -3.028323555117000243e+00 2.521856918694234935e+02
-2.095598532205335540e-01 -3.028323555117000687e+00 2.521882305261235047e+02
1.944805507795143718e-01 -3.028323555117000243e+00 2.521907691828235158e+02
5.985209548795319412e-01 -3.028323555116999799e+00 2.521933078394235110e+02
1.002561358879542563e+00 -3.028323555116999799e+00 2.521958464961234938e+02
1.406601762879470918e+00 -3.028323555116998911e+00 2.521983851528235050e+02
1.810642166979518519e+00 -3.028323555117004684e+00 2.522009238094235002e+02
2.214682570979529697e+00 -3.028323555117010901e+00 2.522034624661235114e+02
2.618722975079612159e+00 -3.028323555117008681e+00 2.522060011228234941e+02
-1.825721469420416465e+00 -2.624283151116999502e+00 2.521774093954234957e+02
-1.421681065320470783e+00 -2.624283151117005275e+00 2.521799480521235068e+02
-1.017640661320510453e+00 -2.624283151117007939e+00 2.521824867087235020e+02
-6.136002573204666355e-01 -2.624283151117011936e+00 2.521850253654235132e+02
-2.095598532204664688e-01 -2.624283151117014157e+00 2.521875640221234960e+02
1.944805507795140387e-01 -2.624283151117019042e+00 2.521901026787235196e+02
5.985209548794963030e-01 -2.624283151117019486e+00 2.521926413354235024e+02
1.002561358879441311e+00 -2.624283151117019486e+00 2.521951799921235136e+02
1.406601762879466699e+00 -2.624283151117015933e+00 2.521977186487235087e+02
1.810642166979455014e+00 -2.624283151117015489e+00 2.522002573054235199e+02
2.214682570979480403e+00 -2.624283151117011936e+00 2.522027959621235027e+02
2.618722975079468274e+00 -2.624283151117011936e+00 2.522053346188235139e+02
-1.825721469420411358e+00 -2.220242747016991203e+00 2.521767428914235154e+02
-1.421681065320358206e+00 -2.220242747016995200e+00 2.521792815480235106e+02
-1.017640661320378115e+00 -2.220242747017008078e+00 2.521818202047234934e+02
-6.136002573203930277e-01 -2.220242747017009854e+00 2.521843588614235045e+02
-2.095598532204790698e-01 -2.220242747017017404e+00 2.521868975181235157e+02
1.944805507795388799e-01 -2.220242747017021401e+00 2.521894361747235109e+02
5.985209548794401258e-01 -2.220242747017019624e+00 2.521919748314234937e+02
1.002561358879396458e+00 -2.220242747017016072e+00 2.521945134881235049e+02
1.406601762879420514e+00 -2.220242747017010743e+00 2.521970521447235001e+02
1.810642166979421264e+00 -2.220242747017006746e+00 2.521995908014235113e+02
2.214682570979544352e+00 -2.220242747017007190e+00 2.522021294581234940e+02
2.618722975079544213e+00 -2.220242747016998752e+00 2.522046681147235176e+02
-1.825721469420500842e+00 -1.816202343017001342e+00 2.521760763874235067e+02
-1.421681065320489656e+00 -1.816202343017004228e+00 2.521786150440235019e+02
-1.017640661320467155e+00 -1.816202343017008669e+00 2.521811537007235131e+02
-6.136002573204799582e-01 -1.816202343017009113e+00 2.521836923574234959e+02
-2.095598532204491493e-01 -1.816202343017012000e+00 2.521862310140235195e+02
1.944805507794547528e-01 -1.816202343017012444e+00 2.521887696707235023e+02
5.985209548794373502e-01 -1.816202343017013998e+00 2.521913083274235134e+02
1.002561358879421105e+00 -1.816202343017015997e+00 2.521938469840235086e+02
1.406601762879471362e+00 -1.816202343017013998e+00 2.521963856407235198e+02
1.810642166979433032e+00 -1.816202343017006671e+00 2.521989242974235026e+02
2.214682570979457310e+00 -1.816202343017006449e+00 2.522014629540234978e+02
2.618722975079526005e+00 -1.816202343017002896e+00 2.522040016107235090e+02
-1.421681065320427484e+00 -1.412161938916983051e+00 2.521779485400234933e+02
-1.017640661320414752e+00 -1.412161938916981496e+00 2.521804871967235044e+02
-6.136002573204661914e-01 -1.412161938916982384e+00 2.521830258533234996e+02
-2.095598532204946962e-01 -1.412161938916978832e+00 2.521855645100235108e+02
1.944805507795391575e-01 -1.412161938916977055e+00 2.521881031667234936e+02
5.985209548794544476e-01 -1.412161938916975057e+00 2.521906418233235172e+02
1.002561358879420439e+00 -1.412161938916975501e+00 2.521931804800235000e+02
1.406601762879303275e+00 -1.412161938916977721e+00 2.521957191367235112e+02
1.810642166979285816e+00 -1.412161938916976611e+00 2.521982577933235063e+02
2.214682570979356058e+00 -1.412161938916977721e+00 2.522007964500235175e+02
2.618722975079508686e+00 -1.412161938916982162e+00 2.522033351067235003e+02
3.022763379079446366e+00 -1.412161938916980386e+00 2.522058737633234955e+02
-1.017640661320486473e+00 -1.008121534916980089e+00 2.521798206926235082e+02
-6.136002573204263344e-01 -1.008121534916981643e+00 2.521823593493235194e+02
-2.095598532204266118e-01 -1.008121534916978757e+00 2.521848980060235021e+02
1.944805507795546173e-01 -1.008121534916979201e+00 2.521874366627235133e+02
5.985209548795262791e-01 -1.008121534916977868e+00 2.521899753193235085e+02
1.002561358879458187e+00 -1.008121534916976314e+00 2.521925139760235197e+02
1.406601762879331252e+00 -1.008121534916974316e+00 2.521950526327235025e+02
1.810642166979198331e+00 -1.008121534916971873e+00 2.521975912893234977e+02
2.214682570979181975e+00 -1.008121534916973427e+00 2.522001299460235089e+02
2.618722975079204929e+00 -1.008121534916972095e+00 2.522026686027235201e+02
-1.017640661320439399e+00 -6.040811309169804577e-01 2.521791541886234995e+02
-6.136002573204510924e-01 -6.040811309169794585e-01 2.521816928453235107e+02
-2.095598532204320796e-01 -6.040811309169823451e-01 2.521842315020234935e+02
1.944805507795491217e-01 -6.040811309169820120e-01 2.521867701586235171e+02
5.985209548795491497e-01 -6.040811309169823451e-01 2.521893088153234999e+02
1.002561358879449083e+00 -6.040811309169796806e-01 2.521918474720235110e+02
1.406601762879369000e+00 -6.040811309169775711e-01 2.521943861286235062e+02
1.810642166979312462e+00 -6.040811309169754617e-01 2.521969247853235174e+02
2.214682570979355614e+00 -6.040811309169757948e-01 2.521994634420235002e+02
2.618722975079366133e+00 -6.040811309169755727e-01 2.522020020986234954e+02
-1.421681065320686832e+00 -2.000407268169799579e-01 2.521759490279235081e+02
-1.017640661320619033e+00 -2.000407268169807906e-01 2.521784876846235193e+02
-6.136002573205131538e-01 -2.000407268169820119e-01 2.521810263413235020e+02
-2.095598532204507869e-01 -2.000407268169832331e-01 2.521835649979234972e+02
1.944805507795492328e-01 -2.000407268169830111e-01 2.521861036546235084e+02
5.985209548795513701e-01 -2.000407268169821229e-01 2.521886423113235196e+02
1.002561358879475062e+00 -2.000407268169800135e-01 2.521911809679235148e+02
1.406601762879366779e+00 -2.000407268169777653e-01 2.521937196246234976e+02
1.810642166979388179e+00 -2.000407268169793473e-01 2.521962582813235088e+02
2.214682570979440879e+00 -2.000407268169792918e-01 2.521987969379235039e+02
2.618722975079458060e+00 -2.000407268169786812e-01 2.522013355946235151e+02
-1.421681065320568038e+00 2.039996771830162037e-01 2.521752825239234994e+02
-1.017640661320552864e+00 2.039996771830151490e-01 2.521778211806235106e+02
-6.136002573205622257e-01 2.039996771830166200e-01 2.521803598372235058e+02
-2.095598532205353304e-01 2.039996771830162037e-01 2.521828984939235170e+02
1.944805507795047406e-01 2.039996771830147881e-01 2.521854371506234997e+02
5.985209548795307199e-01 2.039996771830142330e-01 2.521879758072234949e+02
1.002561358879513254e+00 2.039996771830143996e-01 2.521905144639235061e+02
1.406601762879516659e+00 2.039996771830146216e-01 2.521930531206235173e+02
1.810642166979577583e+00 2.039996771830145106e-01 2.521955917773235001e+02
2.214682570979634058e+00 2.039996771830143163e-01 2.521981304339234953e+02
-1.421681065320494097e+00 6.080400812830155655e-01 2.521746160199235192e+02
-1.017640661320547091e+00 6.080400812830167867e-01 2.521771546766235019e+02
-6.136002573205929789e-01 6.080400812830194512e-01 2.521796933332234971e+02
-2.095598532206777165e-01 6.080400812830212276e-01 2.521822319899235083e+02
1.944805507794304944e-01 6.080400812830184520e-01 2.521847706466235195e+02
5.985209548794965251e-01 6.080400812830157875e-01 2.521873093032235147e+02
1.002561358879513032e+00 6.080400812830153434e-01 2.521898479599234975e+02
1.406601762879575501e+00 6.080400812830133450e-01 2.521923866166235086e+02
1.810642166979478107e+00 6.080400812830140111e-01 2.521949252732235038e+02
2.214682570979548348e+00 6.080400812830129009e-01 2.521974639299235150e+02
2.618722975079568194e+00 6.080400812830124568e-01 2.522000025866234978e+02
3.022763379079478785e+00 6.080400812830143442e-01 2.522025412432234930e+02
-1.421681065320473003e+00 1.012080485283016751e+00 2.521739495159235105e+02
-1.017640661320533324e+00 1.012080485283020304e+00 2.521764881725235057e+02
-6.136002573206768007e-01 1.012080485283024966e+00 2.521790268292235169e+02
-2.095598532206860987e-01 1.012080485283023634e+00 2.521815654859234996e+02
1.944805507794092614e-01 1.012080485283019859e+00 2.521841041425234948e+02
5.985209548794374612e-01 1.012080485283019415e+00 2.521866427992235060e+02
1.002561358879539899e+00 1.012080485283017861e+00 2.521891814559235172e+02
1.406601762879584383e+00 1.012080485283018083e+00 2.521917201125235124e+02
1.810642166979585799e+00 1.012080485283017417e+00 2.521942587692234952e+02
2.214682570979674470e+00 1.012080485283017861e+00 2.521967974259235064e+02
2.618722975079586401e+00 1.012080485283017639e+00 2.521993360825235015e+02
3.022763379079594692e+00 1.012080485283015197e+00 2.522018747392235127e+02
-1.421681065320480775e+00 1.416120889283025708e+00 2.521732830118235142e+02
-1.017640661320472706e+00 1.416120889283022821e+00 2.521758216685234970e+02
-6.136002573204817345e-01 1.416120889283020601e+00 2.521783603252235082e+02
-2.095598532205213416e-01 1.416120889283018602e+00 2.521808989818235034e+02
1.944805507795245580e-01 1.416120889283016826e+00 2.521834376385235146e+02
5.985209548795116241e-01 1.416120889283016826e+00 2.521859762952234973e+02
1.002561358879502373e+00 1.416120889283015716e+00 2.521885149518235210e+02
1.406601762879476247e+00 1.416120889283019713e+00 2.521910536085235037e+02
1.810642166979444578e+00 1.416120889283020601e+00 2.521935922652235149e+02
2.214682570979516818e+00 1.416120889283022599e+00 2.521961309219234977e+02
2.618722975079587734e+00 1.416120889283026374e+00 2.521986695785234929e+02
3.022763379079657753e+00 1.416120889283027484e+00 2.522012082352235041e+02
-1.017640661320460937e+00 1.820161293383024015e+00 2.521751551645235168e+02
-6.136002573205197042e-01 1.820161293383025125e+00 2.521776938212234995e+02
-2.095598532205121822e-01 1.820161293383021128e+00 2.521802324778234947e+02
1.944805507794652721e-01 1.820161293383023349e+00 2.521827711345235059e+02
5.985209548795470402e-01 1.820161293383026235e+00 2.521853097912235171e+02
1.002561358879523468e+00 1.820161293383028012e+00 2.521878484478235123e+02
1.406601762879516881e+00 1.820161293383033341e+00 2.521903871045234951e+02
1.810642166979551604e+00 1.820161293383028456e+00 2.521929257612235062e+02
2.214682570979618514e+00 1.820161293383027123e+00 2.521954644178235014e+02
2.618722975079620596e+00 1.820161293383024237e+00 2.521980030745235126e+02
3.022763379079654644e+00 1.820161293383024237e+00 2.522005417312234954e+02
-1.017640661320343254e+00 2.224201697383032528e+00 2.521744886605235081e+02
-6.136002573203156452e-01 2.224201697383026310e+00 2.521770273171235033e+02
-2.095598532202825048e-01 2.224201697383022314e+00 2.521795659738235145e+02
1.944805507796011357e-01 2.224201697383025422e+00 2.521821046305234972e+02
5.985209548795127343e-01 2.224201697383028531e+00 2.521846432871235208e+02
1.002561358879433318e+00 2.224201697383026310e+00 2.521871819438235036e+02
1.406601762879383211e+00 2.224201697383033416e+00 2.521897206005235148e+02
1.810642166979439693e+00 2.224201697383032972e+00 2.521922592571235100e+02
2.214682570979526588e+00 2.224201697383031195e+00 2.521947979138235212e+02
2.618722975079665893e+00 2.224201697383029419e+00 2.521973365705235040e+02
3.022763379079598689e+00 2.224201697383033416e+00 2.521998752271234991e+02
-1.421681065320380188e+00 2.628242101483039939e+00 2.521712834998235166e+02
-1.017640661320365458e+00 2.628242101483043047e+00 2.521738221564235118e+02
-6.136002573204181187e-01 2.628242101483042159e+00 2.521763608131234946e+02
-2.095598532204406561e-01 2.628242101483044380e+00 2.521788994698235058e+02
1.944805507795094313e-01 2.628242101483038162e+00 2.521814381264235010e+02
5.985209548794940826e-01 2.628242101483039495e+00 2.521839767831235122e+02
1.002561358879540343e+00 2.628242101483036386e+00 2.521865154398234949e+02
1.406601762879451822e+00 2.628242101483040383e+00 2.521890540964235186e+02
1.810642166979522072e+00 2.628242101483041715e+00 2.521915927531235013e+02
2.214682570979526588e+00 2.628242101483040827e+00 2.521941314098235125e+02
2.618722975079659232e+00 2.628242101483036830e+00 2.521966700664235077e+02
3.022763379079663082e+00 2.628242101483032833e+00 2.521992087231235189e+02
-1.421681065320330006e+00 3.032282505483030910e+00 2.521706169957235204e+02
-1.017640661320301954e+00 3.032282505483030022e+00 2.521731556524235032e+02
-6.136002573202711252e-01 3.032282505483027801e+00 2.521756943091235144e+02
-2.095598532203497844e-01 3.032282505483026913e+00 2.521782329658234971e+02
1.944805507795048516e-01 3.032282505483026025e+00 2.521807716224235207e+02
5.985209548794017120e-01 3.032282505483024693e+00 2.521833102791235035e+02
1.002561358879473286e+00 3.032282505483024693e+00 2.521858489358235147e+02
1.406601762879437167e+00 3.032282505483021584e+00 2.521883875924235099e+02
1.810642166979489653e+00 3.032282505483026025e+00 2.521909262491235211e+02
2.214682570979549237e+00 3.032282505483026469e+00 2.521934649058235038e+02
2.618722975079613047e+00 3.032282505483030910e+00 2.521960035624234990e+02
3.022763379079647095e+00 3.032282505483027357e+00 2.521985422191235102e+02
-1.421681065320585802e+00 3.436322909483020105e+00 2.521699504917235117e+02
-1.017640661320650342e+00 3.436322909483018329e+00 2.521724891484234945e+02
-6.136002573206104094e-01 3.436322909483018773e+00 2.521750278051235057e+02
-2.095598532205291964e-01 3.436322909483016552e+00 2.521775664617235009e+02
1.944805507795625554e-01 3.436322909483013444e+00 2.521801051184235121e+02
5.985209548795893397e-01 3.436322909483015220e+00 2.521826437751234948e+02
1.002561358879599851e+00 3.436322909483015664e+00 2.521851824317235184e+02
1.406601762879566175e+00 3.436322909483021881e+00 2.521877210884235012e+02
1.810642166979492318e+00 3.436322909483023214e+00 2.521902597451235124e+02
2.214682570979450205e+00 3.436322909483022325e+00 2.521927984017235076e+02
2.618722975079503357e+00 3.436322909483026766e+00 2.521953370584235188e+02
-1.421681065320500315e+00 3.840363313582975557e+00 2.521692839877235031e+02
-1.017640661320539985e+00 3.840363313582981331e+00 2.521718226444235142e+02
-6.136002573204794031e-01 3.840363313582976001e+00 2.521743613010235094e+02
-2.095598532205301678e-01 3.840363313582968452e+00 2.521768999577235206e+02
1.944805507794872546e-01 3.840363313582969784e+00 2.521794386144235034e+02
5.985209548795233925e-01 3.840363313582970672e+00 2.521819772710234986e+02
1.002561358879528575e+00 3.840363313582966232e+00 2.521845159277235098e+02
1.406601762879444939e+00 3.840363313582968008e+00 2.521870545844235210e+02
1.810642166979445244e+00 3.840363313582956017e+00 2.521895932410235162e+02
2.214682570979537690e+00 3.840363313582957350e+00 2.521921318977234989e+02
2.618722975079543325e+00 3.840363313582968896e+00 2.521946705544235101e+02
-1.421681065320650195e+00 4.244403717582961200e+00 2.521686174837234944e+02
-1.017640661320653228e+00 4.244403717582955871e+00 2.521711561403235180e+02
-6.136002573205775468e-01 4.244403717582950541e+00 2.521736947970235008e+02
-2.095598532204937803e-01 4.244403717582958535e+00 2.521762334537235120e+02
1.944805507796255883e-01 4.244403717582960311e+00 2.521787721103235071e+02
5.985209548796391887e-01 4.244403717582963864e+00 2.521813107670235183e+02
1.002561358879673126e+00 4.244403717582965641e+00 2.521838494237235011e+02
1.406601762879575723e+00 4.244403717582962976e+00 2.521863880804235123e+02
1.810642166979464784e+00 4.244403717582949653e+00 2.521889267370235075e+02
2.214682570979490173e+00 4.244403717582941660e+00 2.521914653937235187e+02
2.618722975079609494e+00 4.244403717582950541e+00 2.521940040504235014e+02
-1.825721469420616971e+00 4.648444121682968166e+00 2.521654123230235029e+02
-1.421681065320629322e+00 4.648444121682976160e+00 2.521679509797235141e+02
-1.017640661320523776e+00 4.648444121682985042e+00 2.521704896363235093e+02
-6.136002573205776578e-01 4.648444121682985930e+00 2.521730282930235205e+02
-2.095598532206650322e-01 4.648444121682991259e+00 2.521755669497235033e+02
1.944805507793400112e-01 4.648444121682977048e+00 2.521781056063234985e+02
5.985209548794003798e-01 4.648444121682969943e+00 2.521806442630235097e+02
1.002561358879485498e+00 4.648444121682976160e+00 2.521831829197235209e+02
1.406601762879521988e+00 4.648444121682962837e+00 2.521857215763235160e+02
1.810642166979654633e+00 4.648444121682961061e+00 2.521882602330234988e+02
2.214682570979723764e+00 4.648444121682961061e+00 2.521907988897235100e+02
2.618722975079670778e+00 4.648444121682961061e+00 2.521933375463235052e+02
-1.825721469420562126e+00 5.052484525682971572e+00 2.521647458190234943e+02
-1.421681065320580695e+00 5.052484525682980454e+00 2.521672844756235179e+02
-1.017640661320571294e+00 5.052484525682979566e+00 2.521698231323235007e+02
-6.136002573206201793e-01 5.052484525682976901e+00 2.521723617890235118e+02
-2.095598532205810716e-01 5.052484525682961802e+00 2.521749004456235070e+02
1.944805507794929167e-01 5.052484525682960914e+00 2.521774391023235182e+02
5.985209548794881984e-01 5.052484525682960026e+00 2.521799777590235010e+02
1.002561358879562103e+00 5.052484525682960914e+00 2.521825164156234962e+02
1.406601762879499118e+00 5.052484525682957361e+00 2.521850550723235074e+02
1.810642166979534506e+00 5.052484525682954697e+00 2.521875937290235186e+02
2.214682570979591425e+00 5.052484525682960026e+00 2.521901323856235138e+02
2.618722975079748050e+00 5.052484525682960026e+00 2.521926710423234965e+02
3.022763379079769219e+00 5.052484525682957361e+00 2.521952096990235077e+02
-1.825721469420583443e+00 5.456524929682961655e+00 2.521640793149234980e+02
-1.421681065320592019e+00 5.456524929682966096e+00 2.521666179716235092e+02
-1.017640661320677431e+00 5.456524929682962544e+00 2.521691566283235204e+02
-6.136002573206429389e-01 5.456524929682958991e+00 2.521716952849235156e+02
-2.095598532206117970e-01 5.456524929682951885e+00 2.521742339416234984e+02
1.944805507794344912e-01 5.456524929682958991e+00 2.521767725983235096e+02
5.985209548794527823e-01 5.456524929682951885e+00 2.521793112549235047e+02
1.002561358879481723e+00 5.456524929682954550e+00 2.521818499116235159e+02
1.406601762879511552e+00 5.456524929682950109e+00 2.521843885683234987e+02
1.810642166979520740e+00 5.456524929682940339e+00 2.521869272250235099e+02
2.214682570979635834e+00 5.456524929682938563e+00 2.521894658816235051e+02
2.618722975079776916e+00 5.456524929682934122e+00 2.521920045383235163e+02
3.022763379079834056e+00 5.456524929682932346e+00 2.521945431950234990e+02
-1.825721469420574561e+00 5.860565333782965958e+00 2.521634128109235178e+02
-1.421681065320598236e+00 5.860565333782957076e+00 2.521659514676235005e+02
-1.017640661320648787e+00 5.860565333782945530e+00 2.521684901243235117e+02
-6.136002573206538191e-01 5.860565333782938424e+00 2.521710287809235069e+02
-2.095598532205887321e-01 5.860565333782944641e+00 2.521735674376235181e+02
1.944805507794726551e-01 5.860565333782941089e+00 2.521761060943235009e+02
5.985209548794486745e-01 5.860565333782933983e+00 2.521786447509234961e+02
1.002561358879467068e+00 5.860565333782926878e+00 2.521811834076235073e+02
1.406601762879483797e+00 5.860565333782923325e+00 2.521837220643235185e+02
1.810642166979533396e+00 5.860565333782921549e+00 2.521862607209235136e+02
2.214682570979618514e+00 5.860565333782925102e+00 2.521887993776234964e+02
2.618722975079656123e+00 5.860565333782931319e+00 2.521913380343235076e+02
-1.421681065320567816e+00 6.264605737782935613e+00 2.521652849636235203e+02
-1.017640661320567741e+00 6.264605737782934725e+00 2.521678236202235155e+02
-6.136002573205437960e-01 6.264605737782940942e+00 2.521703622769234983e+02
-2.095598532205460163e-01 6.264605737782940054e+00 2.521729009336235094e+02
1.944805507794726274e-01 6.264605737782941830e+00 2.521754395902235046e+02
5.985209548794980794e-01 6.264605737782933836e+00 2.521779782469235158e+02
1.002561358879502373e+00 6.264605737782926731e+00 2.521805169036234986e+02
1.406601762879458484e+00 6.264605737782929396e+00 2.521830555602234938e+02
1.810642166979428591e+00 6.264605737782935613e+00 2.521855942169235050e+02
2.214682570979562115e+00 6.264605737782938277e+00 2.521881328736235162e+02
2.618722975079614823e+00 6.264605737782934725e+00 2.521906715302235114e+02
-1.421681065320532289e+00 6.668646141882955902e+00 2.521646184595234956e+02
-1.017640661320470041e+00 6.668646141882940803e+00 2.521671571162235068e+02
-6.136002573204816235e-01 6.668646141882940803e+00 2.521696957729235180e+02
-2.095598532204750453e-01 6.668646141882933698e+00 2.521722344295235132e+02
1.944805507795710486e-01 6.668646141882942580e+00 2.521747730862234960e+02
5.985209548794725443e-01 6.668646141882941691e+00 2.521773117429235072e+02
1.002561358879435760e+00 6.668646141882935474e+00 2.521798503995235023e+02
1.406601762879337469e+00 6.668646141882931921e+00 2.521823890562235135e+02
1.810642166979324452e+00 6.668646141882932810e+00 2.521849277129234963e+02
2.214682570979456422e+00 6.668646141882935474e+00 2.521874663695235199e+02
2.618722975079533111e+00 6.668646141882939027e+00 2.521900050262235027e+02
-1.421681065320499426e+00 7.072686545882967302e+00 2.521639519555235154e+02
-1.017640661320453388e+00 7.072686545882961973e+00 2.521664906122234981e+02
-6.136002573204343280e-01 7.072686545882960196e+00 2.521690292689235093e+02
-2.095598532204224484e-01 7.072686545882958420e+00 2.521715679255235045e+02
1.944805507795839550e-01 7.072686545882953091e+00 2.521741065822235157e+02
5.985209548794901968e-01 7.072686545882941545e+00 2.521766452389234985e+02
1.002561358879403342e+00 7.072686545882940656e+00 2.521791838955234937e+02
1.406601762879276629e+00 7.072686545882940656e+00 2.521817225522235049e+02
1.810642166979314682e+00 7.072686545882937992e+00 2.521842612089235161e+02
2.214682570979435994e+00 7.072686545882940656e+00 2.521867998655235112e+02
2.618722975079569526e+00 7.072686545882951314e+00 2.521893385222234940e+02
-1.421681065320517412e+00 7.476726949882957385e+00 2.521632854515235067e+02
-1.017640661320419859e+00 7.476726949882966267e+00 2.521658241082235179e+02
-6.136002573204014654e-01 7.476726949882971596e+00 2.521683627648235131e+02
-2.095598532203958309e-01 7.476726949882973372e+00 2.521709014215234959e+02
1.944805507795701327e-01 7.476726949882973372e+00 2.521734400782235070e+02
5.985209548795055179e-01 7.476726949882961826e+00 2.521759787348235022e+02
1.002561358879388909e+00 7.476726949882968931e+00 2.521785173915235134e+02
1.406601762879339912e+00 7.476726949882965378e+00 2.521810560482234962e+02
1.810642166979385514e+00 7.476726949882967155e+00 2.521835947048235198e+02
2.214682570979421783e+00 7.476726949882965378e+00 2.521861333615235026e+02
2.618722975079524229e+00 7.476726949882960049e+00 2.521886720182235138e+02
-1.825721469420572785e+00 7.880767353982960799e+00 2.521600802908235153e+02
-1.421681065320493875e+00 7.880767353982968793e+00 2.521626189475234980e+02
-1.017640661320486251e+00 7.880767353982984780e+00 2.521651576041234932e+02
-6.136002573204215604e-01 7.880767353982984780e+00 2.521676962608235044e+02
-2.095598532204212272e-01 7.880767353982981227e+00 2.521702349175235156e+02
1.944805507795567823e-01 7.880767353982977674e+00 2.521727735741235108e+02
5.985209548795045187e-01 7.880767353982972345e+00 2.521753122308234936e+02
1.002561358879473952e+00 7.880767353982973233e+00 2.521778508875235048e+02
1.406601762879477135e+00 7.880767353982975010e+00 2.521803895441234999e+02
1.810642166979426371e+00 7.880767353982979451e+00 2.521829282008235111e+02
2.214682570979432441e+00 7.880767353982985668e+00 2.521854668575234939e+02
2.618722975079528670e+00 7.880767353982969681e+00 2.521880055141235175e+02
-1.825721469420622300e+00 8.284807757982985521e+00 2.521594137868235066e+02
-1.421681065320631099e+00 8.284807757982980192e+00 2.521619524434235018e+02
-1.017640661320491802e+00 8.284807757982981968e+00 2.521644911001235130e+02
-6.136002573204802912e-01 8.284807757982985521e+00 2.521670297568234957e+02
-2.095598532204397124e-01 8.284807757982978416e+00 2.521695684134235194e+02
1.944805507795295541e-01 8.284807757982967757e+00 2.521721070701235021e+02
5.985209548795282775e-01 8.284807757982980192e+00 2.521746457268235133e+02
1.002561358879547226e+00 8.284807757982980192e+00 2.521771843835234961e+02
1.406601762879548190e+00 8.284807757982981968e+00 2.521797230401235197e+02
1.810642166979527845e+00 8.284807757982987297e+00 2.521822616968235025e+02
2.214682570979557230e+00 8.284807757982983745e+00 2.521848003535235136e+02
2.618722975079537996e+00 8.284807757982985521e+00 2.521873390101235088e+02
-1.825721469420645837e+00 8.688848162082987159e+00 2.521587472828234979e+02
-1.421681065320676174e+00 8.688848162082974724e+00 2.521612859394234931e+02
-1.017640661320594386e+00 8.688848162082976501e+00 2.521638245961235043e+02
-6.136002573205179278e-01 8.688848162082985382e+00 2.521663632528235155e+02
-2.095598532205000808e-01 8.688848162082994264e+00 2.521689019094235107e+02
1.944805507795155097e-01 8.688848162082992488e+00 2.521714405661234935e+02
5.985209548795804579e-01 8.688848162082987159e+00 2.521739792228235046e+02
1.002561358879629605e+00 8.688848162082988935e+00 2.521765178794234998e+02
1.406601762879566841e+00 8.688848162082985382e+00 2.521790565361235110e+02
1.810642166979577139e+00 8.688848162082985382e+00 2.521815951928234938e+02
2.214682570979584320e+00 8.688848162082981830e+00 2.521841338494235174e+02
2.618722975079617488e+00 8.688848162082965843e+00 2.521866725061235002e+02
3.022763379079576485e+00 8.688848162082976501e+00 2.521892111628235114e+02
-1.825721469420614973e+00 9.092888566082983459e+00 2.521580807787235017e+02
-1.421681065320673509e+00 9.092888566082983459e+00 2.521606194354235129e+02
-1.017640661320595274e+00 9.092888566082983459e+00 2.521631580921234956e+02
-6.136002573205096011e-01 9.092888566082983459e+00 2.521656967487235192e+02
-2.095598532204952791e-01 9.092888566082969248e+00 2.521682354054235020e+02
1.944805507795761002e-01 9.092888566082972801e+00 2.521707740621235132e+02
5.985209548796186496e-01 9.092888566082969248e+00 2.521733127187235084e+02
1.002561358879612063e+00 9.092888566082976354e+00 2.521758513754235196e+02
1.406601762879597928e+00 9.092888566082965696e+00 2.521783900321235024e+02
1.810642166979593126e+00 9.092888566082955037e+00 2.521809286887234975e+02
2.214682570979586096e+00 9.092888566082963919e+00 2.521834673454235087e+02
2.618722975079600612e+00 9.092888566082979906e+00 2.521860060021235199e+02
-1.825721469420603427e+00 9.496928970082985089e+00 2.521574142747234930e+02
-1.421681065320573589e+00 9.496928970082970878e+00 2.521599529314235042e+02
-1.017640661320517559e+00 9.496928970082981536e+00 2.521624915880234994e+02
-6.136002573205405763e-01 9.496928970082988641e+00 2.521650302447235106e+02
-2.095598532204772657e-01 9.496928970082977983e+00 2.521675689014234933e+02
1.944805507795163702e-01 9.496928970082983312e+00 2.521701075580235170e+02
5.985209548795525913e-01 9.496928970082985089e+00 2.521726462147234997e+02
1.002561358879574316e+00 9.496928970082979760e+00 2.521751848714235109e+02
1.406601762879559736e+00 9.496928970082983312e+00 2.521777235281234937e+02
1.810642166979544498e+00 9.496928970082970878e+00 2.521802621847235173e+02
2.214682570979613185e+00 9.496928970082977983e+00 2.521828008414235001e+02
-1.825721469420510612e+00 9.900969374182983174e+00 2.521567477707235128e+02
-1.421681065320564263e+00 9.900969374182993832e+00 2.521592864274234955e+02
-1.017640661320539319e+00 9.900969374182986726e+00 2.521618250840235191e+02
-6.136002573205048272e-01 9.900969374182984950e+00 2.521643637407235019e+02
-2.095598532205583675e-01 9.900969374182992055e+00 2.521669023974235131e+02
1.944805507794850896e-01 9.900969374182992055e+00 2.521694410540235083e+02
5.985209548795034085e-01 9.900969374182983174e+00 2.521719797107235195e+02
1.002561358879532127e+00 9.900969374182979621e+00 2.521745183674235022e+02
1.406601762879529094e+00 9.900969374182984950e+00 2.521770570240234974e+02
1.810642166979547163e+00 9.900969374182981397e+00 2.521795956807235086e+02
2.214682570979606968e+00 9.900969374182979621e+00 2.521821343374235198e+02
2.618722975079686321e+00 9.900969374182979621e+00 2.521846729940235150e+02
3.022763379079759893e+00 9.900969374182981397e+00 2.521872116507234978e+02
-1.825721469420505949e+00 1.030500977818299368e+01 2.521560812667235041e+02
-1.421681065320539838e+00 1.030500977818299546e+01 2.521586199233234993e+02
-1.017640661320552642e+00 1.030500977818299191e+01 2.521611585800235105e+02
-6.136002573204996091e-01 1.030500977818299013e+01 2.521636972367234932e+02
-2.095598532204782649e-01 1.030500977818298836e+01 2.521662358933235168e+02
1.944805507795109578e-01 1.030500977818297770e+01 2.521687745500234996e+02
5.985209548795171752e-01 1.030500977818297592e+01 2.521713132067235108e+02
1.002561358879531683e+00 1.030500977818298125e+01 2.521738518633235060e+02
1.406601762879500894e+00 1.030500977818296349e+01 2.521763905200235172e+02
1.810642166979550050e+00 1.030500977818296526e+01 2.521789291767234999e+02
2.214682570979607412e+00 1.030500977818297592e+01 2.521814678333234951e+02
2.618722975079681436e+00 1.030500977818298303e+01 2.521840064900235063e+02
3.022763379079740798e+00 1.030500977818298125e+01 2.521865451467235175e+02
-1.421681065320539394e+00 1.070905018228298999e+01 2.521579534193235190e+02
-1.017640661320485806e+00 1.070905018228298111e+01 2.521604920760235018e+02
-6.136002573204799582e-01 1.070905018228298111e+01 2.521630307326234970e+02
-2.095598532204714093e-01 1.070905018228298999e+01 2.521655693893235082e+02
1.944805507795102639e-01 1.070905018228298644e+01 2.521681080460235194e+02
5.985209548795095147e-01 1.070905018228299355e+01 2.521706467026235146e+02
1.002561358879561215e+00 1.070905018228299177e+01 2.521731853593234973e+02
1.406601762879547302e+00 1.070905018228298999e+01 2.521757240160235085e+02
1.810642166979473888e+00 1.070905018228298644e+01 2.521782626726235037e+02
2.214682570979593645e+00 1.070905018228298466e+01 2.521808013293235149e+02
2.618722975079653459e+00 1.070905018228298111e+01 2.521833399860234977e+02
3.022763379079759449e+00 1.070905018228298466e+01 2.521858786427235088e+02
-1.017640661320481144e+00 1.111309058628299162e+01 2.521598255720234931e+02
-6.136002573204929478e-01 1.111309058628299340e+01 2.521623642286235167e+02
-2.095598532204658027e-01 1.111309058628299162e+01 2.521649028853234995e+02
1.944805507795288047e-01 1.111309058628298807e+01 2.521674415420235107e+02
5.985209548794951928e-01 1.111309058628300583e+01 2.521699801986235059e+02
1.002561358879547226e+00 1.111309058628300228e+01 2.521725188553235171e+02
1.406601762879516881e+00 1.111309058628298985e+01 2.521750575120234998e+02
1.810642166979499423e+00 1.111309058628298985e+01 2.521775961686234950e+02
2.214682570979600307e+00 1.111309058628298807e+01 2.521801348253235062e+02
2.618722975079665005e+00 1.111309058628298096e+01 2.521826734820235174e+02
3.022763379079695500e+00 1.111309058628298096e+01 2.521852121386235126e+02
-1.017640661320486473e+00 1.151713099038298793e+01 2.521591590679234969e+02
-6.136002573204831778e-01 1.151713099038299148e+01 2.521616977246235081e+02
-2.095598532204842879e-01 1.151713099038298793e+01 2.521642363813235193e+02
1.944805507795157873e-01 1.151713099038298793e+01 2.521667750379235144e+02
5.985209548794907519e-01 1.151713099038299148e+01 2.521693136946234972e+02
1.002561358879536790e+00 1.151713099038298971e+01 2.521718523513235084e+02
1.406601762879521766e+00 1.151713099038299859e+01 2.521743910079235036e+02
1.810642166979505419e+00 1.151713099038298793e+01 2.521769296646235148e+02
2.214682570979529697e+00 1.151713099038298083e+01 2.521794683213234975e+02
2.618722975079629922e+00 1.151713099038298083e+01 2.521820069779235212e+02
3.022763379079735468e+00 1.151713099038297550e+01 2.521845456346235039e+02
-1.017640661320535989e+00 1.192117139438298956e+01 2.521584925639235166e+02
-6.136002573204882848e-01 1.192117139438298423e+01 2.521610312206234994e+02
-2.095598532205031617e-01 1.192117139438300200e+01 2.521635698772234946e+02
1.944805507795606125e-01 1.192117139438300910e+01 2.521661085339235058e+02
5.985209548795600298e-01 1.192117139438300200e+01 2.521686471906235170e+02
1.002561358879531017e+00 1.192117139438301088e+01 2.521711858472235122e+02
1.406601762879502004e+00 1.192117139438300910e+01 2.521737245039234949e+02
1.810642166979503420e+00 1.192117139438300555e+01 2.521762631606235061e+02
2.214682570979523479e+00 1.192117139438298423e+01 2.521788018172235013e+02
2.618722975079594395e+00 1.192117139438298601e+01 2.521813404739235125e+02
3.022763379079734580e+00 1.192117139438298778e+01 2.521838791306234953e+02
-1.421681065320537396e+00 1.232521179838300363e+01 2.521552874032234968e+02
-1.017640661320511342e+00 1.232521179838298941e+01 2.521578260599235080e+02
-6.136002573204903943e-01 1.232521179838300363e+01 2.521603647165235031e+02
-2.095598532205227849e-01 1.232521179838300895e+01 2.521629033732235143e+02
1.944805507795536459e-01 1.232521179838300718e+01 2.521654420299234971e+02
5.985209548795586976e-01 1.232521179838301428e+01 2.521679806866235083e+02
1.002561358879524578e+00 1.232521179838301606e+01 2.521705193432235035e+02
1.406601762879543527e+00 1.232521179838301251e+01 2.521730579999235147e+02
1.810642166979495871e+00 1.232521179838301073e+01 2.521755966566234974e+02
2.214682570979532805e+00 1.232521179838300540e+01 2.521781353132235211e+02
2.618722975079516679e+00 1.232521179838298941e+01 2.521806739699235038e+02
3.022763379079658197e+00 1.232521179838299119e+01 2.521832126266235150e+02
