-2.120730702938821710e-01 -1.272463342705597178e+01 2.526042181830979985e+02
1.919673337061404972e-01 -1.272463342705597888e+01 2.526067568396980221e+02
1.404088545806211785e+00 -1.272463342705598777e+01 2.526143728096980112e+02
2.212169353906174862e+00 -1.272463342705597533e+01 2.526194501230980052e+02
2.616209758006108999e+00 -1.272463342705597711e+01 2.526219887796980004e+02
-1.020153878393963209e+00 -1.232059302295597369e+01 2.525984743656979958e+02
-6.161134743940066549e-01 -1.232059302295597547e+01 2.526010130223980070e+02
-2.120730702938970480e-01 -1.232059302295597725e+01 2.526035516789980022e+02
1.919673337061252871e-01 -1.232059302295598080e+01 2.526060903356980134e+02
5.960077378061990894e-01 -1.232059302295598435e+01 2.526086289923979962e+02
1.000048141806181956e+00 -1.232059302295598435e+01 2.526111676489980198e+02
1.404088545806204014e+00 -1.232059302295598613e+01 2.526137063056980026e+02
1.808128949906199212e+00 -1.232059302295598613e+01 2.526162449623980137e+02
2.212169353906183744e+00 -1.232059302295598435e+01 2.526187836189980089e+02
-1.020153878393946334e+00 -1.191655261895597029e+01 2.525978078616980156e+02
-6.161134743939585823e-01 -1.191655261895597206e+01 2.526003465182980108e+02
-2.120730702938963264e-01 -1.191655261895598450e+01 2.526028851749980220e+02
1.919673337060882889e-01 -1.191655261895598628e+01 2.526054238316980047e+02
5.960077378061735542e-01 -1.191655261895597917e+01 2.526079624882979999e+02
1.000048141806148649e+00 -1.191655261895598095e+01 2.526105011449980111e+02
1.404088545806181809e+00 -1.191655261895598450e+01 2.526130398016980223e+02
1.808128949906157912e+00 -1.191655261895597739e+01 2.526155784582980175e+02
2.212169353906198399e+00 -1.191655261895597739e+01 2.526181171149980003e+02
2.616209758006116992e+00 -1.191655261895597562e+01 2.526206557716980114e+02
-1.020153878393929903e+00 -1.151251221495596333e+01 2.525971413576980069e+02
-6.161134743939516989e-01 -1.151251221495596333e+01 2.525996800142980021e+02
-2.120730702939515877e-01 -1.151251221495596333e+01 2.526022186709980133e+02
1.919673337061241769e-01 -1.151251221495597044e+01 2.526047573276979961e+02
5.960077378061732212e-01 -1.151251221495597576e+01 2.526072959842980197e+02
1.000048141806147983e+00 -1.151251221495597399e+01 2.526098346409980024e+02
1.404088545806139843e+00 -1.151251221495597221e+01 2.526123732976980136e+02
1.808128949906156580e+00 -1.151251221495596511e+01 2.526149119542980088e+02
2.212169353906181968e+00 -1.151251221495596688e+01 2.526174506109980200e+02
2.616209758006141417e+00 -1.151251221495598642e+01 2.526199892676980028e+02
-1.424194282393873356e+00 -1.110847181085599544e+01 2.525939361969980155e+02
-1.020153878393883051e+00 -1.110847181085597768e+01 2.525964748535980107e+02
-6.161134743938989633e-01 -1.110847181085595992e+01 2.525990135102980219e+02
-2.120730702938977419e-01 -1.110847181085597235e+01 2.526015521669980046e+02
1.919673337061397755e-01 -1.110847181085597057e+01 2.526040908235979998e+02
5.960077378061349185e-01 -1.110847181085596880e+01 2.526066294802980110e+02
1.000048141806132440e+00 -1.110847181085597413e+01 2.526091681369980222e+02
1.404088545806161603e+00 -1.110847181085596880e+01 2.526117067935980174e+02
1.808128949906130600e+00 -1.110847181085595814e+01 2.526142454502980002e+02
2.212169353906190850e+00 -1.110847181085597946e+01 2.526167841069980113e+02
2.616209758006162289e+00 -1.110847181085599189e+01 2.526193227635980065e+02
-1.424194282393802080e+00 -1.070443140685600270e+01 2.525932696928980192e+02
-1.020153878393865288e+00 -1.070443140685599737e+01 2.525958083495980020e+02
-6.161134743938965208e-01 -1.070443140685598316e+01 2.525983470062980132e+02
-2.120730702938987966e-01 -1.070443140685596184e+01 2.526008856628980084e+02
1.919673337061391094e-01 -1.070443140685596362e+01 2.526034243195980196e+02
5.960077378061203746e-01 -1.070443140685597960e+01 2.526059629762980023e+02
1.000048141806147983e+00 -1.070443140685597427e+01 2.526085016328979975e+02
1.404088545806124300e+00 -1.070443140685597072e+01 2.526110402895980087e+02
1.808128949906116834e+00 -1.070443140685597605e+01 2.526135789462980199e+02
2.212169353906184632e+00 -1.070443140685599381e+01 2.526161176028980151e+02
-1.424194282393816735e+00 -1.030039100275600994e+01 2.525926031888980106e+02
-1.020153878393857072e+00 -1.030039100275600106e+01 2.525951418455980217e+02
-6.161134743938573299e-01 -1.030039100275599928e+01 2.525976805021980169e+02
-2.120730702939041257e-01 -1.030039100275598507e+01 2.526002191588979997e+02
1.919673337061024443e-01 -1.030039100275597264e+01 2.526027578155980109e+02
5.960077378061237052e-01 -1.030039100275598152e+01 2.526052964722980221e+02
1.000048141806149093e+00 -1.030039100275598507e+01 2.526078351288980173e+02
1.404088545806149391e+00 -1.030039100275598862e+01 2.526103737855980000e+02
1.808128949906101957e+00 -1.030039100275599928e+01 2.526129124422980112e+02
2.212169353906111802e+00 -1.030039100275599928e+01 2.526154510988980064e+02
-1.020153878393880609e+00 -9.896350598756001204e+00 2.525944753415980131e+02
-6.161134743938496694e-01 -9.896350598755999428e+00 2.525970139981980083e+02
-2.120730702939108980e-01 -9.896350598755995875e+00 2.525995526548980195e+02
1.919673337060970320e-01 -9.896350598755997652e+00 2.526020913115980022e+02
5.960077378061320319e-01 -9.896350598755988770e+00 2.526046299681979974e+02
1.000048141806098023e+00 -9.896350598756006534e+00 2.526071686248980086e+02
1.404088545806159605e+00 -9.896350598756011863e+00 2.526097072815980198e+02
1.808128949906117944e+00 -9.896350598756002981e+00 2.526122459381980150e+02
2.212169353906129565e+00 -9.896350598756010086e+00 2.526147845948979977e+02
-1.020153878393910585e+00 -9.492310194655999567e+00 2.525938088374980168e+02
-6.161134743938282421e-01 -9.492310194655992461e+00 2.525963474941979996e+02
-2.120730702938866119e-01 -9.492310194655988909e+00 2.525988861508980108e+02
1.919673337061360563e-01 -9.492310194655981803e+00 2.526014248074980060e+02
5.960077378061768849e-01 -9.492310194655983580e+00 2.526039634641980172e+02
1.000048141806149760e+00 -9.492310194655990685e+00 2.526065021208979999e+02
1.404088545806141175e+00 -9.492310194656001343e+00 2.526090407774980235e+02
1.808128949906155025e+00 -9.492310194655997790e+00 2.526115794341980063e+02
2.212169353906195735e+00 -9.492310194655987132e+00 2.526141180908980175e+02
2.616209758006147634e+00 -9.492310194656003119e+00 2.526166567474980127e+02
-1.020153878393950997e+00 -9.088269790656003266e+00 2.525931423334980082e+02
-6.161134743938916358e-01 -9.088269790655985503e+00 2.525956809901980193e+02
-2.120730702938516676e-01 -9.088269790655962410e+00 2.525982196467980145e+02
1.919673337061385543e-01 -9.088269790655958857e+00 2.526007583034979973e+02
5.960077378061356956e-01 -9.088269790655978397e+00 2.526032969601980085e+02
1.000048141806188839e+00 -9.088269790655976621e+00 2.526058356168980197e+02
1.404088545806194688e+00 -9.088269790655990832e+00 2.526083742734980149e+02
1.808128949906219640e+00 -9.088269790655987279e+00 2.526109129301979976e+02
2.212169353906235258e+00 -9.088269790656003266e+00 2.526134515868980088e+02
2.616209758006139641e+00 -9.088269790656003266e+00 2.526159902434980040e+02
-1.020153878393934566e+00 -8.684229386656010519e+00 2.525924758294979995e+02
-6.161134743940058778e-01 -8.684229386655999861e+00 2.525950144861980107e+02
-2.120730702939842283e-01 -8.684229386655998084e+00 2.525975531427980059e+02
1.919673337061260643e-01 -8.684229386656006966e+00 2.526000917994980171e+02
5.960077378062097475e-01 -8.684229386656014071e+00 2.526026304561979998e+02
1.000048141806295643e+00 -8.684229386656012295e+00 2.526051691127980234e+02
1.404088545806350119e+00 -8.684229386656026506e+00 2.526077077694980062e+02
1.808128949906320670e+00 -8.684229386656014071e+00 2.526102464261980174e+02
2.212169353906254798e+00 -8.684229386656024730e+00 2.526127850827980126e+02
2.616209758006139197e+00 -8.684229386655999861e+00 2.526153237394979953e+02
-1.424194282394000588e+00 -8.280188982556007105e+00 2.525892706687980080e+02
-1.020153878394000957e+00 -8.280188982556001775e+00 2.525918093254980192e+02
-6.161134743939753466e-01 -8.280188982556008881e+00 2.525943479820980144e+02
-2.120730702939179202e-01 -8.280188982556003552e+00 2.525968866387979972e+02
1.919673337061734431e-01 -8.280188982556008881e+00 2.525994252954980084e+02
5.960077378063003417e-01 -8.280188982556012434e+00 2.526019639520980036e+02
1.000048141806333390e+00 -8.280188982556014210e+00 2.526045026087980148e+02
1.404088545806331911e+00 -8.280188982556015986e+00 2.526070412654979975e+02
1.808128949906381067e+00 -8.280188982556007105e+00 2.526095799220980211e+02
2.212169353906229929e+00 -8.280188982556010657e+00 2.526121185787980039e+02
2.616209758006194708e+00 -8.280188982556023092e+00 2.526146572354980151e+02
-1.424194282393957067e+00 -7.876148578556017021e+00 2.525886041647979994e+02
-1.020153878393910141e+00 -7.876148578556033897e+00 2.525911428213980230e+02
-6.161134743938750935e-01 -7.876148578556025015e+00 2.525936814780980058e+02
-2.120730702938538326e-01 -7.876148578556017021e+00 2.525962201347980169e+02
1.919673337061638951e-01 -7.876148578556008140e+00 2.525987587913980121e+02
5.960077378061831022e-01 -7.876148578555997481e+00 2.526012974480980233e+02
1.000048141806257451e+00 -7.876148578556005475e+00 2.526038361047980061e+02
1.404088545806311483e+00 -7.876148578556016133e+00 2.526063747613980013e+02
1.808128949906268712e+00 -7.876148578556022350e+00 2.526089134180980125e+02
2.212169353906277003e+00 -7.876148578556028568e+00 2.526114520747979952e+02
2.616209758006263097e+00 -7.876148578556033897e+00 2.526139907314980064e+02
-1.424194282393838051e+00 -7.472108174456002061e+00 2.525879376607980191e+02
-1.020153878393798230e+00 -7.472108174456011831e+00 2.525904763173980143e+02
-6.161134743939629121e-01 -7.472108174456006502e+00 2.525930149740979971e+02
-2.120730702939420675e-01 -7.472108174456011831e+00 2.525955536307980083e+02
1.919673337060885943e-01 -7.472108174456006502e+00 2.525980922873980035e+02
5.960077378061129361e-01 -7.472108174456000285e+00 2.526006309440980147e+02
1.000048141806141100e+00 -7.472108174455999396e+00 2.526031696007979974e+02
1.404088545806233546e+00 -7.472108174456017160e+00 2.526057082573980210e+02
1.808128949906298466e+00 -7.472108174456010055e+00 2.526082469140980038e+02
2.212169353906276559e+00 -7.472108174456021601e+00 2.526107855707980150e+02
-1.424194282393731470e+00 -7.068067770456020860e+00 2.525872711566980229e+02
-1.020153878393845304e+00 -7.068067770455994214e+00 2.525898098133980056e+02
-6.161134743938991853e-01 -7.068067770455987997e+00 2.525923484700980168e+02
-2.120730702939367107e-01 -7.068067770455987997e+00 2.525948871266980120e+02
1.919673337060406049e-01 -7.068067770455981780e+00 2.525974257833980232e+02
5.960077378060664177e-01 -7.068067770455988885e+00 2.525999644400980060e+02
1.000048141806101798e+00 -7.068067770455981780e+00 2.526025030966980012e+02
1.404088545806262633e+00 -7.068067770455980892e+00 2.526050417533980124e+02
1.808128949906382399e+00 -7.068067770455988885e+00 2.526075804100980235e+02
2.212169353906321856e+00 -7.068067770455992438e+00 2.526101190666980187e+02
-1.020153878393804225e+00 -6.664027366455983703e+00 2.525891433093979970e+02
-6.161134743938758707e-01 -6.664027366455986368e+00 2.525916819659980206e+02
-2.120730702939381263e-01 -6.664027366455974821e+00 2.525942206226980034e+02
1.919673337060698592e-01 -6.664027366455976598e+00 2.525967592793980145e+02
5.960077378061634512e-01 -6.664027366455973933e+00 2.525992979359980097e+02
1.000048141806184177e+00 -6.664027366455977486e+00 2.526018365926980209e+02
1.404088545806278843e+00 -6.664027366455988144e+00 2.526043752493980037e+02
1.808128949906332217e+00 -6.664027366455989032e+00 2.526069139059979989e+02
2.212169353906206837e+00 -6.664027366455983703e+00 2.526094525626980101e+02
-1.020153878393857738e+00 -6.259986962355996276e+00 2.525884768052980007e+02
-6.161134743938380121e-01 -6.259986962355990059e+00 2.525910154619980119e+02
-2.120730702938859458e-01 -6.259986962355965190e+00 2.525935541186980231e+02
1.919673337061532370e-01 -6.259986962355950979e+00 2.525960927753980059e+02
5.960077378061857667e-01 -6.259986962355947426e+00 2.525986314319980011e+02
1.000048141806159308e+00 -6.259986962355949203e+00 2.526011700886980123e+02
1.404088545806218891e+00 -6.259986962355967854e+00 2.526037087453980234e+02
1.808128949906250060e+00 -6.259986962355981177e+00 2.526062474019980186e+02
2.212169353906174418e+00 -6.259986962355987394e+00 2.526087860586980014e+02
-1.020153878393807778e+00 -5.855946558355995535e+00 2.525878103012980205e+02
-6.161134743938464498e-01 -5.855946558355983100e+00 2.525903489579980032e+02
-2.120730702938272150e-01 -5.855946558355972442e+00 2.525928876146980144e+02
1.919673337062462182e-01 -5.855946558355972442e+00 2.525954262712980096e+02
5.960077378062786924e-01 -5.855946558355968889e+00 2.525979649279980208e+02
1.000048141806247237e+00 -5.855946558355951126e+00 2.526005035846980036e+02
1.404088545806210675e+00 -5.855946558355963560e+00 2.526030422412979988e+02
1.808128949906195881e+00 -5.855946558355969778e+00 2.526055808979980100e+02
2.212169353906141112e+00 -5.855946558355982212e+00 2.526081195546980211e+02
2.616209758006105002e+00 -5.855946558355985765e+00 2.526106582112980163e+02
-1.020153878393843749e+00 -5.451906154256010772e+00 2.525871437972980118e+02
-6.161134743937990432e-01 -5.451906154256003667e+00 2.525896824539980230e+02
-2.120730702936755030e-01 -5.451906154256002779e+00 2.525922211105980182e+02
1.919673337062862972e-01 -5.451906154255996562e+00 2.525947597672980010e+02
5.960077378062286213e-01 -5.451906154255998338e+00 2.525972984239980121e+02
1.000048141806244351e+00 -5.451906154255998338e+00 2.525998370805980073e+02
1.404088545806175592e+00 -5.451906154256000114e+00 2.526023757372980185e+02
1.808128949906166349e+00 -5.451906154256002779e+00 2.526049143939980013e+02
2.212169353906131342e+00 -5.451906154256008996e+00 2.526074530505979965e+02
-1.020153878393843971e+00 -5.047865750256008255e+00 2.525864772932980031e+02
-6.161134743937906055e-01 -5.047865750256010031e+00 2.525890159498979983e+02
-2.120730702937494994e-01 -5.047865750255997597e+00 2.525915546065980095e+02
1.919673337062411111e-01 -5.047865750255998485e+00 2.525940932632980207e+02
5.960077378062028641e-01 -5.047865750255991379e+00 2.525966319199980035e+02
1.000048141806199942e+00 -5.047865750255991379e+00 2.525991705765979987e+02
1.404088545806220889e+00 -5.047865750256000261e+00 2.526017092332980098e+02
1.808128949906238070e+00 -5.047865750256014472e+00 2.526042478899980210e+02
2.212169353906173086e+00 -5.047865750256023354e+00 2.526067865465980162e+02
-1.424194282393848043e+00 -4.643825346256011954e+00 2.525832721325980117e+02
-1.020153878393898816e+00 -4.643825346255991526e+00 2.525858107892980229e+02
-6.161134743939103986e-01 -4.643825346256001296e+00 2.525883494458980181e+02
-2.120730702938624923e-01 -4.643825346255979092e+00 2.525908881025980008e+02
1.919673337061737206e-01 -4.643825346255981756e+00 2.525934267592980120e+02
5.960077378061874320e-01 -4.643825346255993303e+00 2.525959654158980072e+02
1.000048141806298529e+00 -4.643825346255994191e+00 2.525985040725980184e+02
1.404088545806345012e+00 -4.643825346256005737e+00 2.526010427292980012e+02
1.808128949906293359e+00 -4.643825346256019060e+00 2.526035813858979964e+02
-6.161134743939447045e-01 -4.239784942155987224e+00 2.525876829418980094e+02
-2.120730702940155643e-01 -4.239784942156012093e+00 2.525902215985980206e+02
1.919673337061242879e-01 -4.239784942156018310e+00 2.525927602551980158e+02
5.960077378062319520e-01 -4.239784942156032521e+00 2.525952989118979986e+02
1.000048141806335833e+00 -4.239784942156037850e+00 2.525978375685980097e+02
1.404088545806311483e+00 -4.239784942156028968e+00 2.526003762251980049e+02
1.808128949906272043e+00 -4.239784942156038738e+00 2.526029148818980161e+02
-1.020153878393993407e+00 -3.835744538155983818e+00 2.525844777811980180e+02
-6.161134743940013259e-01 -3.835744538155981154e+00 2.525870164378980007e+02
-2.120730702940614165e-01 -3.835744538155976713e+00 2.525895550944979959e+02
1.919673337059466522e-01 -3.835744538155978933e+00 2.525920937511980071e+02
5.960077378060785191e-01 -3.835744538155983818e+00 2.525946324078980183e+02
1.000048141806190172e+00 -3.835744538155989147e+00 2.525971710644980135e+02
1.404088545806174704e+00 -3.835744538155992256e+00 2.525997097211979963e+02
1.808128949906186111e+00 -3.835744538155993588e+00 2.526022483778980074e+02
-1.020153878394149283e+00 -3.431704134055989286e+00 2.525838112771980093e+02
-6.161134743941193426e-01 -3.431704134055990174e+00 2.525863499338980205e+02
-2.120730702941869272e-01 -3.431704134055987510e+00 2.525888885904980157e+02
1.919673337058568352e-01 -3.431704134055988398e+00 2.525914272471979984e+02
5.960077378059256414e-01 -3.431704134055989730e+00 2.525939659038980096e+02
1.000048141806013424e+00 -3.431704134055987954e+00 2.525965045604980048e+02
1.404088545806005506e+00 -3.431704134055988398e+00 2.525990432171980160e+02
1.808128949906043115e+00 -3.431704134055990618e+00 2.526015818738979988e+02
-1.020153878393973201e+00 -3.027663730056012970e+00 2.525831447731980006e+02
-6.161134743940603897e-01 -3.027663730056000535e+00 2.525856834297979958e+02
-2.120730702940447632e-01 -3.027663730056000979e+00 2.525882220864980070e+02
1.919673337060191776e-01 -3.027663730056000091e+00 2.525907607431980182e+02
5.960077378060425479e-01 -3.027663730056000091e+00 2.525932993997980134e+02
1.000048141806056945e+00 -3.027663730056000091e+00 2.525958380564979961e+02
1.404088545805961097e+00 -3.027663730055998759e+00 2.525983767131980073e+02
1.808128949906024685e+00 -3.027663730056006308e+00 2.526009153697980025e+02
-1.020153878394014058e+00 -2.623623326056010452e+00 2.525824782690980044e+02
-6.161134743939555847e-01 -2.623623326056015781e+00 2.525850169257980156e+02
-2.120730702939552792e-01 -2.623623326056018890e+00 2.525875555824979983e+02
1.919673337060187057e-01 -2.623623326056025551e+00 2.525900942390980219e+02
5.960077378059951414e-01 -2.623623326056025995e+00 2.525926328957980047e+02
1.000048141805921720e+00 -2.623623326056025995e+00 2.525951715524980159e+02
1.404088545805955546e+00 -2.623623326056021110e+00 2.525977102090980111e+02
1.808128949905940086e+00 -2.623623326056020666e+00 2.526002488657980223e+02
-1.020153878393837310e+00 -2.219582921956010590e+00 2.525818117650979957e+02
-6.161134743938573299e-01 -2.219582921956013255e+00 2.525843504217980069e+02
-2.120730702939720991e-01 -2.219582921956023025e+00 2.525868890784980181e+02
1.919673337060518459e-01 -2.219582921956028354e+00 2.525894277350980133e+02
5.960077378059202013e-01 -2.219582921956025690e+00 2.525919663917979960e+02
1.000048141805861990e+00 -2.219582921956021249e+00 2.525945050484980072e+02
1.404088545805894039e+00 -2.219582921956014143e+00 2.525970437050980024e+02
1.808128949905895233e+00 -2.219582921956008814e+00 2.525995823617980136e+02
-1.424194282393986377e+00 -1.815542517956005630e+00 2.525786066043980043e+02
-1.020153878393956104e+00 -1.815542517956011404e+00 2.525811452610980155e+02
-6.161134743939732372e-01 -1.815542517956012070e+00 2.525836839177979982e+02
-2.120730702939321866e-01 -1.815542517956016066e+00 2.525862225743980218e+02
1.919673337059396578e-01 -1.815542517956016733e+00 2.525887612310980046e+02
5.960077378059165376e-01 -1.815542517956018731e+00 2.525912998877980158e+02
1.000048141805894852e+00 -1.815542517956021173e+00 2.525938385443980110e+02
1.404088545805961763e+00 -1.815542517956018731e+00 2.525963772010980222e+02
1.808128949905910776e+00 -1.815542517956008961e+00 2.525989158577980049e+02
2.212169353905943492e+00 -1.815542517956008739e+00 2.526014545143980001e+02
-1.424194282393903110e+00 -1.411502113855977569e+00 2.525779401003979956e+02
-1.020153878393886382e+00 -1.411502113855975349e+00 2.525804787570980068e+02
-6.161134743939549185e-01 -1.411502113855976459e+00 2.525830174136980020e+02
-2.120730702939929158e-01 -1.411502113855972018e+00 2.525855560703980132e+02
1.919673337060522067e-01 -1.411502113855969354e+00 2.525880947270979959e+02
5.960077378059392972e-01 -1.411502113855966911e+00 2.525906333836980195e+02
1.000048141805893964e+00 -1.411502113855967355e+00 2.525931720403980023e+02
1.404088545805737720e+00 -1.411502113855970242e+00 2.525957106970980135e+02
1.808128949905714267e+00 -1.411502113855968910e+00 2.525982493536980087e+02
2.212169353905808045e+00 -1.411502113855970242e+00 2.526007880103980199e+02
2.616209758006011743e+00 -1.411502113855976237e+00 2.526033266670980026e+02
3.020250162005928551e+00 -1.411502113855973795e+00 2.526058653236979978e+02
-1.020153878393982083e+00 -1.007461709855973497e+00 2.525798122529980105e+02
-6.161134743939017389e-01 -1.007461709855975274e+00 2.525823509096980217e+02
-2.120730702939021550e-01 -1.007461709855971499e+00 2.525848895663980045e+02
1.919673337060728291e-01 -1.007461709855972165e+00 2.525874282230980157e+02
5.960077378060351094e-01 -1.007461709855970389e+00 2.525899668796980109e+02
1.000048141805944146e+00 -1.007461709855968390e+00 2.525925055363980221e+02
1.404088545805775023e+00 -1.007461709855965948e+00 2.525950441930980048e+02
1.808128949905597915e+00 -1.007461709855962395e+00 2.525975828496980000e+02
2.212169353905575786e+00 -1.007461709855964616e+00 2.526001215063980112e+02
2.616209758005606734e+00 -1.007461709855962839e+00 2.526026601630980224e+02
-1.020153878393919245e+00 -6.034213058559739773e-01 2.525791457489980019e+02
-6.161134743939348235e-01 -6.034213058559726450e-01 2.525816844056980131e+02
-2.120730702939094270e-01 -6.034213058559765308e-01 2.525842230623979958e+02
1.919673337060655016e-01 -6.034213058559760867e-01 2.525867617189980194e+02
5.960077378060655295e-01 -6.034213058559764198e-01 2.525893003756980022e+02
1.000048141805932156e+00 -6.034213058559729781e-01 2.525918390323980134e+02
1.404088545805825428e+00 -6.034213058559700915e-01 2.525943776889980086e+02
1.808128949905750016e+00 -6.034213058559672049e-01 2.525969163456980198e+02
2.212169353905807601e+00 -6.034213058559677600e-01 2.525994550023980025e+02
2.616209758005821673e+00 -6.034213058559673160e-01 2.526019936589979977e+02
-1.424194282394249278e+00 -1.993809017559732832e-01 2.525759405882980104e+02
-1.020153878394158609e+00 -1.993809017559743657e-01 2.525784792449980216e+02
-6.161134743940175351e-01 -1.993809017559760033e-01 2.525810179016980044e+02
-2.120730702939343792e-01 -1.993809017559776686e-01 2.525835565582979996e+02
1.919673337060656404e-01 -1.993809017559773356e-01 2.525860952149980108e+02
5.960077378060685271e-01 -1.993809017559761421e-01 2.525886338716980219e+02
1.000048141805966795e+00 -1.993809017559733388e-01 2.525911725282980171e+02
1.404088545805822319e+00 -1.993809017559703689e-01 2.525937111849979999e+02
1.808128949905850824e+00 -1.993809017559724506e-01 2.525962498416980111e+02
2.212169353905920843e+00 -1.993809017559723951e-01 2.525987884982980063e+02
2.616209758005943797e+00 -1.993809017559715624e-01 2.526013271549980175e+02
-1.424194282394090738e+00 2.046595022440215739e-01 2.525752740842980018e+02
-1.020153878394070457e+00 2.046595022440202138e-01 2.525778127409980129e+02
-6.161134743940829273e-01 2.046595022440221567e-01 2.525803513975980081e+02
-2.120730702940470946e-01 2.046595022440216016e-01 2.525828900542980193e+02
1.919673337060063267e-01 2.046595022440197142e-01 2.525854287109980021e+02
5.960077378060408826e-01 2.046595022440189926e-01 2.525879673675979973e+02
1.000048141806017643e+00 2.046595022440191869e-01 2.525905060242980085e+02
1.404088545806022159e+00 2.046595022440195200e-01 2.525930446809980197e+02
1.808128949906103511e+00 2.046595022440193534e-01 2.525955833376980024e+02
2.212169353906178415e+00 2.046595022440191036e-01 2.525981219942979976e+02
-1.424194282393992150e+00 6.086999063440207136e-01 2.525746075802980215e+02
-1.020153878394062907e+00 6.086999063440223789e-01 2.525771462369980043e+02
-6.161134743941240055e-01 6.086999063440259317e-01 2.525796848935979995e+02
-2.120730702942369428e-01 6.086999063440282631e-01 2.525822235502980107e+02
1.919673337059072948e-01 6.086999063440247104e-01 2.525847622069980218e+02
5.960077378059952524e-01 6.086999063440211577e-01 2.525873008635980170e+02
1.000048141806017421e+00 6.086999063440204916e-01 2.525898395202979998e+02
1.404088545806100541e+00 6.086999063440178270e-01 2.525923781769980110e+02
1.808128949905970950e+00 6.086999063440186042e-01 2.525949168335980062e+02
2.212169353906064728e+00 6.086999063440171609e-01 2.525974554902980174e+02
2.616209758006090791e+00 6.086999063440166058e-01 2.525999941469980001e+02
3.020250162005971628e+00 6.086999063440191593e-01 2.526025328035979953e+02
-1.424194282393964173e+00 1.012740310344022232e+00 2.525739410762980128e+02
-1.020153878394044256e+00 1.012740310344026895e+00 2.525764797328980080e+02
-6.161134743942358050e-01 1.012740310344033112e+00 2.525790183895980192e+02
-2.120730702942481283e-01 1.012740310344031336e+00 2.525815570462980020e+02
1.919673337058790119e-01 1.012740310344026451e+00 2.525840957028979972e+02
5.960077378059166486e-01 1.012740310344025785e+00 2.525866343595980084e+02
1.000048141806052948e+00 1.012740310344023786e+00 2.525891730162980195e+02
1.404088545806112309e+00 1.012740310344024230e+00 2.525917116728980147e+02
1.808128949906114391e+00 1.012740310344023342e+00 2.525942503295979975e+02
2.212169353906232594e+00 1.012740310344023786e+00 2.525967889862980087e+02
2.616209758006115216e+00 1.012740310344023564e+00 2.525993276428980039e+02
-1.424194282393974387e+00 1.416780714344034298e+00 2.525732745721980166e+02
-1.020153878393963431e+00 1.416780714344030301e+00 2.525758132288979994e+02
-6.161134743939755687e-01 1.416780714344027636e+00 2.525783518855980105e+02
-2.120730702940284707e-01 1.416780714344024750e+00 2.525808905421980057e+02
1.919673337060327223e-01 1.416780714344022529e+00 2.525834291988980169e+02
5.960077378060154585e-01 1.416780714344022529e+00 2.525859678555979997e+02
1.000048141806003210e+00 1.416780714344020975e+00 2.525885065121980233e+02
1.404088545805968202e+00 1.416780714344026304e+00 2.525910451688980061e+02
1.808128949905925875e+00 1.416780714344027414e+00 2.525935838255980173e+02
2.212169353906022540e+00 1.416780714344030079e+00 2.525961224822980000e+02
2.616209758006116992e+00 1.416780714344034964e+00 2.525986611388979952e+02
-1.020153878393947888e+00 1.820821118444031939e+00 2.525751467248980191e+02
-6.161134743940263059e-01 1.820821118444033493e+00 2.525776853815980019e+02
-2.120730702940162582e-01 1.820821118444028164e+00 2.525802240381979971e+02
1.919673337059537022e-01 1.820821118444031272e+00 2.525827626948980082e+02
5.960077378060626430e-01 1.820821118444035047e+00 2.525853013515980194e+02
1.000048141806031410e+00 1.820821118444037490e+00 2.525878400081980146e+02
1.404088545806022603e+00 1.820821118444044373e+00 2.525903786648979974e+02
1.808128949906068872e+00 1.820821118444037934e+00 2.525929173215980086e+02
2.212169353906157987e+00 1.820821118444036157e+00 2.525954559781980038e+02
2.616209758006160957e+00 1.820821118444032383e+00 2.525979946348980150e+02
-1.020153878393791125e+00 2.224861522444043338e+00 2.525744802208980104e+02
-6.161134743937541902e-01 2.224861522444035344e+00 2.525770188774980056e+02
-2.120730702937100032e-01 2.224861522444029571e+00 2.525795575341980168e+02
1.919673337061348628e-01 2.224861522444034012e+00 2.525820961908979996e+02
5.960077378060169018e-01 2.224861522444038009e+00 2.525846348474980232e+02
1.000048141805911062e+00 2.224861522444034900e+00 2.525871735041980060e+02
1.404088545805844301e+00 2.224861522444044226e+00 2.525897121608980171e+02
1.808128949905919436e+00 2.224861522444044226e+00 2.525922508174980123e+02
2.212169353906035418e+00 2.224861522444041562e+00 2.525947894741980235e+02
2.616209758006221353e+00 2.224861522444039341e+00 2.525973281308980063e+02
-1.424194282393840272e+00 2.628901926544053413e+00 2.525712750601980190e+02
-1.020153878393820435e+00 2.628901926544057410e+00 2.525738137167980142e+02
-6.161134743938907476e-01 2.628901926544056522e+00 2.525763523734979970e+02
-2.120730702939208623e-01 2.628901926544059187e+00 2.525788910301980081e+02
1.919673337060125717e-01 2.628901926544051193e+00 2.525814296867980033e+02
5.960077378059921438e-01 2.628901926544052525e+00 2.525839683434980145e+02
1.000048141806053614e+00 2.628901926544048084e+00 2.525865070001979973e+02
1.404088545805935784e+00 2.628901926544053858e+00 2.525890456567980209e+02
1.808128949906029348e+00 2.628901926544055634e+00 2.525915843134980037e+02
2.212169353906035862e+00 2.628901926544054746e+00 2.525941229701980149e+02
2.616209758006212471e+00 2.628901926544048973e+00 2.525966616267980100e+02
-1.424194282393773436e+00 3.032942330544041276e+00 2.525706085560980227e+02
-1.020153878393735836e+00 3.032942330544040388e+00 2.525731472127980055e+02
-6.161134743936949043e-01 3.032942330544036835e+00 2.525756858694980167e+02
-2.120730702937997092e-01 3.032942330544035947e+00 2.525782245261979995e+02
1.919673337060064655e-01 3.032942330544034615e+00 2.525807631827980231e+02
5.960077378058689090e-01 3.032942330544032838e+00 2.525833018394980058e+02
1.000048141805964352e+00 3.032942330544032838e+00 2.525858404961980170e+02
1.404088545805916244e+00 3.032942330544028842e+00 2.525883791527980122e+02
1.808128949905986271e+00 3.032942330544035059e+00 2.525909178094980234e+02
2.212169353906065616e+00 3.032942330544035503e+00 2.525934564661980062e+02
-1.424194282394114497e+00 3.436982734544026474e+00 2.525699420520980141e+02
-1.020153878394200353e+00 3.436982734544024698e+00 2.525724807087979968e+02
-6.161134743941473202e-01 3.436982734544025142e+00 2.525750193654980080e+02
-2.120730702940389067e-01 3.436982734544022033e+00 2.525775580220980032e+02
1.919673337060834040e-01 3.436982734544018037e+00 2.525800966787980144e+02
5.960077378061190423e-01 3.436982734544020257e+00 2.525826353354979972e+02
1.000048141806132884e+00 3.436982734544020701e+00 2.525851739920980208e+02
1.404088545806088328e+00 3.436982734544029139e+00 2.525877126487980036e+02
1.808128949905989602e+00 3.436982734544030915e+00 2.525902513054980147e+02
2.212169353905933278e+00 3.436982734544030027e+00 2.525927899620980099e+02
-1.020153878394053137e+00 3.841023138643975265e+00 2.525718142047980166e+02
-6.161134743939725711e-01 3.841023138643968160e+00 2.525743528613980118e+02
-2.120730702940402390e-01 3.841023138643957946e+00 2.525768915180980230e+02
1.919673337059830120e-01 3.841023138643959722e+00 2.525794301747980057e+02
5.960077378060312236e-01 3.841023138643961055e+00 2.525819688313980009e+02
1.000048141806038071e+00 3.841023138643954837e+00 2.525845074880980121e+02
1.404088545805926680e+00 3.841023138643957058e+00 2.525870461447980233e+02
1.808128949905926985e+00 3.841023138643941071e+00 2.525895848013980185e+02
2.212169353906050073e+00 3.841023138643943291e+00 2.525921234580980013e+02
-1.020153878394204350e+00 4.245063542643940480e+00 2.525711477006980203e+02
-6.161134743941033554e-01 4.245063542643933374e+00 2.525736863573980031e+02
-2.120730702939917223e-01 4.245063542643944032e+00 2.525762250140980143e+02
1.919673337061674478e-01 4.245063542643946697e+00 2.525787636706980095e+02
5.960077378061856557e-01 4.245063542643951138e+00 2.525813023273980207e+02
1.000048141806230806e+00 4.245063542643953802e+00 2.525838409840980034e+02
1.404088545806100985e+00 4.245063542643950250e+00 2.525863796407980146e+02
1.808128949905952965e+00 4.245063542643932486e+00 2.525889182973980098e+02
-1.020153878394031599e+00 4.649103946743979421e+00 2.525704811966980117e+02
-6.161134743941035774e-01 4.649103946743982085e+00 2.525730198533980229e+02
-2.120730702942200396e-01 4.649103946743988303e+00 2.525755585100980056e+02
1.919673337057866691e-01 4.649103946743969651e+00 2.525780971666980008e+02
5.960077378058672437e-01 4.649103946743959881e+00 2.525806358233980120e+02
1.000048141805980562e+00 4.649103946743968763e+00 2.525831744800980232e+02
1.404088545806029265e+00 4.649103946743950111e+00 2.525857131366980184e+02
1.808128949906206318e+00 4.649103946743948335e+00 2.525882517933980012e+02
2.212169353906298319e+00 4.649103946743948335e+00 2.525907904500980123e+02
-1.020153878394094882e+00 5.053144350743973057e+00 2.525698146926980030e+02
-6.161134743941601988e-01 5.053144350743969504e+00 2.525723533493980142e+02
-2.120730702941081014e-01 5.053144350743949076e+00 2.525748920059980094e+02
1.919673337059905616e-01 5.053144350743948188e+00 2.525774306626980206e+02
5.960077378059842612e-01 5.053144350743946411e+00 2.525799693193980033e+02
1.000048141806082924e+00 5.053144350743947300e+00 2.525825079759979985e+02
1.404088545805998844e+00 5.053144350743943747e+00 2.525850466326980097e+02
1.808128949906046001e+00 5.053144350743940194e+00 2.525875852893980209e+02
2.212169353906122016e+00 5.053144350743946411e+00 2.525901239459980161e+02
2.616209758006331043e+00 5.053144350743946411e+00 2.525926626026979989e+02
-1.020153878394236546e+00 5.457184754743950705e+00 2.525691481886980228e+02
-6.161134743941906189e-01 5.457184754743946264e+00 2.525716868452980179e+02
-2.120730702941490409e-01 5.457184754743936494e+00 2.525742255019980007e+02
1.919673337059126794e-01 5.457184754743945376e+00 2.525767641586980119e+02
5.960077378059369657e-01 5.457184754743935606e+00 2.525793028152980071e+02
1.000048141805975677e+00 5.457184754743939159e+00 2.525818414719980183e+02
1.404088545806015498e+00 5.457184754743932942e+00 2.525843801286980010e+02
1.808128949906027572e+00 5.457184754743920507e+00 2.525869187853980122e+02
2.212169353906181080e+00 5.457184754743917843e+00 2.525894574419980074e+02
-1.020153878394198355e+00 5.861225158843927474e+00 2.525684816846980141e+02
-6.161134743942051628e-01 5.861225158843918592e+00 2.525710203412980093e+02
-2.120730702941182877e-01 5.861225158843926586e+00 2.525735589979980205e+02
1.919673337059635276e-01 5.861225158843921257e+00 2.525760976546980032e+02
5.960077378059316366e-01 5.861225158843911487e+00 2.525786363112979984e+02
1.000048141805956137e+00 5.861225158843901717e+00 2.525811749679980096e+02
1.404088545805978416e+00 5.861225158843897276e+00 2.525837136246980208e+02
1.808128949906044447e+00 5.861225158843895500e+00 2.525862522812980160e+02
2.212169353906157543e+00 5.861225158843899941e+00 2.525887909379979988e+02
-1.020153878394090441e+00 6.265265562843912228e+00 2.525678151805980178e+02
-6.161134743940583913e-01 6.265265562843920222e+00 2.525703538372980006e+02
-2.120730702940613610e-01 6.265265562843920222e+00 2.525728924939980118e+02
1.919673337059634999e-01 6.265265562843921998e+00 2.525754311505980070e+02
5.960077378059973618e-01 6.265265562843912228e+00 2.525779698072980182e+02
1.000048141806003210e+00 6.265265562843901570e+00 2.525805084639980009e+02
1.404088545805944888e+00 6.265265562843906011e+00 2.525830471205979961e+02
1.808128949905904781e+00 6.265265562843914005e+00 2.525855857772980073e+02
2.212169353906082492e+00 6.265265562843917557e+00 2.525881244339980185e+02
2.616209758006152963e+00 6.265265562843912228e+00 2.525906630905980137e+02
-1.020153878393959879e+00 6.669305966943920971e+00 2.525671486765980092e+02
-6.161134743939755687e-01 6.669305966943920971e+00 2.525696873332980203e+02
-2.120730702939667423e-01 6.669305966943911201e+00 2.525722259898980155e+02
1.919673337060947560e-01 6.669305966943923636e+00 2.525747646465979983e+02
5.960077378059633890e-01 6.669305966943921860e+00 2.525773033032980095e+02
1.000048141805914392e+00 6.669305966943912978e+00 2.525798419598980047e+02
1.404088545805783239e+00 6.669305966943909425e+00 2.525823806165980159e+02
1.808128949905766003e+00 6.669305966943910313e+00 2.525849192732979986e+02
-1.020153878393937896e+00 7.073346370943950134e+00 2.525664821725980005e+02
-6.161134743939123970e-01 7.073346370943947470e+00 2.525690208292980117e+02
-2.120730702938966039e-01 7.073346370943944805e+00 2.525715594858980069e+02
1.919673337061119089e-01 7.073346370943937700e+00 2.525740981425980181e+02
5.960077378059868147e-01 7.073346370943921713e+00 2.525766367992980008e+02
1.000048141805871316e+00 7.073346370943920824e+00 2.525791754558979960e+02
1.404088545805702193e+00 7.073346370943920824e+00 2.525817141125980072e+02
1.808128949905752680e+00 7.073346370943917272e+00 2.525842527692980184e+02
-1.020153878393893043e+00 7.477386774943954428e+00 2.525658156685980202e+02
-6.161134743938686542e-01 7.477386774943962422e+00 2.525683543251980154e+02
-2.120730702938611045e-01 7.477386774943964198e+00 2.525708929818979982e+02
1.919673337060935070e-01 7.477386774943965086e+00 2.525734316385980094e+02
5.960077378060073539e-01 7.477386774943949099e+00 2.525759702951980046e+02
1.000048141805851776e+00 7.477386774943958869e+00 2.525785089518980158e+02
1.404088545805786570e+00 7.477386774943953540e+00 2.525810476085979985e+02
1.808128949905847271e+00 7.477386774943956205e+00 2.525835862651980221e+02
-1.020153878393981639e+00 7.881427179043980047e+00 2.525651491644979956e+02
-6.161134743938954106e-01 7.881427179043980047e+00 2.525676878211980068e+02
-2.120730702938949663e-01 7.881427179043974718e+00 2.525702264778980179e+02
1.919673337060757157e-01 7.881427179043970277e+00 2.525727651344980131e+02
5.960077378060060216e-01 7.881427179043962283e+00 2.525753037911979959e+02
1.000048141805965241e+00 7.881427179043964060e+00 2.525778424478980071e+02
1.404088545805969535e+00 7.881427179043966724e+00 2.525803811044980023e+02
1.808128949905901672e+00 7.881427179043972053e+00 2.525829197611980135e+02
2.212169353905910185e+00 7.881427179043980935e+00 2.525854584178979962e+02
2.616209758006038388e+00 7.881427179043959619e+00 2.525879970744980199e+02
-1.020153878393988967e+00 8.285467583043976347e+00 2.525644826604980153e+02
-6.161134743939736813e-01 8.285467583043979900e+00 2.525670213171979981e+02
-2.120730702939196133e-01 8.285467583043971018e+00 2.525695599737980217e+02
1.919673337060394114e-01 8.285467583043958584e+00 2.525720986304980045e+02
5.960077378060376629e-01 8.285467583043974571e+00 2.525746372871980157e+02
1.000048141806062940e+00 8.285467583043972795e+00 2.525771759438979984e+02
1.404088545806064348e+00 8.285467583043976347e+00 2.525797146004980220e+02
1.808128949906037120e+00 8.285467583043981676e+00 2.525822532571980048e+02
2.212169353906076275e+00 8.285467583043978124e+00 2.525847919138980160e+02
2.616209758006050823e+00 8.285467583043979900e+00 2.525873305704980112e+02
-1.020153878394125968e+00 8.689507987143967327e+00 2.525638161564980066e+02
-6.161134743940238634e-01 8.689507987143979761e+00 2.525663548131980178e+02
-2.120730702940001045e-01 8.689507987143993972e+00 2.525688934697980130e+02
1.919673337060206486e-01 8.689507987143988643e+00 2.525714321264979958e+02
5.960077378061072739e-01 8.689507987143983314e+00 2.525739707831980070e+02
1.000048141806172852e+00 8.689507987143985090e+00 2.525765094397980022e+02
1.404088545806088995e+00 8.689507987143979761e+00 2.525790480964980134e+02
1.808128949906102623e+00 8.689507987143981538e+00 2.525815867531979961e+02
2.212169353906112690e+00 8.689507987143974432e+00 2.525841254097980197e+02
2.616209758006156516e+00 8.689507987143953116e+00 2.525866640664980025e+02
3.020250162006101746e+00 8.689507987143967327e+00 2.525892027231980137e+02
-1.424194282394231292e+00 9.093548391143976062e+00 2.525606109957980152e+02
-1.020153878394126856e+00 9.093548391143977838e+00 2.525631496524979980e+02
-6.161134743940127612e-01 9.093548391143977838e+00 2.525656883090980216e+02
-2.120730702939936929e-01 9.093548391143960075e+00 2.525682269657980044e+02
1.919673337061014451e-01 9.093548391143963627e+00 2.525707656224980155e+02
5.960077378061581221e-01 9.093548391143958298e+00 2.525733042790980107e+02
1.000048141806149538e+00 9.093548391143968956e+00 2.525758429357980219e+02
1.404088545806130517e+00 9.093548391143952969e+00 2.525783815924980047e+02
1.808128949906124161e+00 9.093548391143940535e+00 2.525809202490979999e+02
2.212169353906114910e+00 9.093548391143951193e+00 2.525834589057980111e+02
2.616209758006134312e+00 9.093548391143972509e+00 2.525859975624980223e+02
-1.424194282394098288e+00 9.497588795143961704e+00 2.525599444917980065e+02
-1.020153878394023383e+00 9.497588795143975915e+00 2.525624831483980017e+02
-6.161134743940540615e-01 9.497588795143984797e+00 2.525650218050980129e+02
-2.120730702939696843e-01 9.497588795143970586e+00 2.525675604617979957e+02
1.919673337060218143e-01 9.497588795143977691e+00 2.525700991183980193e+02
5.960077378060700815e-01 9.497588795143979468e+00 2.525726377750980021e+02
1.000048141806098911e+00 9.497588795143972362e+00 2.525751764317980133e+02
1.404088545806079669e+00 9.497588795143977691e+00 2.525777150884979960e+02
1.808128949906059324e+00 9.497588795143961704e+00 2.525802537450980196e+02
2.212169353906150437e+00 9.497588795143970586e+00 2.525827924017980024e+02
-1.424194282394085853e+00 9.901629199243991764e+00 2.525592779877979979e+02
-1.020153878394052249e+00 9.901629199243982882e+00 2.525618166443980215e+02
-6.161134743940064329e-01 9.901629199243979329e+00 2.525643553010980042e+02
-2.120730702940778201e-01 9.901629199243988211e+00 2.525668939577980154e+02
1.919673337059800977e-01 9.901629199243988211e+00 2.525694326143980106e+02
5.960077378060045783e-01 9.901629199243977553e+00 2.525719712710980218e+02
1.000048141806042734e+00 9.901629199243972224e+00 2.525745099277980046e+02
1.404088545806038812e+00 9.901629199243981105e+00 2.525770485843979998e+02
1.808128949906062655e+00 9.901629199243974000e+00 2.525795872410980110e+02
2.212169353906142444e+00 9.901629199243974000e+00 2.525821258977980222e+02
2.616209758006248443e+00 9.901629199243972224e+00 2.525846645543980173e+02
3.020250162006346439e+00 9.901629199243975776e+00 2.525872032110980001e+02
-1.424194282394053213e+00 1.030566960324399339e+01 2.525586114836980016e+02
-1.020153878394070235e+00 1.030566960324398984e+01 2.525611501403980128e+02
-6.161134743939994385e-01 1.030566960324398629e+01 2.525636887970979956e+02
-2.120730702939710166e-01 1.030566960324398273e+01 2.525662274536980192e+02
1.919673337060145979e-01 1.030566960324397208e+01 2.525687661103980020e+02
5.960077378060228970e-01 1.030566960324396675e+01 2.525713047670980131e+02
1.000048141806042290e+00 1.030566960324397563e+01 2.525738434236980083e+02
1.404088545806001065e+00 1.030566960324395076e+01 2.525763820803980195e+02
1.808128949906066651e+00 1.030566960324395254e+01 2.525789207370980023e+02
2.212169353906143332e+00 1.030566960324396675e+01 2.525814593936979975e+02
2.616209758006241781e+00 1.030566960324397741e+01 2.525839980503980087e+02
-1.424194282394052546e+00 1.070971000734398793e+01 2.525579449796980214e+02
-1.020153878393981195e+00 1.070971000734397549e+01 2.525604836363980041e+02
-6.161134743939733482e-01 1.070971000734397549e+01 2.525630222929979993e+02
-2.120730702939618850e-01 1.070971000734398615e+01 2.525655609496980105e+02
1.919673337060136542e-01 1.070971000734398082e+01 2.525680996063980217e+02
5.960077378060126829e-01 1.070971000734398970e+01 2.525706382629980169e+02
1.000048141806081592e+00 1.070971000734398793e+01 2.525731769196979997e+02
1.404088545806063015e+00 1.070971000734398793e+01 2.525757155763980109e+02
1.808128949905965177e+00 1.070971000734398260e+01 2.525782542329980060e+02
2.212169353906124680e+00 1.070971000734397904e+01 2.525807928896980172e+02
2.616209758006204478e+00 1.070971000734397371e+01 2.525833315463980000e+02
-1.020153878393974756e+00 1.111375041134398778e+01 2.525598171323979955e+02
-6.161134743939905567e-01 1.111375041134399133e+01 2.525623557889980191e+02
-2.120730702939544188e-01 1.111375041134398955e+01 2.525648944456980018e+02
1.919673337060384122e-01 1.111375041134398423e+01 2.525674331023980130e+02
5.960077378059936981e-01 1.111375041134400732e+01 2.525699717589980082e+02
1.000048141806062940e+00 1.111375041134400199e+01 2.525725104156980194e+02
1.404088545806022381e+00 1.111375041134398778e+01 2.525750490723980022e+02
1.808128949905999150e+00 1.111375041134398778e+01 2.525775877289979974e+02
2.212169353906133562e+00 1.111375041134398245e+01 2.525801263856980086e+02
2.616209758006220021e+00 1.111375041134397534e+01 2.525826650423980198e+02
-1.020153878393982083e+00 1.151779081544398231e+01 2.525591506282979992e+02
-6.161134743939776781e-01 1.151779081544398764e+01 2.525616892849980104e+02
-2.120730702939790380e-01 1.151779081544398409e+01 2.525642279416980216e+02
1.919673337060210372e-01 1.151779081544398409e+01 2.525667665982980168e+02
5.960077378059877029e-01 1.151779081544398942e+01 2.525693052549979996e+02
1.000048141806048951e+00 1.151779081544398764e+01 2.525718439116980107e+02
1.404088545806029042e+00 1.151779081544399830e+01 2.525743825682980059e+02
1.808128949906007144e+00 1.151779081544398409e+01 2.525769212249980171e+02
2.212169353906039415e+00 1.151779081544397343e+01 2.525794598816979999e+02
2.616209758006173391e+00 1.151779081544397521e+01 2.525819985382980235e+02
-1.020153878394048030e+00 1.192183121944398749e+01 2.525584841242980190e+02
-6.161134743939844505e-01 1.192183121944397861e+01 2.525610227809980017e+02
-2.120730702940042123e-01 1.192183121944400170e+01 2.525635614375979969e+02
1.919673337060807949e-01 1.192183121944401236e+01 2.525661000942980081e+02
5.960077378060799624e-01 1.192183121944400348e+01 2.525686387509980193e+02
1.000048141806041402e+00 1.192183121944401414e+01 2.525711774075980145e+02
1.404088545806002619e+00 1.192183121944401236e+01 2.525737160642979973e+02
1.808128949906004701e+00 1.192183121944400881e+01 2.525762547209980085e+02
2.212169353906030977e+00 1.192183121944398039e+01 2.525787933775980036e+02
2.616209758006125874e+00 1.192183121944398216e+01 2.525813320342980148e+02
-1.424194282394049882e+00 1.232587162344400689e+01 2.525552789635979991e+02
-1.020153878394015168e+00 1.232587162344398735e+01 2.525578176202980103e+02
-6.161134743939872260e-01 1.232587162344400511e+01 2.525603562768980055e+02
-2.120730702940303580e-01 1.232587162344401222e+01 2.525628949335980167e+02
1.919673337060715246e-01 1.232587162344401044e+01 2.525654335902979994e+02
5.960077378060782971e-01 1.232587162344401932e+01 2.525679722469980106e+02
1.000048141806032742e+00 1.232587162344402110e+01 2.525705109035980058e+02
1.404088545806058130e+00 1.232587162344401754e+01 2.525730495602980170e+02
1.808128949905994487e+00 1.232587162344401577e+01 2.525755882169979998e+02
2.212169353906043856e+00 1.232587162344400689e+01 2.525781268735980234e+02
2.616209758006022401e+00 1.232587162344398557e+01 2.525806655302980062e+02
-1.424194282394041222e+00 1.272991202754399787e+01 2.525546124595980189e+02
-1.020153878394057578e+00 1.272991202754400675e+01 2.525571511162980016e+02
-6.161134743939878922e-01 1.272991202754399609e+01 2.525596897728979968e+02
-2.120730702940222534e-01 1.272991202754401208e+01 2.525622284295980080e+02
1.919673337060186225e-01 1.272991202754401030e+01 2.525647670862980192e+02
5.960077378060338882e-01 1.272991202754401208e+01 2.525673057428980144e+02
1.000048141806067159e+00 1.272991202754400852e+01 2.525698443995979972e+02
1.404088545806009058e+00 1.272991202754401030e+01 2.525723830562980083e+02
1.808128949905979610e+00 1.272991202754401030e+01 2.525749217128980035e+02
2.212169353905972802e+00 1.272991202754399964e+01 2.525774603695980147e+02
-1.424194282394107169e+00 1.313395243154400305e+01 2.525539459555980102e+02
-1.020153878394024494e+00 1.313395243154400127e+01 2.525564846121980054e+02
-6.161134743939961078e-01 1.313395243154399950e+01 2.525590232688980166e+02
-2.120730702940291923e-01 1.313395243154400305e+01 2.525615619255979993e+02
1.919673337060186225e-01 1.313395243154401015e+01 2.525641005821980229e+02
5.960077378060267828e-01 1.313395243154400660e+01 2.525666392388980057e+02
1.000048141806059609e+00 1.313395243154400660e+01 2.525691778955980169e+02
1.404088545806033705e+00 1.313395243154401371e+01 2.525717165521980121e+02
1.808128949905996485e+00 1.313395243154399594e+01 2.525742552088980233e+02
2.212169353905973246e+00 1.313395243154399594e+01 2.525767938655980061e+02
2.616209758006023733e+00 1.313395243154400305e+01 2.525793325221980012e+02
-1.424194282394129152e+00 1.353799283564400113e+01 2.525532794514980139e+02
