2.213425962442910677e+00 -1.232092293548648598e+01 2.524187878388107720e+02
2.617466366542874123e+00 -1.232092293548647888e+01 2.524213264955107832e+02
-1.018897269857202970e+00 -1.191688253148647370e+01 2.523978120815107786e+02
-6.148568658572137746e-01 -1.191688253148647547e+01 2.524003507381107738e+02
-2.108164617571592903e-01 -1.191688253148648613e+01 2.524028893948107850e+02
1.932239422428272402e-01 -1.191688253148648791e+01 2.524054280515107678e+02
5.972643463429019306e-01 -1.191688253148648258e+01 2.524079667081107630e+02
1.001304750342880023e+00 -1.191688253148648258e+01 2.524105053648107742e+02
1.405345154342909186e+00 -1.191688253148648613e+01 2.524130440215107853e+02
1.809385558442888176e+00 -1.191688253148648080e+01 2.524155826781107805e+02
2.213425962442923556e+00 -1.191688253148647902e+01 2.524181213348107633e+02
2.617466366542852363e+00 -1.191688253148647902e+01 2.524206599915107745e+02
-1.018897269857188537e+00 -1.151284212748646674e+01 2.523971455775107700e+02
-6.148568658572077794e-01 -1.151284212748646674e+01 2.523996842341107651e+02
-2.108164617572076405e-01 -1.151284212748646851e+01 2.524022228908107763e+02
1.932239422428586595e-01 -1.151284212748647384e+01 2.524047615475107591e+02
5.972643463429015975e-01 -1.151284212748647917e+01 2.524073002041107827e+02
1.001304750342879579e+00 -1.151284212748647739e+01 2.524098388608107655e+02
1.405345154342872327e+00 -1.151284212748647562e+01 2.524123775175107767e+02
1.809385558442886843e+00 -1.151284212748646851e+01 2.524149161741107719e+02
2.213425962442908901e+00 -1.151284212748647029e+01 2.524174548308107831e+02
2.617466366542873679e+00 -1.151284212748648805e+01 2.524199934875107658e+02
-1.422937673857139096e+00 -1.110880172338649530e+01 2.523939404168107785e+02
-1.018897269857147680e+00 -1.110880172338647931e+01 2.523964790734107737e+02
-6.148568658571615941e-01 -1.110880172338646510e+01 2.523990177301107849e+02
-2.108164617571605115e-01 -1.110880172338647576e+01 2.524015563868107677e+02
1.932239422428722875e-01 -1.110880172338647398e+01 2.524040950434107629e+02
5.972643463428680688e-01 -1.110880172338647220e+01 2.524066337001107740e+02
1.001304750342865812e+00 -1.110880172338647753e+01 2.524091723568107852e+02
1.405345154342891423e+00 -1.110880172338647220e+01 2.524117110134107804e+02
1.809385558442864417e+00 -1.110880172338646332e+01 2.524142496701107632e+02
2.213425962442916894e+00 -1.110880172338648286e+01 2.524167883268107744e+02
2.617466366542891887e+00 -1.110880172338649352e+01 2.524193269834107696e+02
-1.422937673857076701e+00 -1.070476131938650255e+01 2.523932739127107823e+02
-1.018897269857132137e+00 -1.070476131938649722e+01 2.523958125694107650e+02
-6.148568658571593737e-01 -1.070476131938648656e+01 2.523983512261107762e+02
-2.108164617571614552e-01 -1.070476131938646702e+01 2.524008898827107714e+02
1.932239422428717046e-01 -1.070476131938646880e+01 2.524034285394107826e+02
5.972643463428553012e-01 -1.070476131938648123e+01 2.524059671961107654e+02
1.001304750342879579e+00 -1.070476131938647768e+01 2.524085058527107606e+02
1.405345154342858782e+00 -1.070476131938647590e+01 2.524110445094107718e+02
1.809385558442852426e+00 -1.070476131938647946e+01 2.524135831661107829e+02
2.213425962442911565e+00 -1.070476131938649544e+01 2.524161218227107781e+02
-1.422937673857089580e+00 -1.030072091528650979e+01 2.523926074087107736e+02
-1.018897269857125032e+00 -1.030072091528650091e+01 2.523951460654107848e+02
-6.148568658571251788e-01 -1.030072091528649914e+01 2.523976847220107800e+02
-2.108164617571661181e-01 -1.030072091528648670e+01 2.524002233787107627e+02
1.932239422428396192e-01 -1.030072091528647604e+01 2.524027620354107739e+02
5.972643463428581878e-01 -1.030072091528648492e+01 2.524053006921107851e+02
1.001304750342880467e+00 -1.030072091528648670e+01 2.524078393487107803e+02
1.405345154342880765e+00 -1.030072091528649025e+01 2.524103780054107631e+02
1.809385558442839326e+00 -1.030072091528649914e+01 2.524129166621107743e+02
2.213425962442847617e+00 -1.030072091528649914e+01 2.524154553187107695e+02
-1.018897269857145682e+00 -9.896680511286501059e+00 2.523944795614107761e+02
-6.148568658571184065e-01 -9.896680511286499282e+00 2.523970182180107713e+02
-2.108164617571720578e-01 -9.896680511286495729e+00 2.523995568747107825e+02
1.932239422428349007e-01 -9.896680511286497506e+00 2.524020955314107653e+02
5.972643463428655153e-01 -9.896680511286490400e+00 2.524046341880107605e+02
1.001304750342835836e+00 -9.896680511286506388e+00 2.524071728447107716e+02
1.405345154342889646e+00 -9.896680511286509940e+00 2.524097115014107828e+02
1.809385558442853092e+00 -9.896680511286501059e+00 2.524122501580107780e+02
2.213425962442863160e+00 -9.896680511286508164e+00 2.524147888147107608e+02
-1.018897269857171883e+00 -9.492640107186499421e+00 2.523938130573107799e+02
-6.148568658570996437e-01 -9.492640107186494092e+00 2.523963517140107626e+02
-2.108164617571507971e-01 -9.492640107186488763e+00 2.523988903707107738e+02
1.932239422428690401e-01 -9.492640107186483434e+00 2.524014290273107690e+02
5.972643463429048172e-01 -9.492640107186485210e+00 2.524039676840107802e+02
1.001304750342880912e+00 -9.492640107186492315e+00 2.524065063407107630e+02
1.405345154342873437e+00 -9.492640107186501197e+00 2.524090449973107866e+02
1.809385558442885511e+00 -9.492640107186497644e+00 2.524115836540107694e+02
2.213425962442921335e+00 -9.492640107186488763e+00 2.524141223107107805e+02
2.617466366542879008e+00 -9.492640107186502973e+00 2.524166609673107757e+02
-1.018897269857207188e+00 -9.088599703186501344e+00 2.523931465533107712e+02
-6.148568658571551548e-01 -9.088599703186487133e+00 2.523956852100107824e+02
-2.108164617571202104e-01 -9.088599703186467593e+00 2.523982238666107776e+02
1.932239422428712328e-01 -9.088599703186464041e+00 2.524007625233107603e+02
5.972643463428687349e-01 -9.088599703186480028e+00 2.524033011800107715e+02
1.001304750342915328e+00 -9.088599703186480028e+00 2.524058398367107827e+02
1.405345154342920511e+00 -9.088599703186490686e+00 2.524083784933107779e+02
1.809385558442942132e+00 -9.088599703186488910e+00 2.524109171500107607e+02
2.213425962442955974e+00 -9.088599703186503120e+00 2.524134558067107719e+02
2.617466366542872347e+00 -9.088599703186503120e+00 2.524159944633107671e+02
-1.018897269857192756e+00 -8.684559299186508596e+00 2.523924800493107625e+02
-6.148568658572551859e-01 -8.684559299186499715e+00 2.523950187060107737e+02
-2.108164617572362010e-01 -8.684559299186497938e+00 2.523975573626107689e+02
1.932239422428603248e-01 -8.684559299186505044e+00 2.524000960193107801e+02
5.972643463429335720e-01 -8.684559299186512149e+00 2.524026346760107629e+02
1.001304750343008809e+00 -8.684559299186510373e+00 2.524051733326107865e+02
1.405345154343056402e+00 -8.684559299186522807e+00 2.524077119893107692e+02
1.809385558443030728e+00 -8.684559299186512149e+00 2.524102506460107804e+02
2.213425962442972850e+00 -8.684559299186521031e+00 2.524127893026107756e+02
2.617466366542871903e+00 -8.684559299186501491e+00 2.524153279593107584e+02
-1.422937673857250340e+00 -8.280518895086505182e+00 2.523892748886107711e+02
-1.018897269857250931e+00 -8.280518895086501630e+00 2.523918135453107823e+02
-6.148568658572284296e-01 -8.280518895086506959e+00 2.523943522019107775e+02
-2.108164617571781918e-01 -8.280518895086503406e+00 2.523968908586107602e+02
1.932239422429017639e-01 -8.280518895086508735e+00 2.523994295153107714e+02
5.972643463430127309e-01 -8.280518895086510511e+00 2.524019681719107666e+02
1.001304750343041672e+00 -8.280518895086512288e+00 2.524045068286107778e+02
1.405345154343040415e+00 -8.280518895086514064e+00 2.524070454853107606e+02
1.809385558443083353e+00 -8.280518895086505182e+00 2.524095841419107842e+02
2.213425962442951089e+00 -8.280518895086508735e+00 2.524121227986107669e+02
2.617466366542920309e+00 -8.280518895086519393e+00 2.524146614553107781e+02
-1.422937673857212371e+00 -7.876478491086514211e+00 2.523886083846107624e+02
-1.018897269857171439e+00 -7.876478491086530198e+00 2.523911470412107860e+02
-6.148568658571407219e-01 -7.876478491086521316e+00 2.523936856979107688e+02
-2.108164617571220978e-01 -7.876478491086515099e+00 2.523962243546107800e+02
1.932239422428934095e-01 -7.876478491086507105e+00 2.523987630112107752e+02
5.972643463429102573e-01 -7.876478491086498224e+00 2.524013016679107864e+02
1.001304750342975280e+00 -7.876478491086505329e+00 2.524038403246107691e+02
1.405345154343022651e+00 -7.876478491086514211e+00 2.524063789812107643e+02
1.809385558442985209e+00 -7.876478491086519540e+00 2.524089176379107755e+02
2.213425962442992390e+00 -7.876478491086524869e+00 2.524114562946107583e+02
2.617466366542980261e+00 -7.876478491086529310e+00 2.524139949513107695e+02
-1.422937673857108232e+00 -7.472438086986501915e+00 2.523879418806107822e+02
-1.018897269857073518e+00 -7.472438086986510797e+00 2.523904805372107774e+02
-6.148568658572175494e-01 -7.472438086986505468e+00 2.523930191939107601e+02
-2.108164617571992860e-01 -7.472438086986509909e+00 2.523955578506107713e+02
1.932239422428275177e-01 -7.472438086986505468e+00 2.523980965072107665e+02
5.972643463428488619e-01 -7.472438086986500139e+00 2.524006351639107777e+02
1.001304750342873584e+00 -7.472438086986500139e+00 2.524031738206107605e+02
1.405345154342954261e+00 -7.472438086986515238e+00 2.524057124772107841e+02
1.809385558443011188e+00 -7.472438086986509020e+00 2.524082511339107668e+02
2.213425962442991946e+00 -7.472438086986519679e+00 2.524107897906107780e+02
-1.422937673857014973e+00 -7.068397682986518049e+00 2.523872753765107859e+02
-1.018897269857114818e+00 -7.068397682986494956e+00 2.523898140332107687e+02
-6.148568658571618162e-01 -7.068397682986489627e+00 2.523923526899107799e+02
-2.108164617571946231e-01 -7.068397682986489627e+00 2.523948913465107751e+02
1.932239422427855235e-01 -7.068397682986484298e+00 2.523974300032107863e+02
5.972643463428081168e-01 -7.068397682986490516e+00 2.523999686599107690e+02
1.001304750342838945e+00 -7.068397682986484298e+00 2.524025073165107642e+02
1.405345154342979797e+00 -7.068397682986483410e+00 2.524050459732107754e+02
1.809385558443084463e+00 -7.068397682986490516e+00 2.524075846299107866e+02
2.213425962443031469e+00 -7.068397682986493180e+00 2.524101232865107818e+02
-1.422937673856974561e+00 -6.664357278986486222e+00 2.523866088725107772e+02
-1.018897269857078625e+00 -6.664357278986486222e+00 2.523891475292107600e+02
-6.148568658571413881e-01 -6.664357278986487998e+00 2.523916861858107836e+02
-2.108164617571958721e-01 -6.664357278986478228e+00 2.523942248425107664e+02
1.932239422428111142e-01 -6.664357278986479116e+00 2.523967634992107776e+02
5.972643463428929378e-01 -6.664357278986477340e+00 2.523993021558107728e+02
1.001304750342911110e+00 -6.664357278986480004e+00 2.524018408125107840e+02
1.405345154342994007e+00 -6.664357278986489774e+00 2.524043794692107667e+02
1.809385558443040720e+00 -6.664357278986490662e+00 2.524069181258107619e+02
2.213425962442931105e+00 -6.664357278986485333e+00 2.524094567825107731e+02
-1.826978077957065683e+00 -6.260316874886505900e+00 2.523834037118107858e+02
-1.422937673857121332e+00 -6.260316874886495242e+00 2.523859423685107686e+02
-1.018897269857125698e+00 -6.260316874886497018e+00 2.523884810251107638e+02
-6.148568658571083034e-01 -6.260316874886490801e+00 2.523910196818107750e+02
-2.108164617571501864e-01 -6.260316874886469485e+00 2.523935583385107861e+02
1.932239422428840836e-01 -6.260316874886457050e+00 2.523960969952107689e+02
5.972643463429125887e-01 -6.260316874886454386e+00 2.523986356518107641e+02
1.001304750342889349e+00 -6.260316874886456162e+00 2.524011743085107753e+02
1.405345154342941383e+00 -6.260316874886471261e+00 2.524037129652107865e+02
1.809385558442968778e+00 -6.260316874886483696e+00 2.524062516218107817e+02
2.213425962442902684e+00 -6.260316874886489025e+00 2.524087902785107644e+02
-1.422937673857158414e+00 -5.856276470886495389e+00 2.523852758645107599e+02
-1.018897269857081733e+00 -5.856276470886495389e+00 2.523878145211107835e+02
-6.148568658571156309e-01 -5.856276470886484731e+00 2.523903531778107663e+02
-2.108164617570988109e-01 -5.856276470886475849e+00 2.523928918345107775e+02
1.932239422429654352e-01 -5.856276470886475849e+00 2.523954304911107727e+02
5.972643463429938571e-01 -5.856276470886472296e+00 2.523979691478107839e+02
1.001304750342966399e+00 -5.856276470886457197e+00 2.524005078045107666e+02
1.405345154342934499e+00 -5.856276470886467855e+00 2.524030464611107618e+02
1.809385558442921482e+00 -5.856276470886473184e+00 2.524055851178107730e+02
2.213425962442873374e+00 -5.856276470886484731e+00 2.524081237745107842e+02
2.617466366542841705e+00 -5.856276470886488283e+00 2.524106624311107794e+02
3.021506770542914833e+00 -5.856276470886508712e+00 2.524132010878107621e+02
-1.422937673857217478e+00 -5.452236066786506186e+00 2.523846093604107637e+02
-1.018897269857113264e+00 -5.452236066786509738e+00 2.523871480171107748e+02
-6.148568658570742196e-01 -5.452236066786502633e+00 2.523896866738107860e+02
-2.108164617569660837e-01 -5.452236066786502633e+00 2.523922253304107812e+02
1.932239422430004905e-01 -5.452236066786497304e+00 2.523947639871107640e+02
5.972643463429500033e-01 -5.452236066786498192e+00 2.523973026438107752e+02
1.001304750342963734e+00 -5.452236066786499080e+00 2.523998413004107704e+02
1.405345154342903635e+00 -5.452236066786499968e+00 2.524023799571107816e+02
1.809385558442895725e+00 -5.452236066786502633e+00 2.524049186138107643e+02
2.213425962442864936e+00 -5.452236066786507962e+00 2.524074572704107595e+02
2.617466366542857248e+00 -5.452236066786503521e+00 2.524099959271107707e+02
3.021506770542902842e+00 -5.452236066786498192e+00 2.524125345838107819e+02
-1.422937673857162633e+00 -5.048195662786521432e+00 2.523839428564107834e+02
-1.018897269857113486e+00 -5.048195662786507221e+00 2.523864815131107662e+02
-6.148568658570667811e-01 -5.048195662786508109e+00 2.523890201697107614e+02
-2.108164617570308097e-01 -5.048195662786498339e+00 2.523915588264107726e+02
1.932239422429609665e-01 -5.048195662786498339e+00 2.523940974831107837e+02
5.972643463429274657e-01 -5.048195662786492122e+00 2.523966361398107665e+02
1.001304750342924876e+00 -5.048195662786492122e+00 2.523991747964107617e+02
1.405345154342943159e+00 -5.048195662786500115e+00 2.524017134531107729e+02
1.809385558442958342e+00 -5.048195662786512550e+00 2.524042521098107841e+02
2.213425962442901795e+00 -5.048195662786520543e+00 2.524067907664107793e+02
2.617466366542892331e+00 -5.048195662786524096e+00 2.524093294231107620e+02
3.021506770542883746e+00 -5.048195662786525872e+00 2.524118680798107732e+02
-1.422937673857117113e+00 -4.644155258786510920e+00 2.523832763524107747e+02
-1.018897269857161447e+00 -4.644155258786493157e+00 2.523858150091107859e+02
-6.148568658571715861e-01 -4.644155258786501150e+00 2.523883536657107811e+02
-2.108164617571296751e-01 -4.644155258786481610e+00 2.523908923224107639e+02
1.932239422429019859e-01 -4.644155258786484275e+00 2.523934309791107751e+02
5.972643463429140320e-01 -4.644155258786494045e+00 2.523959696357107703e+02
1.001304750343011252e+00 -4.644155258786494933e+00 2.523985082924107815e+02
1.405345154343051739e+00 -4.644155258786504703e+00 2.524010469491107642e+02
1.809385558443006747e+00 -4.644155258786516249e+00 2.524035856057107594e+02
2.213425962442934658e+00 -4.644155258786521578e+00 2.524061242624107706e+02
2.617466366542930079e+00 -4.644155258786531348e+00 2.524086629191107818e+02
-6.148568658572015622e-01 -4.240114854686488854e+00 2.523876871617107724e+02
-2.108164617572636235e-01 -4.240114854686510171e+00 2.523902258184107836e+02
1.932239422428587705e-01 -4.240114854686515500e+00 2.523927644750107788e+02
5.972643463429530009e-01 -4.240114854686527934e+00 2.523953031317107616e+02
1.001304750343043892e+00 -4.240114854686533263e+00 2.523978417884107728e+02
1.405345154343022651e+00 -4.240114854686525270e+00 2.524003804450107680e+02
1.809385558442987874e+00 -4.240114854686534152e+00 2.524029191017107792e+02
2.213425962442936878e+00 -4.240114854686515500e+00 2.524054577584107619e+02
2.617466366542963385e+00 -4.240114854686509283e+00 2.524079964150107855e+02
-1.018897269857244270e+00 -3.836074450686485893e+00 2.523844820010107810e+02
-6.148568658572511891e-01 -3.836074450686483672e+00 2.523870206577107638e+02
-2.108164617573037580e-01 -3.836074450686479675e+00 2.523895593143107590e+02
1.932239422427033115e-01 -3.836074450686481896e+00 2.523920979710107702e+02
5.972643463428186639e-01 -3.836074450686485893e+00 2.523946366277107813e+02
1.001304750342916439e+00 -3.836074450686490778e+00 2.523971752843107765e+02
1.405345154342902969e+00 -3.836074450686493442e+00 2.523997139410107593e+02
1.809385558442912822e+00 -3.836074450686494330e+00 2.524022525977107705e+02
2.213425962442923556e+00 -3.836074450686493886e+00 2.524047912544107817e+02
2.617466366542909650e+00 -3.836074450686496551e+00 2.524073299110107769e+02
-1.018897269857380605e+00 -3.432034046586490916e+00 2.523838154970107723e+02
-6.148568658573544399e-01 -3.432034046586491360e+00 2.523863541537107835e+02
-2.108164617574135591e-01 -3.432034046586489140e+00 2.523888928103107787e+02
1.932239422426247355e-01 -3.432034046586490028e+00 2.523914314670107615e+02
5.972643463426849930e-01 -3.432034046586490916e+00 2.523939701237107727e+02
1.001304750342761674e+00 -3.432034046586489584e+00 2.523965087803107679e+02
1.405345154342754643e+00 -3.432034046586490028e+00 2.523990474370107790e+02
1.809385558442787811e+00 -3.432034046586491804e+00 2.524015860937107618e+02
2.213425962442841843e+00 -3.432034046586499798e+00 2.524041247503107854e+02
2.617466366542938960e+00 -3.432034046586500686e+00 2.524066634070107682e+02
-1.018897269857226506e+00 -3.027993642586511047e+00 2.523831489930107637e+02
-6.148568658573028145e-01 -3.027993642586500389e+00 2.523856876496107589e+02
-2.108164617572891586e-01 -3.027993642586500833e+00 2.523882263063107700e+02
1.932239422427667885e-01 -3.027993642586499945e+00 2.523907649630107812e+02
5.972643463427872446e-01 -3.027993642586499945e+00 2.523933036196107764e+02
1.001304750342799643e+00 -3.027993642586499945e+00 2.523958422763107592e+02
1.405345154342716008e+00 -3.027993642586498613e+00 2.523983809330107704e+02
1.809385558442771602e+00 -3.027993642586505718e+00 2.524009195896107656e+02
2.213425962442784556e+00 -3.027993642586512379e+00 2.524034582463107768e+02
2.617466366542880785e+00 -3.027993642586510159e+00 2.524059969030107595e+02
-1.018897269857262255e+00 -2.623953238586508974e+00 2.523824824889107674e+02
-6.148568658572111101e-01 -2.623953238586513859e+00 2.523850211456107786e+02
-2.108164617572108879e-01 -2.623953238586516523e+00 2.523875598023107614e+02
1.932239422427663722e-01 -2.623953238586522296e+00 2.523900984589107850e+02
5.972643463427457222e-01 -2.623953238586522740e+00 2.523926371156107678e+02
1.001304750342681515e+00 -2.623953238586522740e+00 2.523951757723107789e+02
1.405345154342711123e+00 -2.623953238586518744e+00 2.523977144289107741e+02
1.809385558442697439e+00 -2.623953238586517855e+00 2.524002530856107853e+02
2.213425962442727268e+00 -2.623953238586513859e+00 2.524027917423107681e+02
2.617466366542712919e+00 -2.623953238586514303e+00 2.524053303990107793e+02
-1.018897269857107712e+00 -2.219912834486509112e+00 2.523818159849107587e+02
-6.148568658571251788e-01 -2.219912834486511777e+00 2.523843546416107699e+02
-2.108164617572255706e-01 -2.219912834486520214e+00 2.523868932983107811e+02
1.932239422427953490e-01 -2.219912834486525099e+00 2.523894319549107763e+02
5.972643463426802191e-01 -2.219912834486522435e+00 2.523919706116107591e+02
1.001304750342629335e+00 -2.219912834486518882e+00 2.523945092683107703e+02
1.405345154342657166e+00 -2.219912834486512665e+00 2.523970479249107655e+02
1.809385558442658137e+00 -2.219912834486507780e+00 2.523995865816107766e+02
2.213425962442801875e+00 -2.219912834486508224e+00 2.524021252383107594e+02
2.617466366542801737e+00 -2.219912834486498454e+00 2.524046638949107830e+02
-1.422937673857237906e+00 -1.815872430486505040e+00 2.523786108242107673e+02
-1.018897269857211629e+00 -1.815872430486509925e+00 2.523811494809107785e+02
-6.148568658572265422e-01 -1.815872430486510591e+00 2.523836881376107613e+02
-2.108164617571906818e-01 -1.815872430486514144e+00 2.523862267942107849e+02
1.932239422426972053e-01 -1.815872430486514588e+00 2.523887654509107676e+02
5.972643463426769994e-01 -1.815872430486516365e+00 2.523913041076107788e+02
1.001304750342657979e+00 -1.815872430486518585e+00 2.523938427642107740e+02
1.405345154342716452e+00 -1.815872430486516365e+00 2.523963814209107852e+02
1.809385558442671904e+00 -1.815872430486507927e+00 2.523989200776107680e+02
2.213425962442700623e+00 -1.815872430486507705e+00 2.524014587342107632e+02
2.617466366542780420e+00 -1.815872430486503486e+00 2.524039973909107744e+02
-1.422937673857165297e+00 -1.411832026386480310e+00 2.523779443202107586e+02
-1.018897269857150567e+00 -1.411832026386478534e+00 2.523804829769107698e+02
-6.148568658572105550e-01 -1.411832026386479422e+00 2.523830216335107650e+02
-2.108164617572438060e-01 -1.411832026386475425e+00 2.523855602902107762e+02
1.932239422427956821e-01 -1.411832026386473204e+00 2.523880989469107590e+02
5.972643463426968724e-01 -1.411832026386470984e+00 2.523906376035107826e+02
1.001304750342657313e+00 -1.411832026386471428e+00 2.523931762602107653e+02
1.405345154342520608e+00 -1.411832026386474093e+00 2.523957149169107765e+02
1.809385558442500042e+00 -1.411832026386472760e+00 2.523982535735107717e+02
2.213425962442582051e+00 -1.411832026386473871e+00 2.524007922302107829e+02
2.617466366542759992e+00 -1.411832026386479200e+00 2.524033308869107657e+02
3.021506770542687459e+00 -1.411832026386477201e+00 2.524058695435107609e+02
-1.018897269857234278e+00 -1.007791622386476904e+00 2.523798164728107736e+02
-6.148568658571640366e-01 -1.007791622386478458e+00 2.523823551295107848e+02
-2.108164617571643973e-01 -1.007791622386475128e+00 2.523848937862107675e+02
1.932239422428137232e-01 -1.007791622386475572e+00 2.523874324429107787e+02
5.972643463427806942e-01 -1.007791622386474018e+00 2.523899710995107739e+02
1.001304750342701055e+00 -1.007791622386472241e+00 2.523925097562107851e+02
1.405345154342553027e+00 -1.007791622386470243e+00 2.523950484129107679e+02
1.809385558442398123e+00 -1.007791622386467134e+00 2.523975870695107631e+02
2.213425962442379102e+00 -1.007791622386468910e+00 2.524001257262107742e+02
2.617466366542406053e+00 -1.007791622386467578e+00 2.524026643829107854e+02
-1.018897269857179433e+00 -6.037512183864772730e-01 2.523791499688107649e+02
-6.148568658571930134e-01 -6.037512183864760518e-01 2.523816886255107761e+02
-2.108164617571707533e-01 -6.037512183864794935e-01 2.523842272822107589e+02
1.932239422428073117e-01 -6.037512183864790494e-01 2.523867659388107825e+02
5.972643463428073396e-01 -6.037512183864793824e-01 2.523893045955107652e+02
1.001304750342690619e+00 -6.037512183864762738e-01 2.523918432522107764e+02
1.405345154342597214e+00 -6.037512183864738313e-01 2.523943819088107716e+02
1.809385558442531350e+00 -6.037512183864713888e-01 2.523969205655107828e+02
2.213425962442581607e+00 -6.037512183864718329e-01 2.523994592222107656e+02
2.617466366542593903e+00 -6.037512183864714999e-01 2.524019978788107608e+02
-1.422937673857468166e+00 -1.997108142864766067e-01 2.523759448081107735e+02
-1.018897269857388821e+00 -1.997108142864775782e-01 2.523784834648107847e+02
-6.148568658572652890e-01 -1.997108142864789937e-01 2.523810221215107674e+02
-2.108164617571925692e-01 -1.997108142864804647e-01 2.523835607781107626e+02
1.932239422428074505e-01 -1.997108142864801872e-01 2.523860994348107738e+02
5.972643463428098931e-01 -1.997108142864791325e-01 2.523886380915107850e+02
1.001304750342720817e+00 -1.997108142864766622e-01 2.523911767481107802e+02
1.405345154342594549e+00 -1.997108142864740810e-01 2.523937154048107629e+02
1.809385558442619502e+00 -1.997108142864758851e-01 2.523962540615107741e+02
2.213425962442681083e+00 -1.997108142864758573e-01 2.523987927181107693e+02
2.617466366542700928e+00 -1.997108142864751357e-01 2.524013313748107805e+02
-1.422937673857329388e+00 2.043295897135188888e-01 2.523752783041107648e+02
-1.018897269857311549e+00 2.043295897135176675e-01 2.523778169608107760e+02
-6.148568658573225765e-01 2.043295897135193884e-01 2.523803556174107712e+02
-2.108164617572912125e-01 2.043295897135188888e-01 2.523828942741107824e+02
1.932239422427555198e-01 2.043295897135172512e-01 2.523854329308107651e+02
5.972643463427858013e-01 2.043295897135166128e-01 2.523879715874107603e+02
1.001304750342765448e+00 2.043295897135167793e-01 2.523905102441107715e+02
1.405345154342769298e+00 2.043295897135170847e-01 2.523930489008107827e+02
1.809385558442840658e+00 2.043295897135169181e-01 2.523955875575107655e+02
2.213425962442906236e+00 2.043295897135166961e-01 2.523981262141107607e+02
-1.422937673857243013e+00 6.083699938135181950e-01 2.523746118001107845e+02
-1.018897269857304888e+00 6.083699938135195273e-01 2.523771504568107673e+02
-6.148568658573585477e-01 6.083699938135226359e-01 2.523796891134107625e+02
-2.108164617574573296e-01 6.083699938135247454e-01 2.523822277701107737e+02
1.932239422426688946e-01 6.083699938135216367e-01 2.523847664268107849e+02
5.972643463427458332e-01 6.083699938135185281e-01 2.523873050834107801e+02
1.001304750342765226e+00 6.083699938135178620e-01 2.523898437401107628e+02
1.405345154342837910e+00 6.083699938135156415e-01 2.523923823968107740e+02
1.809385558442724529e+00 6.083699938135163077e-01 2.523949210534107692e+02
2.213425962442806316e+00 6.083699938135150864e-01 2.523974597101107804e+02
2.617466366542829714e+00 6.083699938135145313e-01 2.523999983668107632e+02
3.021506770542725206e+00 6.083699938135167518e-01 2.524025370234107584e+02
-1.422937673857218588e+00 1.012410397813519491e+00 2.523739452961107759e+02
-1.018897269857288901e+00 1.012410397813523488e+00 2.523764839527107711e+02
-6.148568658574562473e-01 1.012410397813529039e+00 2.523790226094107823e+02
-2.108164617574670996e-01 1.012410397813527485e+00 2.523815612661107650e+02
1.932239422426441366e-01 1.012410397813523266e+00 2.523840999227107602e+02
5.972643463426771104e-01 1.012410397813522600e+00 2.523866385794107714e+02
1.001304750342796313e+00 1.012410397813520824e+00 2.523891772361107826e+02
1.405345154342848346e+00 1.012410397813521268e+00 2.523917158927107778e+02
1.809385558442849984e+00 1.012410397813520380e+00 2.523942545494107605e+02
2.213425962442953754e+00 1.012410397813520824e+00 2.523967932061107717e+02
2.617466366542851031e+00 1.012410397813520602e+00 2.523993318627107669e+02
-1.422937673857227692e+00 1.416450801813530003e+00 2.523732787920107796e+02
-1.018897269857218069e+00 1.416450801813526672e+00 2.523758174487107624e+02
-6.148568658572286516e-01 1.416450801813524230e+00 2.523783561054107736e+02
-2.108164617572749200e-01 1.416450801813521565e+00 2.523808947620107688e+02
1.932239422427786402e-01 1.416450801813519567e+00 2.523834334187107800e+02
5.972643463427635968e-01 1.416450801813519789e+00 2.523859720754107627e+02
1.001304750342752792e+00 1.416450801813518456e+00 2.523885107320107863e+02
1.405345154342722225e+00 1.416450801813523119e+00 2.523910493887107691e+02
1.809385558442685227e+00 1.416450801813524007e+00 2.523935880454107803e+02
2.213425962442769901e+00 1.416450801813526228e+00 2.523961267021107631e+02
2.617466366542852363e+00 1.416450801813530669e+00 2.523986653587107583e+02
-1.018897269857204524e+00 1.820491205913527866e+00 2.523751509447107821e+02
-6.148568658572729495e-01 1.820491205913529420e+00 2.523776896014107649e+02
-2.108164617572642341e-01 1.820491205913524757e+00 2.523802282580107601e+02
1.932239422427094733e-01 1.820491205913527200e+00 2.523827669147107713e+02
5.972643463428047861e-01 1.820491205913530530e+00 2.523853055714107825e+02
1.001304750342777439e+00 1.820491205913532751e+00 2.523878442280107777e+02
1.405345154342769742e+00 1.820491205913538968e+00 2.523903828847107604e+02
1.809385558442810238e+00 1.820491205913533195e+00 2.523929215414107716e+02
2.213425962442888473e+00 1.820491205913531640e+00 2.523954601980107668e+02
2.617466366542890999e+00 1.820491205913528310e+00 2.523979988547107780e+02
-1.018897269857067300e+00 2.224531609913537711e+00 2.523744844407107735e+02
-6.148568658570349177e-01 2.224531609913530605e+00 2.523770230973107687e+02
-2.108164617569962540e-01 2.224531609913526164e+00 2.523795617540107799e+02
1.932239422428679854e-01 2.224531609913529717e+00 2.523821004107107626e+02
5.972643463427648181e-01 2.224531609913533270e+00 2.523846390673107862e+02
1.001304750342672190e+00 2.224531609913530605e+00 2.523871777240107690e+02
1.405345154342613645e+00 2.224531609913539043e+00 2.523897163807107802e+02
1.809385558442679676e+00 2.224531609913538599e+00 2.523922550373107754e+02
2.213425962442781003e+00 2.224531609913536379e+00 2.523947936940107866e+02
2.617466366542943845e+00 2.224531609913534602e+00 2.523973323507107693e+02
-1.422937673857110230e+00 2.628572014013546454e+00 2.523712792800107820e+02
-1.018897269857093058e+00 2.628572014013550451e+00 2.523738179366107772e+02
-6.148568658571544887e-01 2.628572014013549119e+00 2.523763565933107600e+02
-2.108164617571807731e-01 2.628572014013551783e+00 2.523788952500107712e+02
1.932239422427610154e-01 2.628572014013544678e+00 2.523814339066107664e+02
5.972643463427431687e-01 2.628572014013546010e+00 2.523839725633107776e+02
1.001304750342796979e+00 2.628572014013542013e+00 2.523865112200107603e+02
1.405345154342693803e+00 2.628572014013547342e+00 2.523890498766107839e+02
1.809385558442775821e+00 2.628572014013548674e+00 2.523915885333107667e+02
2.213425962442781003e+00 2.628572014013547786e+00 2.523941271900107779e+02
2.617466366542935852e+00 2.628572014013542901e+00 2.523966658466107731e+02
-1.422937673857051832e+00 3.032612418013536093e+00 2.523706127759107858e+02
-1.018897269857018895e+00 3.032612418013535205e+00 2.523731514326107686e+02
-6.148568658569830703e-01 3.032612418013532096e+00 2.523756900893107797e+02
-2.108164617570747468e-01 3.032612418013531208e+00 2.523782287460107625e+02
1.932239422427556585e-01 3.032612418013530320e+00 2.523807674026107861e+02
5.972643463426352550e-01 3.032612418013528544e+00 2.523833060593107689e+02
1.001304750342718819e+00 3.032612418013528544e+00 2.523858447160107801e+02
1.405345154342676706e+00 3.032612418013525435e+00 2.523883833726107753e+02
1.809385558442737851e+00 3.032612418013530320e+00 2.523909220293107865e+02
2.213425962442807649e+00 3.032612418013531208e+00 2.523934606860107692e+02
-1.422937673857350260e+00 3.436652822013523512e+00 2.523699462719107771e+02
-1.018897269857425458e+00 3.436652822013521291e+00 2.523724849286107599e+02
-6.148568658573788648e-01 3.436652822013522179e+00 2.523750235853107711e+02
-2.108164617572840516e-01 3.436652822013519071e+00 2.523775622419107663e+02
1.932239422428229658e-01 3.436652822013515962e+00 2.523801008986107774e+02
5.972643463428541910e-01 3.436652822013517738e+00 2.523826395553107602e+02
1.001304750342866257e+00 3.436652822013518183e+00 2.523851782119107838e+02
1.405345154342827252e+00 3.436652822013525732e+00 2.523877168686107666e+02
1.809385558442740960e+00 3.436652822013527064e+00 2.523902555253107778e+02
2.213425962442691741e+00 3.436652822013526176e+00 2.523927941819107730e+02
-1.422937673857250340e+00 3.840693226113471415e+00 2.523692797679107684e+02
-1.018897269857296672e+00 3.840693226113478076e+00 2.523718184246107796e+02
-6.148568658572259871e-01 3.840693226113472303e+00 2.523743570812107748e+02
-2.108164617572852173e-01 3.840693226113463421e+00 2.523768957379107860e+02
1.932239422427351194e-01 3.840693226113464753e+00 2.523794343946107688e+02
5.972643463427773636e-01 3.840693226113466086e+00 2.523819730512107640e+02
1.001304750342783434e+00 3.840693226113460756e+00 2.523845117079107752e+02
1.405345154342685809e+00 3.840693226113462533e+00 2.523870503646107863e+02
1.809385558442686115e+00 3.840693226113448322e+00 2.523895890212107815e+02
2.213425962442793882e+00 3.840693226113450542e+00 2.523921276779107643e+02
-1.422937673857425311e+00 4.244733630113454836e+00 2.523686132639107598e+02
-1.018897269857428789e+00 4.244733630113447731e+00 2.523711519205107834e+02
-6.148568658573404511e-01 4.244733630113441514e+00 2.523736905772107662e+02
-2.108164617572427513e-01 4.244733630113451284e+00 2.523762292339107773e+02
1.932239422428965181e-01 4.244733630113453948e+00 2.523787678905107725e+02
5.972643463429123667e-01 4.244733630113457501e+00 2.523813065472107837e+02
1.001304750342951966e+00 4.244733630113460165e+00 2.523838452039107665e+02
1.405345154342838354e+00 4.244733630113456613e+00 2.523863838606107777e+02
1.809385558442708763e+00 4.244733630113441514e+00 2.523889225172107729e+02
-1.826978077957386315e+00 4.648774034213462691e+00 2.523654081032107683e+02
-1.422937673857400886e+00 4.648774034213472461e+00 2.523679467599107795e+02
-1.018897269857277799e+00 4.648774034213482231e+00 2.523704854165107747e+02
-6.148568658573406731e-01 4.648774034213484008e+00 2.523730240732107859e+02
-2.108164617574425359e-01 4.648774034213490225e+00 2.523755627299107687e+02
1.932239422425633402e-01 4.648774034213473350e+00 2.523781013865107639e+02
5.972643463426338117e-01 4.648774034213464468e+00 2.523806400432107750e+02
1.001304750342733030e+00 4.648774034213472461e+00 2.523831786999107862e+02
1.405345154342775515e+00 4.648774034213456474e+00 2.523857173565107814e+02
1.809385558442930586e+00 4.648774034213454698e+00 2.523882560132107642e+02
2.213425962443011041e+00 4.648774034213454698e+00 2.523907946699107754e+02
-1.826978077957322588e+00 5.052814438213466985e+00 2.523647415992107597e+02
-1.422937673857344043e+00 5.052814438213477644e+00 2.523672802558107833e+02
-1.018897269857333088e+00 5.052814438213475867e+00 2.523698189125107660e+02
-6.148568658573901891e-01 5.052814438213473203e+00 2.523723575692107772e+02
-2.108164617573445865e-01 5.052814438213455439e+00 2.523748962258107724e+02
1.932239422427417530e-01 5.052814438213454551e+00 2.523774348825107836e+02
5.972643463427362853e-01 5.052814438213452775e+00 2.523799735392107664e+02
1.001304750342822514e+00 5.052814438213454551e+00 2.523825121958107616e+02
1.405345154342748870e+00 5.052814438213450110e+00 2.523850508525107728e+02
1.809385558442790254e+00 5.052814438213447445e+00 2.523875895092107839e+02
2.213425962442856498e+00 5.052814438213452775e+00 2.523901281658107791e+02
2.617466366543039769e+00 5.052814438213453663e+00 2.523926668225107619e+02
3.021506770543064491e+00 5.052814438213450110e+00 2.523952054792107731e+02
-1.826978077957347457e+00 5.456854842213455292e+00 2.523640750951107634e+02
-1.422937673857357366e+00 5.456854842213460621e+00 2.523666137518107746e+02
-1.018897269857456989e+00 5.456854842213457069e+00 2.523691524085107858e+02
-6.148568658574168344e-01 5.456854842213452628e+00 2.523716910651107810e+02
-2.108164617573804189e-01 5.456854842213443746e+00 2.523742297218107637e+02
1.932239422426735853e-01 5.456854842213451739e+00 2.523767683785107749e+02
5.972643463426948740e-01 5.456854842213443746e+00 2.523793070351107701e+02
1.001304750342728811e+00 5.456854842213446410e+00 2.523818456918107813e+02
1.405345154342763525e+00 5.456854842213441081e+00 2.523843843485107641e+02
1.809385558442774267e+00 5.456854842213430423e+00 2.523869230052107753e+02
2.213425962442908457e+00 5.456854842213427759e+00 2.523894616618107705e+02
2.617466366543073075e+00 5.456854842213422430e+00 2.523920003185107817e+02
3.021506770543139986e+00 5.456854842213420653e+00 2.523945389752107644e+02
-1.826978077957337021e+00 5.860895246313459594e+00 2.523634085911107832e+02
-1.422937673857364693e+00 5.860895246313449825e+00 2.523659472478107659e+02
-1.018897269857423682e+00 5.860895246313436502e+00 2.523684859045107771e+02
-6.148568658574294910e-01 5.860895246313428508e+00 2.523710245611107723e+02
-2.108164617573534960e-01 5.860895246313435614e+00 2.523735632178107835e+02
1.932239422427181053e-01 5.860895246313431173e+00 2.523761018745107663e+02
5.972643463426902111e-01 5.860895246313423179e+00 2.523786405311107615e+02
1.001304750342711491e+00 5.860895246313414297e+00 2.523811791878107726e+02
1.405345154342731107e+00 5.860895246313410745e+00 2.523837178445107838e+02
1.809385558442788922e+00 5.860895246313408080e+00 2.523862565011107790e+02
2.213425962442888029e+00 5.860895246313412521e+00 2.523887951578107618e+02
2.617466366542932299e+00 5.860895246313420515e+00 2.523913338145107730e+02
-1.422937673857328944e+00 6.264935650313424809e+00 2.523652807438107857e+02
-1.018897269857329091e+00 6.264935650313423920e+00 2.523678194004107809e+02
-6.148568658573010381e-01 6.264935650313431026e+00 2.523703580571107636e+02
-2.108164617573037025e-01 6.264935650313430138e+00 2.523728967138107748e+02
1.932239422427180497e-01 6.264935650313431914e+00 2.523754353704107700e+02
5.972643463427477206e-01 6.264935650313423032e+00 2.523779740271107812e+02
1.001304750342752792e+00 6.264935650313414151e+00 2.523805126838107640e+02
1.405345154342701575e+00 6.264935650313417703e+00 2.523830513404107592e+02
1.809385558442666797e+00 6.264935650313424809e+00 2.523855899971107704e+02
2.213425962442822303e+00 6.264935650313428361e+00 2.523881286538107815e+02
2.617466366542883893e+00 6.264935650313423920e+00 2.523906673104107767e+02
-1.422937673857287644e+00 6.668976054413447763e+00 2.523646142397107610e+02
-1.018897269857214960e+00 6.668976054413430887e+00 2.523671528964107722e+02
-6.148568658572286516e-01 6.668976054413430887e+00 2.523696915531107834e+02
-2.108164617572209076e-01 6.668976054413422894e+00 2.523722302097107786e+02
1.932239422428329023e-01 6.668976054413433552e+00 2.523747688664107613e+02
5.972643463427179666e-01 6.668976054413431775e+00 2.523773075231107725e+02
1.001304750342675076e+00 6.668976054413424670e+00 2.523798461797107677e+02
1.405345154342560354e+00 6.668976054413420229e+00 2.523823848364107789e+02
1.809385558442545117e+00 6.668976054413422005e+00 2.523849234931107617e+02
2.213425962442699291e+00 6.668976054413424670e+00 2.523874621497107853e+02
2.617466366542788858e+00 6.668976054413429111e+00 2.523900008064107681e+02
-1.018897269857195642e+00 7.073016458413456498e+00 2.523664863924107635e+02
-6.148568658571733625e-01 7.073016458413453833e+00 2.523690250491107747e+02
-2.108164617571595401e-01 7.073016458413451168e+00 2.523715637057107699e+02
1.932239422428479181e-01 7.073016458413444951e+00 2.523741023624107811e+02
5.972643463427385058e-01 7.073016458413431629e+00 2.523766410191107639e+02
1.001304750342637329e+00 7.073016458413430740e+00 2.523791796757107591e+02
1.405345154342489300e+00 7.073016458413430740e+00 2.523817183324107702e+02
1.809385558442533570e+00 7.073016458413427188e+00 2.523842569891107814e+02
2.213425962442675310e+00 7.073016458413430740e+00 2.523867956457107766e+02
2.617466366542831047e+00 7.073016458413443175e+00 2.523893343024107594e+02
-1.018897269857156340e+00 7.477056862413460792e+00 2.523658198884107833e+02
-6.148568658571350598e-01 7.477056862413467009e+00 2.523683585450107785e+02
-2.108164617571284816e-01 7.477056862413468785e+00 2.523708972017107612e+02
1.932239422428318198e-01 7.477056862413469673e+00 2.523734358584107724e+02
5.972643463427564914e-01 7.477056862413455463e+00 2.523759745150107676e+02
1.001304750342620231e+00 7.477056862413463456e+00 2.523785131717107788e+02
1.405345154342563241e+00 7.477056862413459015e+00 2.523810518284107616e+02
1.809385558442616393e+00 7.477056862413461680e+00 2.523835904850107852e+02
2.213425962442658879e+00 7.477056862413459903e+00 2.523861291417107680e+02
2.617466366542778200e+00 7.477056862413453686e+00 2.523886677984107791e+02
-1.018897269857234056e+00 7.881097266513482857e+00 2.523651533843107586e+02
-6.148568658571584855e-01 7.881097266513481969e+00 2.523676920410107698e+02
-2.108164617571580968e-01 7.881097266513477528e+00 2.523702306977107810e+02
1.932239422428162490e-01 7.881097266513473976e+00 2.523727693543107762e+02
5.972643463427552701e-01 7.881097266513467758e+00 2.523753080110107589e+02
1.001304750342719707e+00 7.881097266513468647e+00 2.523778466677107701e+02
1.405345154342723335e+00 7.881097266513471311e+00 2.523803853243107653e+02
1.809385558442664133e+00 7.881097266513475752e+00 2.523829239810107765e+02
2.213425962442671313e+00 7.881097266513483746e+00 2.523854626377107593e+02
2.617466366542783529e+00 7.881097266513464206e+00 2.523880012943107829e+02
-1.018897269857240273e+00 8.285137670513478270e+00 2.523644868803107784e+02
-6.148568658572269863e-01 8.285137670513481822e+00 2.523670255370107611e+02
-2.108164617571796629e-01 8.285137670513474717e+00 2.523695641936107847e+02
1.932239422427844688e-01 8.285137670513464059e+00 2.523721028503107675e+02
5.972643463427830257e-01 8.285137670513478270e+00 2.523746415070107787e+02
1.001304750342805194e+00 8.285137670513476493e+00 2.523771801637107615e+02
1.405345154342806158e+00 8.285137670513478270e+00 2.523797188203107851e+02
1.809385558442782482e+00 8.285137670513483599e+00 2.523822574770107678e+02
2.213425962442816974e+00 8.285137670513481822e+00 2.523847961337107790e+02
2.617466366542794187e+00 8.285137670513481822e+00 2.523873347903107742e+02
-1.018897269857360177e+00 8.689178074613472802e+00 2.523638203763107697e+02
-6.148568658572708401e-01 8.689178074613483460e+00 2.523663590330107809e+02
-2.108164617572501065e-01 8.689178074613494118e+00 2.523688976896107761e+02
1.932239422427680930e-01 8.689178074613490566e+00 2.523714363463107588e+02
5.972643463428438659e-01 8.689178074613485236e+00 2.523739750030107700e+02
1.001304750342901340e+00 8.689178074613487013e+00 2.523765136596107652e+02
1.405345154342827918e+00 8.689178074613481684e+00 2.523790523163107764e+02
1.809385558442839770e+00 8.689178074613483460e+00 2.523815909730107592e+02
2.213425962442848505e+00 8.689178074613478131e+00 2.523841296296107828e+02
2.617466366542887002e+00 8.689178074613460367e+00 2.523866682863107656e+02
3.021506770542839337e+00 8.689178074613471026e+00 2.523892069430107767e+02
-1.422937673857452401e+00 9.093218478613479760e+00 2.523606152156107783e+02
-1.018897269857361065e+00 9.093218478613481537e+00 2.523631538723107610e+02
-6.148568658572611811e-01 9.093218478613481537e+00 2.523656925289107846e+02
-2.108164617572444721e-01 9.093218478613465550e+00 2.523682311856107674e+02
1.932239422428387587e-01 9.093218478613469102e+00 2.523707698423107786e+02
5.972643463428883859e-01 9.093218478613463773e+00 2.523733084989107738e+02
1.001304750342880912e+00 9.093218478613472655e+00 2.523758471556107850e+02
1.405345154342864111e+00 9.093218478613460221e+00 2.523783858123107677e+02
1.809385558442858644e+00 9.093218478613447786e+00 2.523809244689107629e+02
2.213425962442850725e+00 9.093218478613456668e+00 2.523834631256107741e+02
2.617466366542867462e+00 9.093218478613476208e+00 2.523860017823107853e+02
-1.422937673857336049e+00 9.497258882613465403e+00 2.523599487116107696e+02
-1.018897269857270471e+00 9.497258882613479614e+00 2.523624873682107648e+02
-6.148568658572972634e-01 9.497258882613486719e+00 2.523650260249107760e+02
-2.108164617572234611e-01 9.497258882613474285e+00 2.523675646816107587e+02
1.932239422427690922e-01 9.497258882613481390e+00 2.523701033382107823e+02
5.972643463428113364e-01 9.497258882613483166e+00 2.523726419949107651e+02
1.001304750342836503e+00 9.497258882613476061e+00 2.523751806516107763e+02
1.405345154342819702e+00 9.497258882613479614e+00 2.523777193083107591e+02
1.809385558442802022e+00 9.497258882613465403e+00 2.523802579649107827e+02
2.213425962442881811e+00 9.497258882613474285e+00 2.523827966216107654e+02
-1.422937673857325169e+00 9.901299286713491909e+00 2.523592822076107609e+02
-1.018897269857295784e+00 9.901299286713484804e+00 2.523618208642107845e+02
-6.148568658572556300e-01 9.901299286713481251e+00 2.523643595209107673e+02
-2.108164617573181077e-01 9.901299286713490133e+00 2.523668981776107785e+02
1.932239422427325937e-01 9.901299286713490133e+00 2.523694368342107737e+02
5.972643463427540489e-01 9.901299286713479475e+00 2.523719754909107849e+02
1.001304750342787431e+00 9.901299286713475922e+00 2.523745141476107676e+02
1.405345154342783953e+00 9.901299286713483028e+00 2.523770528042107628e+02
1.809385558442804909e+00 9.901299286713477699e+00 2.523795914609107740e+02
2.213425962442874706e+00 9.901299286713475922e+00 2.523821301176107852e+02
2.617466366542967382e+00 9.901299286713475922e+00 2.523846687742107804e+02
3.021506770543052944e+00 9.901299286713479475e+00 2.523872074309107632e+02
-1.422937673857296526e+00 1.030533969071349354e+01 2.523586157035107647e+02
-1.018897269857311549e+00 1.030533969071349176e+01 2.523611543602107758e+02
-6.148568658572495238e-01 1.030533969071348821e+01 2.523636930169107586e+02
-2.108164617572246546e-01 1.030533969071348643e+01 2.523662316735107822e+02
1.932239422427627640e-01 1.030533969071347400e+01 2.523687703302107650e+02
5.972643463427700361e-01 1.030533969071347045e+01 2.523713089869107762e+02
1.001304750342786987e+00 1.030533969071347933e+01 2.523738476435107714e+02
1.405345154342750869e+00 1.030533969071345624e+01 2.523763863002107826e+02
1.809385558442808239e+00 1.030533969071345801e+01 2.523789249569107653e+02
2.213425962442875150e+00 1.030533969071347222e+01 2.523814636135107605e+02
2.617466366542961609e+00 1.030533969071347933e+01 2.523840022702107717e+02
-1.422937673857296081e+00 1.070938009481348807e+01 2.523579491995107844e+02
-1.018897269857233612e+00 1.070938009481347919e+01 2.523604878562107672e+02
-6.148568658572266532e-01 1.070938009481347741e+01 2.523630265128107624e+02
-2.108164617572166610e-01 1.070938009481348807e+01 2.523655651695107736e+02
1.932239422427619591e-01 1.070938009481348274e+01 2.523681038262107847e+02
5.972643463427611543e-01 1.070938009481349162e+01 2.523706424828107799e+02
1.001304750342821404e+00 1.070938009481348985e+01 2.523731811395107627e+02
1.405345154342805269e+00 1.070938009481348807e+01 2.523757197962107739e+02
1.809385558442719422e+00 1.070938009481348452e+01 2.523782584528107691e+02
2.213425962442859163e+00 1.070938009481348097e+01 2.523807971095107803e+02
2.617466366542929190e+00 1.070938009481347741e+01 2.523833357662107630e+02
-1.018897269857227839e+00 1.111342049881348970e+01 2.523598213522107585e+02
-6.148568658572417522e-01 1.111342049881349325e+01 2.523623600088107821e+02
-2.108164617572101107e-01 1.111342049881349148e+01 2.523648986655107649e+02
1.932239422427836084e-01 1.111342049881348615e+01 2.523674373222107761e+02
5.972643463427443900e-01 1.111342049881350746e+01 2.523699759788107713e+02
1.001304750342805194e+00 1.111342049881350214e+01 2.523725146355107825e+02
1.405345154342769520e+00 1.111342049881348970e+01 2.523750532922107652e+02
1.809385558442749176e+00 1.111342049881348970e+01 2.523775919488107604e+02
2.213425962442867156e+00 1.111342049881348437e+01 2.523801306055107716e+02
2.617466366542942513e+00 1.111342049881347727e+01 2.523826692622107828e+02
-1.018897269857234278e+00 1.151746090291348423e+01 2.523591548481107623e+02
-6.148568658572304280e-01 1.151746090291348956e+01 2.523616935048107734e+02
-2.108164617572316768e-01 1.151746090291348601e+01 2.523642321615107846e+02
1.932239422427684261e-01 1.151746090291348601e+01 2.523667708181107798e+02
5.972643463427392829e-01 1.151746090291348956e+01 2.523693094748107626e+02
1.001304750342792760e+00 1.151746090291348779e+01 2.523718481315107738e+02
1.405345154342775293e+00 1.151746090291349844e+01 2.523743867881107690e+02
1.809385558442756281e+00 1.151746090291348601e+01 2.523769254448107802e+02
2.213425962442784556e+00 1.151746090291347713e+01 2.523794641015107629e+02
2.617466366542901657e+00 1.151746090291347713e+01 2.523820027581107865e+02
-1.018897269857292009e+00 1.192150130691348942e+01 2.523584883441107820e+02
-6.148568658572364232e-01 1.192150130691348053e+01 2.523610270008107648e+02
-2.108164617572536870e-01 1.192150130691350185e+01 2.523635656574107600e+02
1.932239422428207176e-01 1.192150130691351073e+01 2.523661043141107712e+02
5.972643463428199961e-01 1.192150130691350363e+01 2.523686429708107823e+02
1.001304750342786321e+00 1.192150130691351251e+01 2.523711816274107775e+02
