-1.427964108004196930e+00 -1.272364368946446511e+01 2.531965895536597770e+02
-1.023923704004199520e+00 -1.231960328536446347e+01 2.531984617062597636e+02
-6.198833000042591745e-01 -1.231960328536446525e+01 2.532010003629597747e+02
-2.158428959041084338e-01 -1.231960328536446880e+01 2.532035390195597699e+02
1.881975080959222557e-01 -1.231960328536447413e+01 2.532060776762597811e+02
5.922379121960237303e-01 -1.231960328536447768e+01 2.532086163329597639e+02
9.962783161960001577e-01 -1.231960328536447946e+01 2.532111549895597875e+02
1.400318720196030542e+00 -1.231960328536448124e+01 2.532136936462597703e+02
1.804359124296023964e+00 -1.231960328536448124e+01 2.532162323029597815e+02
2.208399528296002501e+00 -1.231960328536447946e+01 2.532187709595597767e+02
-1.023923704004176205e+00 -1.191556288136446007e+01 2.531977952022597833e+02
-6.198833000041930053e-01 -1.191556288136446184e+01 2.532003338588597785e+02
-2.158428959041074624e-01 -1.191556288136447961e+01 2.532028725155597897e+02
1.881975080958713797e-01 -1.191556288136448138e+01 2.532054111722597725e+02
5.922379121959886472e-01 -1.191556288136447250e+01 2.532079498288597676e+02
9.962783161959544165e-01 -1.191556288136447428e+01 2.532104884855597788e+02
1.400318720196000122e+00 -1.191556288136447961e+01 2.532130271422597900e+02
1.804359124295967121e+00 -1.191556288136447073e+01 2.532155657988597852e+02
2.208399528296022929e+00 -1.191556288136446895e+01 2.532181044555597680e+02
-1.023923704004153556e+00 -1.151152247736444956e+01 2.531971286982597746e+02
-6.198833000041835684e-01 -1.151152247736444956e+01 2.531996673548597698e+02
-2.158428959041834294e-01 -1.151152247736445133e+01 2.532022060115597810e+02
1.881975080959207292e-01 -1.151152247736446022e+01 2.532047446682597638e+02
5.922379121959882031e-01 -1.151152247736446732e+01 2.532072833248597874e+02
9.962783161959534173e-01 -1.151152247736446377e+01 2.532098219815597702e+02
1.400318720195942390e+00 -1.151152247736446022e+01 2.532123606382597814e+02
1.804359124295965122e+00 -1.151152247736445133e+01 2.532148992948597765e+02
-1.023923704004089164e+00 -1.110748207326446924e+01 2.531964621941597784e+02
-6.198833000041110708e-01 -1.110748207326444437e+01 2.531990008508597896e+02
-2.158428959041093775e-01 -1.110748207326446035e+01 2.532015395075597723e+02
1.881975080959421842e-01 -1.110748207326446035e+01 2.532040781641597675e+02
5.922379121959354675e-01 -1.110748207326445680e+01 2.532066168208597787e+02
9.962783161959321010e-01 -1.110748207326446391e+01 2.532091554775597899e+02
1.400318720195972144e+00 -1.110748207326445680e+01 2.532116941341597851e+02
1.804359124295929595e+00 -1.110748207326444259e+01 2.532142327908597679e+02
-1.023923704004064739e+00 -1.070344166926449780e+01 2.531957956901597697e+02
-6.198833000041076291e-01 -1.070344166926447826e+01 2.531983343468597809e+02
-2.158428959041108486e-01 -1.070344166926444629e+01 2.532008730034597761e+02
1.881975080959412683e-01 -1.070344166926444984e+01 2.532034116601597873e+02
5.922379121959154835e-01 -1.070344166926447116e+01 2.532059503168597701e+02
9.962783161959535283e-01 -1.070344166926446405e+01 2.532084889734597652e+02
1.400318720195920852e+00 -1.070344166926446050e+01 2.532110276301597764e+02
1.804359124295910721e+00 -1.070344166926446583e+01 2.532135662868597876e+02
2.208399528296003833e+00 -1.070344166926449248e+01 2.532161049434597828e+02
-6.198833000040537833e-01 -1.029940126516449794e+01 2.531976678427597847e+02
-2.158428959041181761e-01 -1.029940126516448018e+01 2.532002064994597674e+02
1.881975080958908364e-01 -1.029940126516446419e+01 2.532027451561597786e+02
5.922379121959200354e-01 -1.029940126516447485e+01 2.532052838128597898e+02
9.962783161959548606e-01 -1.029940126516447840e+01 2.532078224694597850e+02
1.400318720195955269e+00 -1.029940126516448373e+01 2.532103611261597678e+02
1.804359124295890293e+00 -1.029940126516449794e+01 2.532128997828597790e+02
2.208399528295903469e+00 -1.029940126516449972e+01 2.532154384394597741e+02
-1.023923704004085833e+00 -9.895360861164501642e+00 2.531944626821597808e+02
-6.198833000040432362e-01 -9.895360861164498090e+00 2.531970013387597760e+02
-2.158428959041275019e-01 -9.895360861164494537e+00 2.531995399954597872e+02
1.881975080958833979e-01 -9.895360861164496313e+00 2.532020786521597699e+02
5.922379121959315817e-01 -9.895360861164483879e+00 2.532046173087597651e+02
9.962783161958849165e-01 -9.895360861164508748e+00 2.532071559654597763e+02
1.400318720195969480e+00 -9.895360861164517630e+00 2.532096946221597875e+02
1.804359124295912054e+00 -9.895360861164503419e+00 2.532122332787597827e+02
2.208399528295927894e+00 -9.895360861164514077e+00 2.532147719354597655e+02
-1.023923704004127133e+00 -9.491320457064498228e+00 2.531937961780597846e+02
-6.198833000040138153e-01 -9.491320457064491123e+00 2.531963348347597673e+02
-2.158428959040941120e-01 -9.491320457064484017e+00 2.531988734914597785e+02
1.881975080959370494e-01 -9.491320457064473359e+00 2.532014121480597737e+02
5.922379121959931991e-01 -9.491320457064476912e+00 2.532039508047597849e+02
9.962783161959557487e-01 -9.491320457064487570e+00 2.532064894614597677e+02
1.400318720195944167e+00 -9.491320457064501781e+00 2.532090281180597913e+02
1.804359124295963124e+00 -9.491320457064496452e+00 2.532115667747597740e+02
2.208399528296019376e+00 -9.491320457064482241e+00 2.532141054314597852e+02
-1.023923704004182422e+00 -9.087280053064503704e+00 2.531931296740597759e+02
-6.198833000041009678e-01 -9.087280053064480612e+00 2.531956683307597871e+02
-2.158428959040460393e-01 -9.087280053064448637e+00 2.531982069873597823e+02
1.881975080959404911e-01 -9.087280053064443308e+00 2.532007456440597650e+02
5.922379121959365778e-01 -9.087280053064469953e+00 2.532032843007597762e+02
9.962783161960095946e-01 -9.087280053064468177e+00 2.532058229574597874e+02
1.400318720196017885e+00 -9.087280053064485941e+00 2.532083616140597826e+02
1.804359124296051942e+00 -9.087280053064482388e+00 2.532109002707597654e+02
2.208399528296073555e+00 -9.087280053064505481e+00 2.532134389274597766e+02
-1.023923704004159996e+00 -8.683239649064512733e+00 2.531924631700597672e+02
-6.198833000042581753e-01 -8.683239649064500298e+00 2.531950018267597784e+02
-2.158428959042283102e-01 -8.683239649064496746e+00 2.531975404833597736e+02
1.881975080959233382e-01 -8.683239649064509180e+00 2.532000791400597848e+02
5.922379121960384962e-01 -8.683239649064518062e+00 2.532026177967597675e+02
9.962783161961565881e-01 -8.683239649064518062e+00 2.532051564533597912e+02
1.400318720196231492e+00 -8.683239649064535826e+00 2.532076951100597739e+02
1.804359124296190942e+00 -8.683239649064518062e+00 2.532102337667597851e+02
-1.023923704004251256e+00 -8.279199244964503990e+00 2.531917966660597870e+02
-6.198833000042159869e-01 -8.279199244964511095e+00 2.531943353226597822e+02
-2.158428959041371609e-01 -8.279199244964503990e+00 2.531968739793597649e+02
1.881975080959884805e-01 -8.279199244964512872e+00 2.531994126360597761e+02
5.922379121961629522e-01 -8.279199244964516424e+00 2.532019512926597713e+02
9.962783161962084355e-01 -8.279199244964519977e+00 2.532044899493597825e+02
1.400318720196206179e+00 -8.279199244964521753e+00 2.532070286060597653e+02
1.804359124296273764e+00 -8.279199244964509319e+00 2.532095672626597889e+02
-1.023923704004126245e+00 -7.875158840964546769e+00 2.531911301619597907e+02
-6.198833000040782082e-01 -7.875158840964534335e+00 2.531936688186597735e+02
-2.158428959040490092e-01 -7.875158840964523677e+00 2.531962074753597847e+02
1.881975080959753799e-01 -7.875158840964511242e+00 2.531987461319597799e+02
5.922379121960017478e-01 -7.875158840964497031e+00 2.532012847886597910e+02
9.962783161961040745e-01 -7.875158840964507689e+00 2.532038234453597738e+02
1.400318720196178424e+00 -7.875158840964521900e+00 2.532063621019597690e+02
1.804359124296119443e+00 -7.875158840964531670e+00 2.532089007586597802e+02
-1.427964108004027288e+00 -7.471118436864503387e+00 2.531879250013597868e+02
-1.023923704003972368e+00 -7.471118436864516710e+00 2.531904636579597820e+02
-6.198833000041990005e-01 -7.471118436864508716e+00 2.531930023146597648e+02
-2.158428959041703288e-01 -7.471118436864515822e+00 2.531955409713597760e+02
1.881975080958717961e-01 -7.471118436864508716e+00 2.531980796279597712e+02
5.922379121959053805e-01 -7.471118436864499834e+00 2.532006182846597824e+02
9.962783161959439804e-01 -7.471118436864499834e+00 2.532031569413597651e+02
1.400318720196071176e+00 -7.471118436864523815e+00 2.532056955979597888e+02
1.804359124296160521e+00 -7.471118436864514045e+00 2.532082342546597715e+02
2.208399528296129954e+00 -7.471118436864530032e+00 2.532107729113597827e+02
-1.427964108003880961e+00 -7.067078032864528403e+00 2.531872584972597906e+02
-1.023923704004037427e+00 -7.067078032864491988e+00 2.531897971539597734e+02
-6.198833000041112928e-01 -7.067078032864483994e+00 2.531923358106597846e+02
-2.158428959041629736e-01 -7.067078032864483106e+00 2.531948744672597797e+02
1.881975080958058211e-01 -7.067078032864475112e+00 2.531974131239597909e+02
5.922379121958413206e-01 -7.067078032864484882e+00 2.531999517806597737e+02
9.962783161958899125e-01 -7.067078032864475112e+00 2.532024904372597689e+02
1.400318720196111144e+00 -7.067078032864474224e+00 2.532050290939597801e+02
1.804359124296275763e+00 -7.067078032864484882e+00 2.532075677506597913e+02
2.208399528296192571e+00 -7.067078032864489323e+00 2.532101064072597865e+02
-1.023923704003980806e+00 -6.663037628864477924e+00 2.531891306499597647e+02
-6.198833000040794294e-01 -6.663037628864481476e+00 2.531916693065597883e+02
-2.158428959041649164e-01 -6.663037628864464601e+00 2.531942079632597711e+02
1.881975080958460389e-01 -6.663037628864467266e+00 2.531967466199597823e+02
5.922379121959746584e-01 -6.663037628864463713e+00 2.531992852765597775e+02
9.962783161960031553e-01 -6.663037628864469042e+00 2.532018239332597886e+02
1.400318720196133571e+00 -6.663037628864484141e+00 2.532043625899597714e+02
1.804359124296206707e+00 -6.663037628864485029e+00 2.532069012465597666e+02
2.208399528296034475e+00 -6.663037628864477036e+00 2.532094399032597778e+02
-1.023923704004054525e+00 -6.258997224764494050e+00 2.531884641458597685e+02
-6.198833000040273600e-01 -6.258997224764486056e+00 2.531910028025597796e+02
-2.158428959040931683e-01 -6.258997224764451417e+00 2.531935414592597908e+02
1.881975080959606972e-01 -6.258997224764431877e+00 2.531960801159597736e+02
5.922379121960054116e-01 -6.258997224764427436e+00 2.531986187725597688e+02
9.962783161959689604e-01 -6.258997224764430101e+00 2.532011574292597800e+02
1.400318720196050970e+00 -6.258997224764454970e+00 2.532036960859597912e+02
1.804359124296093908e+00 -6.258997224764473621e+00 2.532062347425597864e+02
-1.023923704003985469e+00 -5.854956820764493308e+00 2.531877976418597882e+02
-6.198833000040389063e-01 -5.854956820764476433e+00 2.531903362985597710e+02
-2.158428959040124273e-01 -5.854956820764462222e+00 2.531928749552597822e+02
1.881975080960885394e-01 -5.854956820764462222e+00 2.531954136118597773e+02
5.922379121961333093e-01 -5.854956820764456893e+00 2.531979522685597885e+02
9.962783161960898637e-01 -5.854956820764432024e+00 2.532004909252597713e+02
1.400318720196039868e+00 -5.854956820764449787e+00 2.532030295818597665e+02
1.804359124296019301e+00 -5.854956820764457781e+00 2.532055682385597777e+02
-1.023923704004034985e+00 -5.450916416664515651e+00 2.531871311378597795e+02
-6.198833000039737362e-01 -5.450916416664504993e+00 2.531896697945597907e+02
-2.158428959038038164e-01 -5.450916416664504105e+00 2.531922084511597859e+02
1.881975080961436342e-01 -5.450916416664495223e+00 2.531947471078597687e+02
5.922379121960642534e-01 -5.450916416664497888e+00 2.531972857645597799e+02
9.962783161960858669e-01 -5.450916416664497888e+00 2.531998244211597751e+02
1.400318720195991462e+00 -5.450916416664500552e+00 2.532023630778597862e+02
1.804359124295978889e+00 -5.450916416664504105e+00 2.532049017345597690e+02
2.208399528295930558e+00 -5.450916416664512987e+00 2.532074403911597642e+02
-1.023923704004035429e+00 -5.046876012664511357e+00 2.531864646338597709e+02
-6.198833000039620789e-01 -5.046876012664513134e+00 2.531890032904597660e+02
-2.158428959039055683e-01 -5.046876012664497146e+00 2.531915419471597772e+02
1.881975080960815172e-01 -5.046876012664498035e+00 2.531940806038597884e+02
5.922379121960288373e-01 -5.046876012664488265e+00 2.531966192605597712e+02
9.962783161960248046e-01 -5.046876012664488265e+00 2.531991579171597664e+02
1.400318720196053635e+00 -5.046876012664499811e+00 2.532016965738597776e+02
1.804359124296077255e+00 -5.046876012664519351e+00 2.532042352305597888e+02
2.208399528295988290e+00 -5.046876012664531785e+00 2.532067738871597840e+02
-1.023923704004110924e+00 -4.642835608664488412e+00 2.531857981298597906e+02
-6.198833000041268360e-01 -4.642835608664500846e+00 2.531883367864597858e+02
-2.158428959040609163e-01 -4.642835608664471536e+00 2.531908754431597686e+02
1.881975080959888413e-01 -4.642835608664475089e+00 2.531934140998597798e+02
5.922379121960077430e-01 -4.642835608664490188e+00 2.531959527564597749e+02
9.962783161961605849e-01 -4.642835608664491964e+00 2.531984914131597861e+02
1.400318720196224387e+00 -4.642835608664507951e+00 2.532010300698597689e+02
1.804359124296153194e+00 -4.642835608664525715e+00 2.532035687264597641e+02
-6.198833000041739094e-01 -4.238795204564481445e+00 2.531876702824597771e+02
-2.158428959042713868e-01 -4.238795204564516084e+00 2.531902089391597883e+02
1.881975080959209234e-01 -4.238795204564524965e+00 2.531927475957597835e+02
5.922379121960689163e-01 -4.238795204564544505e+00 2.531952862524597663e+02
9.962783161962118772e-01 -4.238795204564552499e+00 2.531978249091597775e+02
1.400318720196178424e+00 -4.238795204564540064e+00 2.532003635657597727e+02
1.804359124296123884e+00 -4.238795204564553387e+00 2.532029022224597838e+02
-6.198833000042518471e-01 -3.834754800564474042e+00 2.531870037784597685e+02
-2.158428959043344475e-01 -3.834754800564467825e+00 2.531895424350597636e+02
1.881975080956766466e-01 -3.834754800564471378e+00 2.531920810917597748e+02
5.922379121958578629e-01 -3.834754800564478039e+00 2.531946197484597860e+02
9.962783161960114819e-01 -3.834754800564485144e+00 2.531971584050597812e+02
1.400318720195990352e+00 -3.834754800564489585e+00 2.531996970617597640e+02
1.804359124296005978e+00 -3.834754800564490917e+00 2.532022357184597752e+02
-6.198833000044140507e-01 -3.430714396464486615e+00 2.531863372744597882e+02
-2.158428959045070039e-01 -3.430714396464482618e+00 2.531888759310597834e+02
1.881975080955531621e-01 -3.430714396464484395e+00 2.531914145877597662e+02
5.922379121956478087e-01 -3.430714396464485727e+00 2.531939532444597774e+02
9.962783161957683431e-01 -3.430714396464483507e+00 2.531964919010597725e+02
1.400318720195757427e+00 -3.430714396464483951e+00 2.531990305577597837e+02
1.804359124295809469e+00 -3.430714396464487059e+00 2.532015692144597665e+02
-1.023923704004213064e+00 -3.026673992464517848e+00 2.531831321137597683e+02
-6.198833000043330044e-01 -3.026673992464500973e+00 2.531856707703597635e+02
-2.158428959043115214e-01 -3.026673992464501417e+00 2.531882094270597747e+02
1.881975080957763724e-01 -3.026673992464500529e+00 2.531907480837597859e+02
5.922379121958084580e-01 -3.026673992464500085e+00 2.531932867403597811e+02
9.962783161958280731e-01 -3.026673992464500085e+00 2.531958253970597639e+02
1.400318720195696587e+00 -3.026673992464498308e+00 2.531983640537597751e+02
1.804359124295783934e+00 -3.026673992464508967e+00 2.532009027103597703e+02
-1.023923704004269242e+00 -2.622633588464514443e+00 2.531824656096597721e+02
-6.198833000041888974e-01 -2.622633588464521548e+00 2.531850042663597833e+02
-2.158428959041885087e-01 -2.622633588464525545e+00 2.531875429230597661e+02
1.881975080957757340e-01 -2.622633588464535315e+00 2.531900815796597897e+02
5.922379121957432879e-01 -2.622633588464535759e+00 2.531926202363597724e+02
9.962783161956423328e-01 -2.622633588464536203e+00 2.531951588930597836e+02
1.400318720195689037e+00 -2.622633588464529097e+00 2.531976975496597788e+02
1.804359124295667582e+00 -2.622633588464528209e+00 2.532002362063597900e+02
-1.023923704004026325e+00 -2.218593184364514581e+00 2.531817991056597634e+02
-6.198833000040537833e-01 -2.218593184364518134e+00 2.531843377623597746e+02
-2.158428959042116013e-01 -2.218593184364531901e+00 2.531868764190597858e+02
1.881975080958212809e-01 -2.218593184364539006e+00 2.531894150756597810e+02
5.922379121956402592e-01 -2.218593184364535453e+00 2.531919537323597638e+02
9.962783161955601763e-01 -2.218593184364529680e+00 2.531944923890597750e+02
1.400318720195604216e+00 -2.218593184364519910e+00 2.531970310456597701e+02
1.804359124295605854e+00 -2.218593184364512361e+00 2.531995697023597813e+02
-1.427964108004231125e+00 -1.814552780364507845e+00 2.531785939449597720e+02
-1.023923704004189528e+00 -1.814552780364515838e+00 2.531811326016597832e+02
-6.198833000042132113e-01 -1.814552780364516504e+00 2.531836712583597659e+02
-2.158428959041567841e-01 -1.814552780364522055e+00 2.531862099149597896e+02
1.881975080956670432e-01 -1.814552780364522944e+00 2.531887485716597723e+02
5.922379121956351522e-01 -1.814552780364525830e+00 2.531912872283597835e+02
9.962783161956052513e-01 -1.814552780364529161e+00 2.531938258849597787e+02
1.400318720195697475e+00 -1.814552780364525608e+00 2.531963645416597899e+02
1.804359124295627170e+00 -1.814552780364512286e+00 2.531989031983597727e+02
2.208399528295672098e+00 -1.814552780364512063e+00 2.532014418549597679e+02
-6.198833000041878982e-01 -1.410512376264467793e+00 2.531830047542597697e+02
-2.158428959042402451e-01 -1.410512376264461354e+00 2.531855434109597809e+02
1.881975080958217805e-01 -1.410512376264457801e+00 2.531880820676597637e+02
5.922379121956664605e-01 -1.410512376264454470e+00 2.531906207242597873e+02
9.962783161956042521e-01 -1.410512376264455137e+00 2.531931593809597700e+02
1.400318720195389499e+00 -1.410512376264459133e+00 2.531956980376597812e+02
1.804359124295357164e+00 -1.410512376264457135e+00 2.531982366942597764e+02
2.208399528295486025e+00 -1.410512376264459133e+00 2.532007753509597876e+02
-6.198833000041149566e-01 -1.006471972264466164e+00 2.531823382502597894e+02
-2.158428959041154560e-01 -1.006471972264460835e+00 2.531848769069597722e+02
1.881975080958501190e-01 -1.006471972264461501e+00 2.531874155636597834e+02
5.922379121957982440e-01 -1.006471972264459280e+00 2.531899542202597786e+02
9.962783161956731970e-01 -1.006471972264456394e+00 2.531924928769597898e+02
1.400318720195440569e+00 -1.006471972264453063e+00 2.531950315336597725e+02
1.804359124295197070e+00 -1.006471972264448178e+00 2.531975701902597677e+02
2.208399528295166725e+00 -1.006471972264451065e+00 2.532001088469597789e+02
-6.198833000041604757e-01 -6.024315682644623138e-01 2.531816717462597808e+02
-2.158428959041254480e-01 -6.024315682644676428e-01 2.531842104029597635e+02
1.881975080958400437e-01 -6.024315682644670877e-01 2.531867490595597872e+02
5.922379121958400994e-01 -6.024315682644675318e-01 2.531892877162597699e+02
9.962783161956566547e-01 -6.024315682644627579e-01 2.531918263729597811e+02
1.400318720195510069e+00 -6.024315682644588721e-01 2.531943650295597763e+02
1.804359124295406458e+00 -6.024315682644549863e-01 2.531969036862597875e+02
-1.023923704004467972e+00 -1.983911641644647561e-01 2.531784665855597893e+02
-6.198833000042740515e-01 -1.983911641644669765e-01 2.531810052422597721e+02
-2.158428959041597539e-01 -1.983911641644692803e-01 2.531835438988597673e+02
1.881975080958402657e-01 -1.983911641644688362e-01 2.531860825555597785e+02
5.922379121958440962e-01 -1.983911641644671986e-01 2.531886212122597897e+02
9.962783161957041722e-01 -1.983911641644633406e-01 2.531911598688597849e+02
1.400318720195505851e+00 -1.983911641644592327e-01 2.531936985255597676e+02
1.804359124295545014e+00 -1.983911641644621193e-01 2.531962371822597788e+02
2.208399528295641456e+00 -1.983911641644620361e-01 2.531987758388597740e+02
-1.023923704004346735e+00 2.056492398355277695e-01 2.531778000815597807e+02
-6.198833000043640906e-01 2.056492398355304618e-01 2.531803387381597759e+02
-2.158428959043147410e-01 2.056492398355296847e-01 2.531828773948597870e+02
1.881975080957586921e-01 2.056492398355271034e-01 2.531854160515597698e+02
5.922379121958062376e-01 2.056492398355261042e-01 2.531879547081597650e+02
9.962783161957741163e-01 2.056492398355263818e-01 2.531904933648597762e+02
1.400318720195780520e+00 2.056492398355268258e-01 2.531930320215597874e+02
1.804359124295892292e+00 2.056492398355266038e-01 2.531955706782597701e+02
2.208399528295995395e+00 2.056492398355262430e-01 2.531981093348597653e+02
-1.023923704004336299e+00 6.096896439355307118e-01 2.531771335775597720e+02
-6.198833000044204899e-01 6.096896439355355968e-01 2.531796722341597672e+02
-2.158428959045757822e-01 6.096896439355389274e-01 2.531822108908597784e+02
1.881975080956225232e-01 6.096896439355339314e-01 2.531847495475597896e+02
5.922379121957435100e-01 6.096896439355290465e-01 2.531872882041597848e+02
9.962783161957740052e-01 6.096896439355281583e-01 2.531898268608597675e+02
1.400318720195888211e+00 6.096896439355244945e-01 2.531923655175597787e+02
1.804359124295709993e+00 6.096896439355256048e-01 2.531949041741597739e+02
2.208399528295838632e+00 6.096896439355236064e-01 2.531974428308597851e+02
-6.198833000045741448e-01 1.013730047935545553e+00 2.531790057301597869e+02
-2.158428959045911588e-01 1.013730047935543110e+00 2.531815443868597697e+02
1.881975080955836377e-01 1.013730047935536449e+00 2.531840830434597649e+02
5.922379121956353742e-01 1.013730047935535339e+00 2.531866217001597761e+02
9.962783161958228551e-01 1.013730047935532674e+00 2.531891603568597873e+02
1.400318720195904643e+00 1.013730047935533340e+00 2.531916990134597825e+02
1.804359124295907169e+00 1.013730047935532008e+00 2.531942376701597652e+02
-6.198833000042164310e-01 1.417770451935538079e+00 2.531783392261597783e+02
-2.158428959042891226e-01 1.417770451935534082e+00 2.531808778827597735e+02
1.881975080957949964e-01 1.417770451935530973e+00 2.531834165394597846e+02
5.922379121957712655e-01 1.417770451935530973e+00 2.531859551961597674e+02
9.962783161957543543e-01 1.417770451935528975e+00 2.531884938527597910e+02
1.400318720195706357e+00 1.417770451935536302e+00 2.531910325094597738e+02
1.804359124295648265e+00 1.417770451935537857e+00 2.531935711661597850e+02
-6.198833000042861530e-01 1.821810856035546156e+00 2.531776727221597696e+02
-2.158428959042723583e-01 1.821810856035538828e+00 2.531802113787597648e+02
1.881975080956863333e-01 1.821810856035542825e+00 2.531827500354597760e+02
5.922379121958361026e-01 1.821810856035548154e+00 2.531852886921597872e+02
9.962783161957929901e-01 1.821810856035551485e+00 2.531878273487597824e+02
1.400318720195781186e+00 1.821810856035561033e+00 2.531903660054597651e+02
1.804359124295844774e+00 1.821810856035552151e+00 2.531929046621597763e+02
-6.198833000039120078e-01 2.225851260035548229e+00 2.531770062180597733e+02
-2.158428959038512507e-01 2.225851260035540680e+00 2.531795448747597845e+02
1.881975080959354119e-01 2.225851260035546897e+00 2.531820835314597673e+02
5.922379121957732639e-01 2.225851260035552226e+00 2.531846221880597909e+02
9.962783161956276778e-01 2.225851260035547785e+00 2.531871608447597737e+02
1.400318720195535827e+00 2.225851260035561108e+00 2.531896995014597849e+02
1.804359124295639383e+00 2.225851260035560664e+00 2.531922381580597801e+02
-1.023923704004003232e+00 2.629891664135579177e+00 2.531738010573597819e+02
-6.198833000040998575e-01 2.629891664135577400e+00 2.531763397140597647e+02
-2.158428959041411854e-01 2.629891664135581397e+00 2.531788783707597759e+02
1.881975080957672963e-01 2.629891664135570295e+00 2.531814170273597711e+02
5.922379121957392911e-01 2.629891664135572071e+00 2.531839556840597822e+02
9.962783161958237432e-01 2.629891664135566298e+00 2.531864943407597650e+02
1.400318720195661726e+00 2.629891664135574292e+00 2.531890329973597886e+02
1.804359124295790373e+00 2.629891664135576512e+00 2.531915716540597714e+02
-1.023923704003886881e+00 3.033932068135555493e+00 2.531731345533597732e+02
-6.198833000038304064e-01 3.033932068135550608e+00 2.531756732100597844e+02
-2.158428959039745965e-01 3.033932068135549276e+00 2.531782118667597672e+02
1.881975080957588586e-01 3.033932068135547944e+00 2.531807505233597908e+02
5.922379121955696490e-01 3.033932068135545279e+00 2.531832891800597736e+02
9.962783161957010636e-01 3.033932068135545279e+00 2.531858278367597848e+02
1.400318720195634858e+00 3.033932068135539950e+00 2.531883664933597800e+02
1.804359124295731087e+00 3.033932068135547944e+00 2.531909051500597911e+02
2.208399528295840408e+00 3.033932068135549276e+00 2.531934438067597739e+02
-1.023923704004525481e+00 3.437972472135533586e+00 2.531724680493597646e+02
-6.198833000044524644e-01 3.437972472135534474e+00 2.531750067060597758e+02
-2.158428959043035000e-01 3.437972472135530033e+00 2.531775453626597709e+02
1.881975080958646629e-01 3.437972472135524704e+00 2.531800840193597821e+02
5.922379121959137072e-01 3.437972472135527813e+00 2.531826226760597649e+02
9.962783161959327671e-01 3.437972472135528257e+00 2.531851613326597885e+02
1.400318720195871336e+00 3.437972472135540247e+00 2.531876999893597713e+02
1.804359124295735750e+00 3.437972472135542468e+00 2.531902386460597825e+02
2.208399528295658332e+00 3.437972472135541135e+00 2.531927773026597777e+02
-1.023923704004323199e+00 3.842012876235465946e+00 2.531718015453597843e+02
-6.198833000042122121e-01 3.842012876235456176e+00 2.531743402019597795e+02
-2.158428959043053319e-01 3.842012876235442409e+00 2.531768788586597907e+02
1.881975080957266344e-01 3.842012876235444185e+00 2.531794175153597735e+02
5.922379121957929149e-01 3.842012876235446406e+00 2.531819561719597687e+02
9.962783161958023159e-01 3.842012876235437968e+00 2.531844948286597798e+02
1.400318720195649069e+00 3.842012876235441077e+00 2.531870334853597910e+02
1.804359124295649597e+00 3.842012876235418872e+00 2.531895721419597862e+02
2.208399528295818648e+00 3.842012876235422425e+00 2.531921107986597690e+02
-1.023923704004531032e+00 4.246053280235417837e+00 2.531711350412597881e+02
-6.198833000043921793e-01 4.246053280235408067e+00 2.531736736979597708e+02
-2.158428959042386075e-01 4.246053280235423166e+00 2.531762123546597820e+02
1.881975080959802371e-01 4.246053280235426719e+00 2.531787510112597772e+02
5.922379121960051895e-01 4.246053280235432936e+00 2.531812896679597884e+02
9.962783161960673262e-01 4.246053280235436489e+00 2.531838283246597712e+02
1.400318720195888877e+00 4.246053280235431160e+00 2.531863669813597824e+02
1.804359124295685346e+00 4.246053280235407179e+00 2.531889056379597776e+02
-1.023923704004293445e+00 4.650093684335471877e+00 2.531704685372597794e+02
-6.198833000043924013e-01 4.650093684335474542e+00 2.531730071939597906e+02
-2.158428959045525508e-01 4.650093684335484312e+00 2.531755458506597734e+02
1.881975080954566559e-01 4.650093684335458555e+00 2.531780845072597685e+02
5.922379121955674286e-01 4.650093684335444344e+00 2.531806231639597797e+02
9.962783161957231570e-01 4.650093684335456778e+00 2.531831618206597909e+02
1.400318720195790290e+00 4.650093684335431909e+00 2.531857004772597861e+02
1.804359124296033734e+00 4.650093684335428357e+00 2.531882391339597689e+02
-1.023923704004380486e+00 5.054134088335462849e+00 2.531698020332597707e+02
-6.198833000044702279e-01 5.054134088335457520e+00 2.531723406899597819e+02
-2.158428959043986184e-01 5.054134088335429986e+00 2.531748793465597771e+02
1.881975080957370150e-01 5.054134088335429098e+00 2.531774180032597883e+02
5.922379121957284109e-01 5.054134088335426434e+00 2.531799566599597711e+02
9.962783161958639333e-01 5.054134088335428210e+00 2.531824953165597663e+02
1.400318720195748323e+00 5.054134088335421993e+00 2.531850339732597774e+02
1.804359124295813244e+00 5.054134088335417552e+00 2.531875726299597886e+02
-1.023923704004575219e+00 5.458174492335431616e+00 2.531691355292597905e+02
-6.198833000045121944e-01 5.458174492335425398e+00 2.531716741858597857e+02
-2.158428959044549345e-01 5.458174492335412076e+00 2.531742128425597684e+02
1.881975080956299062e-01 5.458174492335424510e+00 2.531767514992597796e+02
5.922379121956633519e-01 5.458174492335411188e+00 2.531792901558597748e+02
9.962783161957164957e-01 5.458174492335416517e+00 2.531818288125597860e+02
1.400318720195771194e+00 5.458174492335407635e+00 2.531843674692597688e+02
1.804359124295787931e+00 5.458174492335390759e+00 2.531869061259597800e+02
2.208399528295998948e+00 5.458174492335387207e+00 2.531894447825597751e+02
-1.023923704004522817e+00 5.862214896435400391e+00 2.531684690252597818e+02
-6.198833000045320674e-01 5.862214896435387956e+00 2.531710076818597770e+02
-2.158428959044126350e-01 5.862214896435399503e+00 2.531735463385597882e+02
1.881975080956998503e-01 5.862214896435391509e+00 2.531760849952597709e+02
5.922379121956560244e-01 5.862214896435379075e+00 2.531786236518597661e+02
9.962783161956895173e-01 5.862214896435365752e+00 2.531811623085597773e+02
1.400318720195720346e+00 5.862214896435359535e+00 2.531837009652597885e+02
1.804359124295811023e+00 5.862214896435355982e+00 2.531862396218597837e+02
2.208399528295966974e+00 5.862214896435363087e+00 2.531887782785597665e+02
-1.023923704004374269e+00 6.266255300435379816e+00 2.531678025211597856e+02
-6.198833000043302288e-01 6.266255300435390474e+00 2.531703411778597683e+02
-2.158428959043343642e-01 6.266255300435389586e+00 2.531728798345597795e+02
1.881975080956997948e-01 6.266255300435393139e+00 2.531754184911597747e+02
5.922379121957463965e-01 6.266255300435378928e+00 2.531779571478597859e+02
9.962783161957544653e-01 6.266255300435364717e+00 2.531804958045597687e+02
1.400318720195674160e+00 6.266255300435370934e+00 2.531830344611597639e+02
1.804359124295619177e+00 6.266255300435381592e+00 2.531855731178597750e+02
2.208399528295863501e+00 6.266255300435386921e+00 2.531881117745597862e+02
2.612439932395960174e+00 6.266255300435379816e+00 2.531906504311597814e+02
-1.023923704004194857e+00 6.670295704535390335e+00 2.531671360171597769e+02
-6.198833000042163199e-01 6.670295704535392112e+00 2.531696746738597881e+02
-2.158428959042042461e-01 6.670295704535377901e+00 2.531722133304597833e+02
1.881975080958802615e-01 6.670295704535394776e+00 2.531747519871597660e+02
5.922379121956997672e-01 6.670295704535393000e+00 2.531772906438597772e+02
9.962783161956322298e-01 6.670295704535380565e+00 2.531798293004597724e+02
1.400318720195452116e+00 6.670295704535375236e+00 2.531823679571597836e+02
1.804359124295428218e+00 6.670295704535377013e+00 2.531849066138597664e+02
-1.023923704004164437e+00 7.074336108535431045e+00 2.531664695131597682e+02
-6.198833000041296115e-01 7.074336108535427492e+00 2.531690081698597794e+02
-2.158428959041078232e-01 7.074336108535423939e+00 2.531715468264597746e+02
1.881975080959038815e-01 7.074336108535414169e+00 2.531740854831597858e+02
5.922379121957319636e-01 7.074336108535391965e+00 2.531766241398597685e+02
9.962783161955729438e-01 7.074336108535391077e+00 2.531791627964597637e+02
1.400318720195340427e+00 7.074336108535391077e+00 2.531817014531597749e+02
1.804359124295410011e+00 7.074336108535385748e+00 2.531842401098597861e+02
-6.198833000040694374e-01 7.478376512535448661e+00 2.531683416657597832e+02
-2.158428959040590289e-01 7.478376512535451326e+00 2.531708803224597659e+02
1.881975080958785684e-01 7.478376512535452214e+00 2.531734189791597771e+02
5.922379121957601633e-01 7.478376512535430010e+00 2.531759576357597723e+02
9.962783161955461875e-01 7.478376512535443332e+00 2.531784962924597835e+02
1.400318720195456557e+00 7.478376512535436227e+00 2.531810349491597663e+02
1.804359124295540129e+00 7.478376512535439780e+00 2.531835736057597899e+02
-1.023923704004224833e+00 7.882416916635472504e+00 2.531651365050597633e+02
-6.198833000041062968e-01 7.882416916635472504e+00 2.531676751617597745e+02
-2.158428959041055750e-01 7.882416916635465398e+00 2.531702138184597857e+02
1.881975080958541158e-01 7.882416916635459181e+00 2.531727524750597809e+02
5.922379121957582759e-01 7.882416916635448523e+00 2.531752911317597636e+02
9.962783161957022848e-01 7.882416916635450299e+00 2.531778297884597748e+02
1.400318720195708133e+00 7.882416916635454740e+00 2.531803684450597700e+02
1.804359124295614958e+00 7.882416916635461845e+00 2.531829071017597812e+02
2.208399528295626357e+00 7.882416916635474280e+00 2.531854457584597640e+02
2.612439932395802966e+00 7.882416916635444082e+00 2.531879844150597876e+02
-1.023923704004234825e+00 8.286457320635467028e+00 2.531644700010597830e+02
-6.198833000042137664e-01 8.286457320635472357e+00 2.531670086577597658e+02
-2.158428959041394646e-01 8.286457320635459922e+00 2.531695473143597894e+02
1.881975080958041835e-01 8.286457320635442159e+00 2.531720859710597722e+02
5.922379121958017967e-01 8.286457320635465251e+00 2.531746246277597834e+02
9.962783161958366218e-01 8.286457320635463475e+00 2.531771632844597661e+02
1.400318720195838473e+00 8.286457320635467028e+00 2.531797019410597898e+02
1.804359124295800809e+00 8.286457320635474133e+00 2.531822405977597725e+02
2.208399528295855063e+00 8.286457320635470580e+00 2.531847792544597837e+02
-1.023923704004423119e+00 8.690497724735456231e+00 2.531638034970597744e+02
-6.198833000042827113e-01 8.690497724735473994e+00 2.531663421537597856e+02
-2.158428959042501538e-01 8.690497724735489982e+00 2.531688808103597808e+02
1.881975080957783986e-01 8.690497724735484653e+00 2.531714194670597635e+02
5.922379121958974979e-01 8.690497724735477547e+00 2.531739581237597747e+02
9.962783161959876121e-01 8.690497724735479323e+00 2.531764967803597699e+02
1.400318720195872446e+00 8.690497724735472218e+00 2.531790354370597811e+02
1.804359124295891181e+00 8.690497724735473994e+00 2.531815740937597639e+02
2.208399528295904801e+00 8.690497724735465113e+00 2.531841127503597875e+02
-1.023923704004424451e+00 9.094538128735470295e+00 2.531631369930597657e+02
-6.198833000042675012e-01 9.094538128735470295e+00 2.531656756496597893e+02
-2.158428959042413275e-01 9.094538128735443649e+00 2.531682143063597721e+02
1.881975080958895041e-01 9.094538128735450755e+00 2.531707529630597833e+02
5.922379121959674420e-01 9.094538128735443649e+00 2.531732916196597785e+02
9.962783161959555267e-01 9.094538128735456084e+00 2.531758302763597897e+02
1.400318720195929512e+00 9.094538128735436544e+00 2.531783689330597724e+02
1.804359124295920713e+00 9.094538128735417004e+00 2.531809075896597676e+02
-1.023923704004282120e+00 9.498578532735466595e+00 2.531624704889597695e+02
-6.198833000043243446e-01 9.498578532735479030e+00 2.531650091456597806e+02
-2.158428959042082984e-01 9.498578532735459490e+00 2.531675478023597634e+02
1.881975080957800084e-01 9.498578532735470148e+00 2.531700864589597870e+02
5.922379121958463166e-01 9.498578532735471924e+00 2.531726251156597698e+02
9.962783161958860267e-01 9.498578532735463043e+00 2.531751637723597810e+02
1.400318720195859568e+00 9.498578532735468372e+00 2.531777024290597637e+02
1.804359124295831673e+00 9.498578532735447055e+00 2.531802410856597874e+02
2.208399528295957204e+00 9.498578532735457713e+00 2.531827797423597701e+02
-1.023923704004321866e+00 9.902618936835477115e+00 2.531618039849597892e+02
-6.198833000042588415e-01 9.902618936835471786e+00 2.531643426416597720e+02
-2.158428959043570128e-01 9.902618936835484220e+00 2.531668812983597832e+02
1.881975080957226376e-01 9.902618936835484220e+00 2.531694199549597784e+02
5.922379121957562775e-01 9.902618936835468233e+00 2.531719586116597895e+02
9.962783161958086442e-01 9.902618936835461128e+00 2.531744972683597723e+02
1.400318720195803390e+00 9.902618936835473562e+00 2.531770359249597675e+02
1.804359124295836336e+00 9.902618936835464680e+00 2.531795745816597787e+02
2.208399528295946102e+00 9.902618936835462904e+00 2.531821132383597899e+02
2.612439932396091624e+00 9.902618936835462904e+00 2.531846518949597851e+02
-6.198833000042491825e-01 1.030665934083548052e+01 2.531636761376597633e+02
-2.158428959042101580e-01 1.030665934083547697e+01 2.531662147942597869e+02
1.881975080957700719e-01 1.030665934083546098e+01 2.531687534509597697e+02
5.922379121957813686e-01 1.030665934083545388e+01 2.531712921076597809e+02
9.962783161958080891e-01 1.030665934083546631e+01 2.531738307642597761e+02
1.400318720195751432e+00 1.030665934083543256e+01 2.531763694209597872e+02
1.804359124295841665e+00 1.030665934083543611e+01 2.531789080776597700e+02
2.208399528295946990e+00 1.030665934083545565e+01 2.531814467342597652e+02
-6.198833000042133223e-01 1.071069974493546617e+01 2.531630096335597671e+02
-2.158428959041975848e-01 1.071069974493548038e+01 2.531655482902597782e+02
1.881975080957687951e-01 1.071069974493547328e+01 2.531680869469597894e+02
5.922379121957674908e-01 1.071069974493548749e+01 2.531706256035597846e+02
9.962783161958622680e-01 1.071069974493548393e+01 2.531731642602597674e+02
1.400318720195836697e+00 1.071069974493548216e+01 2.531757029169597786e+02
1.804359124295701999e+00 1.071069974493547505e+01 2.531782415735597738e+02
2.208399528295921233e+00 1.071069974493547150e+01 2.531807802302597850e+02
-6.198833000042369701e-01 1.111474014893548912e+01 2.531623431295597868e+02
-2.158428959041873152e-01 1.111474014893548556e+01 2.531648817862597696e+02
1.881975080958027957e-01 1.111474014893547846e+01 2.531674204429597808e+02
5.922379121957412895e-01 1.111474014893551043e+01 2.531699590995597760e+02
9.962783161958365108e-01 1.111474014893550333e+01 2.531724977562597871e+02
1.400318720195780742e+00 1.111474014893548379e+01 2.531750364129597699e+02
1.804359124295748629e+00 1.111474014893548379e+01 2.531775750695597651e+02
2.208399528295933667e+00 1.111474014893547668e+01 2.531801137262597763e+02
-1.023923704004225277e+00 1.151878055303547654e+01 2.531591379688597669e+02
-6.198833000042192065e-01 1.151878055303548365e+01 2.531616766255597781e+02
-2.158428959042211770e-01 1.151878055303548010e+01 2.531642152822597893e+02
1.881975080957789259e-01 1.151878055303547832e+01 2.531667539388597845e+02
5.922379121957330739e-01 1.151878055303548543e+01 2.531692925955597673e+02
9.962783161958171929e-01 1.151878055303548187e+01 2.531718312522597785e+02
1.400318720195789846e+00 1.151878055303549786e+01 2.531743699088597737e+02
1.804359124295759731e+00 1.151878055303548010e+01 2.531769085655597848e+02
2.208399528295804437e+00 1.151878055303546411e+01 2.531794472222597676e+02
-1.023923704004316093e+00 1.192282095703548350e+01 2.531584714648597867e+02
-6.198833000042286434e-01 1.192282095703547107e+01 2.531610101215597695e+02
-2.158428959042557882e-01 1.192282095703550304e+01 2.531635487781597647e+02
1.881975080958611102e-01 1.192282095703551725e+01 2.531660874348597758e+02
5.922379121958599724e-01 1.192282095703550482e+01 2.531686260915597870e+02
9.962783161958068678e-01 1.192282095703552081e+01 2.531711647481597822e+02
1.400318720195753430e+00 1.192282095703551725e+01 2.531737034048597650e+02
1.804359124295756400e+00 1.192282095703551192e+01 2.531762420615597762e+02
-1.023923704004270796e+00 1.232686136103548158e+01 2.531578049608597780e+02
-6.198833000042324182e-01 1.232686136103550822e+01 2.531603436174597732e+02
-2.158428959042917317e-01 1.232686136103551888e+01 2.531628822741597844e+02
1.881975080958483149e-01 1.232686136103551355e+01 2.531654209308597672e+02
5.922379121958576409e-01 1.232686136103552776e+01 2.531679595875597784e+02
9.962783161957950995e-01 1.232686136103552954e+01 2.531704982441597735e+02
1.400318720195830036e+00 1.232686136103552421e+01 2.531730369008597847e+02
1.804359124295742411e+00 1.232686136103552244e+01 2.531755755575597675e+02
-1.427964108004306620e+00 1.273090176513549743e+01 2.531545998001597866e+02
-1.023923704004329194e+00 1.273090176513550809e+01 2.531571384568597693e+02
-6.198833000042334174e-01 1.273090176513549565e+01 2.531596771134597645e+02
-2.158428959042805739e-01 1.273090176513551519e+01 2.531622157701597757e+02
1.881975080957755952e-01 1.273090176513551341e+01 2.531647544268597869e+02
5.922379121957965786e-01 1.273090176513551697e+01 2.531672930834597821e+02
9.962783161958422840e-01 1.273090176513551164e+01 2.531698317401597649e+02
1.400318720195762312e+00 1.273090176513551341e+01 2.531723703968597761e+02
1.804359124295721983e+00 1.273090176513551519e+01 2.531749090534597713e+02
2.208399528295712955e+00 1.273090176513549920e+01 2.531774477101597824e+02
-1.023923704004283453e+00 1.313494216913550261e+01 2.531564719527597731e+02
-6.198833000042446306e-01 1.313494216913550083e+01 2.531590106094597843e+02
-2.158428959042901496e-01 1.313494216913550439e+01 2.531615492661597671e+02
1.881975080957755952e-01 1.313494216913551327e+01 2.531640879227597907e+02
5.922379121957868087e-01 1.313494216913550794e+01 2.531666265794597734e+02
9.962783161958319589e-01 1.313494216913550794e+01 2.531691652361597846e+02
1.400318720195796285e+00 1.313494216913551860e+01 2.531717038927597798e+02
1.804359124295745298e+00 1.313494216913549550e+01 2.531742425494597910e+02
2.208399528295713399e+00 1.313494216913549373e+01 2.531767812061597738e+02
-1.427964108004427635e+00 1.353898257323550069e+01 2.531532667920597817e+02
1.881975080957764834e-01 1.353898257323550425e+01 2.531634214187597820e+02
5.922379121957653814e-01 1.353898257323550780e+01 2.531659600754597648e+02
9.962783161957974309e-01 1.353898257323550958e+01 2.531684987321597760e+02
1.400318720195795397e+00 1.353898257323552734e+01 2.531710373887597711e+02
1.804359124295811467e+00 1.353898257323549892e+01 2.531735760454597823e+02
2.612439932395794528e+00 1.353898257323549537e+01 2.531786533587597887e+02
