-1.030206746687926334e+00 -1.231795372271194822e+01 2.541984406071960052e+02
9.899952735123638270e-01 -1.231795372271196953e+01 2.542111338904960576e+02
1.394035677512407867e+00 -1.231795372271197309e+01 2.542136725471960403e+02
-1.030206746687892361e+00 -1.191391331871194303e+01 2.541977741031960250e+02
-6.261663426879170435e-01 -1.191391331871194481e+01 2.542003127597960201e+02
-2.221259385877926706e-01 -1.191391331871196968e+01 2.542028514164960313e+02
1.819144654121765681e-01 -1.191391331871197323e+01 2.542053900731960141e+02
5.859548695123472095e-01 -1.191391331871196080e+01 2.542079287297960377e+02
9.899952735122972136e-01 -1.191391331871196080e+01 2.542104673864960205e+02
1.394035677512363902e+00 -1.191391331871197146e+01 2.542130060431960601e+02
1.798076081612315580e+00 -1.191391331871195725e+01 2.542155446997960553e+02
2.202116485612396701e+00 -1.191391331871195369e+01 2.542180833564960380e+02
-1.030206746687859498e+00 -1.150987291471192719e+01 2.541971075991960163e+02
-6.261663426879033878e-01 -1.150987291471192542e+01 2.541996462557960115e+02
-2.221259385879031378e-01 -1.150987291471192897e+01 2.542021849124960227e+02
1.819144654122483440e-01 -1.150987291471194141e+01 2.542047235691960054e+02
5.859548695123465434e-01 -1.150987291471195384e+01 2.542072622257960575e+02
9.899952735122958813e-01 -1.150987291471194851e+01 2.542098008824960402e+02
1.394035677512279747e+00 -1.150987291471194318e+01 2.542123395391960230e+02
1.798076081612312915e+00 -1.150987291471193075e+01 2.542148781957960182e+02
-1.030206746687765795e+00 -1.110583251061195575e+01 2.541964410950960200e+02
-6.261663426877979166e-01 -1.110583251061192023e+01 2.541989797517960312e+02
-2.221259385877954740e-01 -1.110583251061194332e+01 2.542015184084960140e+02
1.819144654122795135e-01 -1.110583251061194154e+01 2.542040570650960092e+02
5.859548695122698270e-01 -1.110583251061193799e+01 2.542065957217960204e+02
9.899952735122647951e-01 -1.110583251061194687e+01 2.542091343784960316e+02
1.394035677512323268e+00 -1.110583251061193799e+01 2.542116730350960552e+02
1.798076081612261401e+00 -1.110583251061191490e+01 2.542142116917960095e+02
-1.030206746687730490e+00 -1.070179210661199676e+01 2.541957745910960398e+02
-6.261663426877929206e-01 -1.070179210661196834e+01 2.541983132477960226e+02
-2.221259385877976111e-01 -1.070179210661192215e+01 2.542008519043960177e+02
1.819144654122781812e-01 -1.070179210661192748e+01 2.542033905610960574e+02
5.859548695122407391e-01 -1.070179210661195768e+01 2.542059292177960117e+02
9.899952735122958813e-01 -1.070179210661194880e+01 2.542084678743960353e+02
1.394035677512248661e+00 -1.070179210661194347e+01 2.542110065310960181e+02
1.798076081612233867e+00 -1.070179210661195057e+01 2.542135451877960293e+02
-6.261663426877146499e-01 -1.029775170251199690e+01 2.541976467436960547e+02
-2.221259385878082693e-01 -1.029775170251197025e+01 2.542001854003960091e+02
1.819144654122048510e-01 -1.029775170251194716e+01 2.542027240570960203e+02
5.859548695122472894e-01 -1.029775170251196492e+01 2.542052627137960314e+02
9.899952735122979908e-01 -1.029775170251196847e+01 2.542078013703960551e+02
1.394035677512298843e+00 -1.029775170251197736e+01 2.542103400270960378e+02
1.798076081612203891e+00 -1.029775170251199690e+01 2.542128786837960206e+02
2.202116485612223507e+00 -1.029775170251199867e+01 2.542154173403960158e+02
-6.261663426876992178e-01 -9.893711298511997043e+00 2.541969802396960176e+02
-2.221259385878218140e-01 -9.893711298511991714e+00 2.541995188963960288e+02
1.819144654121940541e-01 -9.893711298511993490e+00 2.542020575530960116e+02
5.859548695122641648e-01 -9.893711298511977503e+00 2.542045962096960068e+02
9.899952735121961833e-01 -9.893711298512013030e+00 2.542071348663960180e+02
1.394035677512319271e+00 -9.893711298512023689e+00 2.542096735230960576e+02
1.798076081612235644e+00 -9.893711298512004149e+00 2.542122121796960528e+02
2.202116485612259034e+00 -9.893711298512018359e+00 2.542147508363960355e+02
-1.030206746687821084e+00 -9.489670894411998958e+00 2.541937750789960262e+02
-6.261663426876564742e-01 -9.489670894411986524e+00 2.541963137356960374e+02
-2.221259385877732417e-01 -9.489670894411975866e+00 2.541988523923960202e+02
1.819144654122720750e-01 -9.489670894411961655e+00 2.542013910489960153e+02
5.859548695123537598e-01 -9.489670894411966984e+00 2.542039297056960550e+02
9.899952735122992120e-01 -9.489670894411982971e+00 2.542064683623960377e+02
1.394035677512282412e+00 -9.489670894412004287e+00 2.542090070189960329e+02
1.798076081612310029e+00 -9.489670894411993629e+00 2.542115456756960157e+02
2.202116485612391816e+00 -9.489670894411974089e+00 2.542140843323960553e+02
-1.030206746687901909e+00 -9.085630490412004434e+00 2.541931085749960175e+02
-6.261663426877832617e-01 -9.085630490411970683e+00 2.541956472316960287e+02
-2.221259385877032977e-01 -9.085630490411924498e+00 2.541981858882960523e+02
1.819144654122770710e-01 -9.085630490411917393e+00 2.542007245449960067e+02
5.859548695122713813e-01 -9.085630490411954696e+00 2.542032632016960179e+02
9.899952735123775938e-01 -9.085630490411952920e+00 2.542058018583960575e+02
1.394035677512389659e+00 -9.085630490411979565e+00 2.542083405149960527e+02
1.798076081612439259e+00 -9.085630490411974236e+00 2.542108791716960354e+02
2.202116485612470420e+00 -9.085630490412006210e+00 2.542134178283960466e+02
-1.030206746687869046e+00 -8.681590086412018792e+00 2.541924420709960089e+02
-6.261663426880118566e-01 -8.681590086412001028e+00 2.541949807276960200e+02
-2.221259385879684467e-01 -8.681590086411993923e+00 2.541975193842960152e+02
1.819144654122521465e-01 -8.681590086412011686e+00 2.542000580409960548e+02
5.859548695124195961e-01 -8.681590086412025897e+00 2.542025966976960376e+02
9.899952735125913117e-01 -8.681590086412025897e+00 2.542051353542960612e+02
1.394035677512700300e+00 -8.681590086412052543e+00 2.542076740109960440e+02
1.798076081612641541e+00 -8.681590086412025897e+00 2.542102126676960552e+02
-1.030206746688001829e+00 -8.277549682312004720e+00 2.541917755669960286e+02
-6.261663426879505723e-01 -8.277549682312017154e+00 2.541943142235960238e+02
-2.221259385878358583e-01 -8.277549682312006496e+00 2.541968528802960066e+02
1.819144654123468763e-01 -8.277549682312018930e+00 2.541993915369960177e+02
5.859548695126006734e-01 -8.277549682312024260e+00 2.542019301935960414e+02
9.899952735126668069e-01 -8.277549682312027812e+00 2.542044688502960526e+02
1.394035677512663662e+00 -8.277549682312031365e+00 2.542070075069960353e+02
1.798076081612761890e+00 -8.277549682312013601e+00 2.542095461635960589e+02
-1.030206746687820196e+00 -7.873509278312067927e+00 2.541911090628960324e+02
-6.261663426877501770e-01 -7.873509278312050164e+00 2.541936477195960151e+02
-2.221259385877076553e-01 -7.873509278312034176e+00 2.541961863762960547e+02
1.819144654123278082e-01 -7.873509278312016413e+00 2.541987250328960499e+02
5.859548695123661943e-01 -7.873509278311995097e+00 2.542012636895960611e+02
9.899952735125149283e-01 -7.873509278312011084e+00 2.542038023462960439e+02
1.394035677512623028e+00 -7.873509278312031512e+00 2.542063410028960391e+02
1.798076081612537402e+00 -7.873509278312045723e+00 2.542088796595960503e+02
-1.030206746687596375e+00 -7.469468874212024545e+00 2.541904425588960521e+02
-6.261663426879258143e-01 -7.469468874212012999e+00 2.541929812155960065e+02
-2.221259385878840975e-01 -7.469468874212023657e+00 2.541955198722960176e+02
1.819144654121771787e-01 -7.469468874212012999e+00 2.541980585288960128e+02
5.859548695122259732e-01 -7.469468874211999676e+00 2.542005971855960240e+02
9.899952735122822256e-01 -7.469468874211999676e+00 2.542031358422960352e+02
1.394035677512467153e+00 -7.469468874212035203e+00 2.542056744988960588e+02
1.798076081612597132e+00 -7.469468874212020992e+00 2.542082131555960416e+02
-1.030206746687690744e+00 -7.065428470211988277e+00 2.541897760548960150e+02
-6.261663426877982497e-01 -7.065428470211976730e+00 2.541923147115960262e+02
-2.221259385878734116e-01 -7.065428470211975842e+00 2.541948533681960214e+02
1.819144654120811722e-01 -7.065428470211963408e+00 2.541973920248960326e+02
5.859548695121328254e-01 -7.065428470211977618e+00 2.541999306815960153e+02
9.899952735122033998e-01 -7.065428470211964296e+00 2.542024693381960105e+02
1.394035677512525329e+00 -7.065428470211961631e+00 2.542050079948960501e+02
1.798076081612764554e+00 -7.065428470211978507e+00 2.542075466515960613e+02
2.202116485612643615e+00 -7.065428470211984724e+00 2.542100853081960565e+02
-6.261663426877518424e-01 -6.661388066211973324e+00 2.541916482074960300e+02
-2.221259385878762427e-01 -6.661388066211949344e+00 2.541941868641960127e+02
1.819144654121396809e-01 -6.661388066211952008e+00 2.541967255208960239e+02
5.859548695123267814e-01 -6.661388066211947567e+00 2.541992641774960475e+02
9.899952735123682679e-01 -6.661388066211953785e+00 2.542018028341960303e+02
1.394035677512557747e+00 -6.661388066211975989e+00 2.542043414908960415e+02
1.798076081612664412e+00 -6.661388066211977765e+00 2.542068801474960367e+02
2.202116485612413577e+00 -6.661388066211967107e+00 2.542094188041960479e+02
-6.261663426876761251e-01 -6.257347662111979680e+00 2.541909817034960497e+02
-2.221259385877718817e-01 -6.257347662111929054e+00 2.541935203601960325e+02
1.819144654123064642e-01 -6.257347662111900632e+00 2.541960590168960152e+02
5.859548695123715234e-01 -6.257347662111894415e+00 2.541985976734960104e+02
9.899952735123185299e-01 -6.257347662111898856e+00 2.542011363301960500e+02
1.394035677512437843e+00 -6.257347662111934383e+00 2.542036749868960612e+02
1.798076081612500321e+00 -6.257347662111961917e+00 2.542062136434960564e+02
-1.030206746687615249e+00 -5.853307258111990485e+00 2.541877765427960583e+02
-6.261663426876928895e-01 -5.853307258111965616e+00 2.541903151994960126e+02
-2.221259385876544479e-01 -5.853307258111945188e+00 2.541928538561960522e+02
1.819144654124924265e-01 -5.853307258111944300e+00 2.541953925127960474e+02
5.859548695125574858e-01 -5.853307258111938083e+00 2.541979311694960586e+02
9.899952735124943892e-01 -5.853307258111901668e+00 2.542004698261960414e+02
1.394035677512421634e+00 -5.853307258111926537e+00 2.542030084827960366e+02
1.798076081612391741e+00 -5.853307258111938971e+00 2.542055471394960477e+02
-1.030206746687687192e+00 -5.449266854012022598e+00 2.541871100387960496e+02
-6.261663426875980765e-01 -5.449266854012006611e+00 2.541896486954960608e+02
-2.221259385873510239e-01 -5.449266854012005723e+00 2.541921873520960560e+02
1.819144654125725569e-01 -5.449266854011993289e+00 2.541947260087960387e+02
5.859548695124571216e-01 -5.449266854011996841e+00 2.541972646654960499e+02
9.899952735124883940e-01 -5.449266854011997729e+00 2.541998033220960451e+02
1.394035677512351246e+00 -5.449266854012001282e+00 2.542023419787960563e+02
1.798076081612332899e+00 -5.449266854012005723e+00 2.542048806354960107e+02
2.202116485612262586e+00 -5.449266854012019046e+00 2.542074192920960058e+02
-1.030206746687687858e+00 -5.045226450012016528e+00 2.541864435347960125e+02
-6.261663426875812011e-01 -5.045226450012019193e+00 2.541889821913960361e+02
-2.221259385874989889e-01 -5.045226450011995212e+00 2.541915208480960473e+02
1.819144654124822125e-01 -5.045226450011996988e+00 2.541940595047960585e+02
5.859548695124056072e-01 -5.045226450011982777e+00 2.541965981614960413e+02
9.899952735123995762e-01 -5.045226450011982777e+00 2.541991368180960364e+02
1.394035677512441840e+00 -5.045226450011999653e+00 2.542016754747960476e+02
1.798076081612475896e+00 -5.045226450012028074e+00 2.542042141314960588e+02
2.202116485612346519e+00 -5.045226450012045838e+00 2.542067527880960256e+02
-1.030206746687797770e+00 -4.641186046011982924e+00 2.541857770307960322e+02
-6.261663426878207872e-01 -4.641186046012001576e+00 2.541883156873960274e+02
-2.221259385877249470e-01 -4.641186046011958055e+00 2.541908543440960102e+02
1.819144654123474036e-01 -4.641186046011963384e+00 2.541933930007960498e+02
5.859548695123748541e-01 -4.641186046011986477e+00 2.541959316573960450e+02
9.899952735125971959e-01 -4.641186046011988253e+00 2.541984703140960562e+02
1.394035677512690086e+00 -4.641186046012011346e+00 2.542010089707960390e+02
1.798076081612586474e+00 -4.641186046012037991e+00 2.542035476273960342e+02
-6.261663426878892880e-01 -4.237145641911973293e+00 2.541876491833960188e+02
-2.221259385880311188e-01 -4.237145641912023031e+00 2.541901878400960300e+02
1.819144654122485938e-01 -4.237145641912035465e+00 2.541927264966960252e+02
5.859548695124638940e-01 -4.237145641912063887e+00 2.541952651533960363e+02
9.899952735126718029e-01 -4.237145641912075433e+00 2.541978038100960475e+02
1.394035677512623028e+00 -4.237145641912057670e+00 2.542003424666960427e+02
1.798076081612543842e+00 -4.237145641912077210e+00 2.542028811233960539e+02
-6.261663426880027528e-01 -3.833105237911962337e+00 2.541869826793960101e+02
-2.221259385881228510e-01 -3.833105237911953012e+00 2.541895213359960053e+02
1.819144654118932947e-01 -3.833105237911958341e+00 2.541920599926960165e+02
5.859548695121569173e-01 -3.833105237911968111e+00 2.541945986493960277e+02
9.899952735123802583e-01 -3.833105237911978769e+00 2.541971373059960229e+02
1.394035677512349469e+00 -3.833105237911984542e+00 2.541996759626960056e+02
1.798076081612372201e+00 -3.833105237911986762e+00 2.542022146193960452e+02
-6.261663426882386752e-01 -3.429064833811980240e+00 2.541863161753960298e+02
-2.221259385883738169e-01 -3.429064833811974466e+00 2.541888548319960250e+02
1.819144654117136883e-01 -3.429064833811977131e+00 2.541913934886960078e+02
5.859548695118513839e-01 -3.429064833811979351e+00 2.541939321453960190e+02
9.899952735120266523e-01 -3.429064833811976243e+00 2.541964708019960142e+02
1.394035677512010851e+00 -3.429064833811976687e+00 2.541990094586960254e+02
1.798076081612086430e+00 -3.429064833811980684e+00 2.542015481153960081e+02
-1.030206746687946318e+00 -3.025024429812025684e+00 2.541831110146960100e+02
-6.261663426881207695e-01 -3.025024429812001259e+00 2.541856496712960052e+02
-2.221259385880894888e-01 -3.025024429812002147e+00 2.541881883279960164e+02
1.819144654120383453e-01 -3.025024429812000815e+00 2.541907269846960276e+02
5.859548695120850859e-01 -3.025024429812000371e+00 2.541932656412960227e+02
9.899952735121135827e-01 -3.025024429812000371e+00 2.541958042979960055e+02
1.394035677511922255e+00 -3.025024429811997706e+00 2.541983429546960167e+02
1.798076081612049126e+00 -3.025024429812013249e+00 2.542008816112960119e+02
-1.030206746688028030e+00 -2.620984025812020946e+00 2.541824445105960137e+02
-6.261663426879111594e-01 -2.620984025812031604e+00 2.541849831672960249e+02
-2.221259385879105763e-01 -2.620984025812037377e+00 2.541875218239960077e+02
1.819144654120374016e-01 -2.620984025812051144e+00 2.541900604805960313e+02
5.859548695119902728e-01 -2.620984025812052032e+00 2.541925991372960141e+02
9.899952735118433544e-01 -2.620984025812052476e+00 2.541951377939960253e+02
1.394035677511911375e+00 -2.620984025812042262e+00 2.541976764505960205e+02
1.798076081611880150e+00 -2.620984025812040930e+00 2.542002151072960316e+02
-1.030206746687674535e+00 -2.216943621712021084e+00 2.541817780065960051e+02
-6.261663426877146499e-01 -2.216943621712026413e+00 2.541843166632960447e+02
-2.221259385879441606e-01 -2.216943621712046397e+00 2.541868553199960274e+02
1.819144654121036542e-01 -2.216943621712056611e+00 2.541893939765960226e+02
5.859548695118403927e-01 -2.216943621712051726e+00 2.541919326332960054e+02
9.899952735117238944e-01 -2.216943621712042845e+00 2.541944712899960166e+02
1.394035677511787918e+00 -2.216943621712028634e+00 2.541970099465960118e+02
1.798076081611790222e+00 -2.216943621712017531e+00 2.541995486032960230e+02
-1.030206746687912123e+00 -1.812903217712022785e+00 2.541811115025960248e+02
-6.261663426879464645e-01 -1.812903217712024118e+00 2.541836501592960076e+02
-2.221259385878643910e-01 -1.812903217712032111e+00 2.541861888158960312e+02
1.819144654118793336e-01 -1.812903217712033443e+00 2.541887274725960140e+02
5.859548695118330652e-01 -1.812903217712037440e+00 2.541912661292960252e+02
9.899952735117895086e-01 -1.812903217712042547e+00 2.541938047858960203e+02
1.394035677511923588e+00 -1.812903217712037218e+00 2.541963434425960315e+02
1.798076081611821309e+00 -1.812903217712017900e+00 2.541988820992960143e+02
-6.261663426879097161e-01 -1.408862813611953202e+00 2.541829836551960113e+02
-2.221259385879857939e-01 -1.408862813611943876e+00 2.541855223118960225e+02
1.819144654121044036e-01 -1.408862813611938547e+00 2.541880609685960053e+02
5.859548695118785844e-01 -1.408862813611933884e+00 2.541905996251960289e+02
9.899952735117879543e-01 -1.408862813611934772e+00 2.541931382818960117e+02
1.394035677511475502e+00 -1.408862813611940545e+00 2.541956769385960229e+02
1.798076081611428512e+00 -1.408862813611937659e+00 2.541982155951960181e+02
2.202116485611615992e+00 -1.408862813611940545e+00 2.542007542518960292e+02
-6.261663426878035787e-01 -1.004822409611950684e+00 2.541823171511960311e+02
-2.221259385878043002e-01 -1.004822409611943135e+00 2.541848558078960139e+02
1.819144654121456206e-01 -1.004822409611944023e+00 2.541873944645960250e+02
5.859548695120700978e-01 -1.004822409611940692e+00 2.541899331211960202e+02
9.899952735118882075e-01 -1.004822409611936473e+00 2.541924717778960314e+02
1.394035677511549887e+00 -1.004822409611931588e+00 2.541950104345960142e+02
1.798076081611195809e+00 -1.004822409611924705e+00 2.541975490911960094e+02
2.202116485611151919e+00 -1.004822409611928924e+00 2.542000877478960206e+02
-6.261663426878697480e-01 -6.007820056119451690e-01 2.541816506471960224e+02
-2.221259385878188441e-01 -6.007820056119529406e-01 2.541841893038960052e+02
1.819144654121309657e-01 -6.007820056119521634e-01 2.541867279604960288e+02
5.859548695121310491e-01 -6.007820056119528296e-01 2.541892666171960116e+02
9.899952735118642266e-01 -6.007820056119458352e-01 2.541918052738960228e+02
1.394035677511650917e+00 -6.007820056119402841e-01 2.541943439304960179e+02
1.798076081611500232e+00 -6.007820056119345109e-01 2.541968825871960291e+02
-1.030206746688317132e+00 -1.967416015119487216e-01 2.541784454864960310e+02
-6.261663426880349492e-01 -1.967416015119519690e-01 2.541809841431960137e+02
-2.221259385878687209e-01 -1.967416015119552997e-01 2.541835227997960089e+02
1.819144654121312987e-01 -1.967416015119546613e-01 2.541860614564960201e+02
5.859548695121369333e-01 -1.967416015119522743e-01 2.541886001131960313e+02
9.899952735119332825e-01 -1.967416015119466399e-01 2.541911387697960265e+02
1.394035677511644922e+00 -1.967416015119407280e-01 2.541936774264960093e+02
1.798076081611701627e+00 -1.967416015119448913e-01 2.541962160831960205e+02
-1.030206746688140607e+00 2.072988024880403901e-01 2.541777789824960223e+02
-6.261663426881659555e-01 2.072988024880443036e-01 2.541803176390960175e+02
-2.221259385880941795e-01 2.072988024880431657e-01 2.541828562957960287e+02
1.819144654120126436e-01 2.072988024880394187e-01 2.541853949524960115e+02
5.859548695120817552e-01 2.072988024880379754e-01 2.541879336090960066e+02
9.899952735120350900e-01 2.072988024880383640e-01 2.541904722657960178e+02
1.394035677512044380e+00 2.072988024880390023e-01 2.541930109224960290e+02
1.798076081612207000e+00 2.072988024880386970e-01 2.541955495791960118e+02
2.202116485612356733e+00 2.072988024880381697e-01 2.541980882357960354e+02
-1.030206746688125508e+00 6.113392065880447479e-01 2.541771124784960136e+02
-6.261663426882480010e-01 6.113392065880517423e-01 2.541796511350960088e+02
-2.221259385884738757e-01 6.113392065880565163e-01 2.541821897917960200e+02
1.819144654118146076e-01 6.113392065880492998e-01 2.541847284484960312e+02
5.859548695119906059e-01 6.113392065880421944e-01 2.541872671050960264e+02
9.899952735120347569e-01 6.113392065880408621e-01 2.541898057617960092e+02
1.394035677512201143e+00 6.113392065880356441e-01 2.541923444184960204e+02
1.798076081611941657e+00 6.113392065880371984e-01 2.541948830750960155e+02
2.202116485612128916e+00 6.113392065880344228e-01 2.541974217317960267e+02
-6.261663426884714889e-01 1.015379610588066361e+00 2.541789846310960286e+02
-2.221259385884962190e-01 1.015379610588062587e+00 2.541815232877960113e+02
1.819144654117580140e-01 1.015379610588053039e+00 2.541840619443960065e+02
5.859548695118332873e-01 1.015379610588051262e+00 2.541866006010960177e+02
9.899952735121059222e-01 1.015379610588047488e+00 2.541891392577960289e+02
1.394035677512224902e+00 1.015379610588048376e+00 2.541916779143960241e+02
1.798076081612228538e+00 1.015379610588046599e+00 2.541942165710960069e+02
-6.261663426879512384e-01 1.419420014588055334e+00 2.541783181270960199e+02
-2.221259385880569037e-01 1.419420014588049561e+00 2.541808567836960151e+02
1.819144654120654347e-01 1.419420014588044898e+00 2.541833954403960263e+02
5.859548695120309070e-01 1.419420014588045120e+00 2.541859340970960091e+02
9.899952735120062242e-01 1.419420014588042012e+00 2.541884727536960327e+02
1.394035677511936688e+00 1.419420014588052892e+00 2.541910114103960154e+02
1.798076081611851951e+00 1.419420014588055112e+00 2.541935500670960266e+02
-6.261663426880524908e-01 1.823460418688067186e+00 2.541776516230960112e+02
-2.221259385880325066e-01 1.823460418688056528e+00 2.541801902796960064e+02
1.819144654119073667e-01 1.823460418688062301e+00 2.541827289363960176e+02
5.859548695121252759e-01 1.823460418688069851e+00 2.541852675930960288e+02
9.899952735120625125e-01 1.823460418688074958e+00 2.541878062496960240e+02
1.394035677512045268e+00 1.823460418688088946e+00 2.541903449063960068e+02
1.798076081612137722e+00 1.823460418688075846e+00 2.541928835630960180e+02
-6.261663426875084815e-01 2.227500822688070148e+00 2.541769851189960434e+02
-2.221259385874199688e-01 2.227500822688059490e+00 2.541795237756960546e+02
1.819144654122696880e-01 2.227500822688068371e+00 2.541820624323960089e+02
5.859548695120339046e-01 2.227500822688075921e+00 2.541846010889960326e+02
9.899952735118221492e-01 2.227500822688069704e+00 2.541871397456960153e+02
1.394035677511688665e+00 2.227500822688088800e+00 2.541896784023960265e+02
1.798076081611839072e+00 2.227500822688087911e+00 2.541922170589960217e+02
-1.030206746687641006e+00 2.631541226788115306e+00 2.541737799582960520e+02
-6.261663426877815963e-01 2.631541226788112642e+00 2.541763186149960063e+02
-2.221259385878417147e-01 2.631541226788118859e+00 2.541788572716960175e+02
1.819144654120251337e-01 2.631541226788101984e+00 2.541813959282960127e+02
5.859548695119843886e-01 2.631541226788105092e+00 2.541839345849960239e+02
9.899952735121071434e-01 2.631541226788096655e+00 2.541864732416960067e+02
1.394035677511871407e+00 2.631541226788108201e+00 2.541890118982960303e+02
1.798076081612058674e+00 2.631541226788111310e+00 2.541915505549960130e+02
-1.030206746687471586e+00 3.035581630788080965e+00 2.541731134542960433e+02
-6.261663426873897986e-01 3.035581630788073859e+00 2.541756521109960545e+02
-2.221259385875994363e-01 3.035581630788071639e+00 2.541781907676960373e+02
1.819144654120128934e-01 3.035581630788069862e+00 2.541807294242960324e+02
5.859548695117376971e-01 3.035581630788065866e+00 2.541832680809960152e+02
9.899952735119287306e-01 3.035581630788065866e+00 2.541858067376960264e+02
1.394035677511832549e+00 3.035581630788057872e+00 2.541883453942960216e+02
1.798076081611972299e+00 3.035581630788069862e+00 2.541908840509960328e+02
2.202116485612131580e+00 3.035581630788071639e+00 2.541934227076960156e+02
-1.030206746688400621e+00 3.439622034788048843e+00 2.541724469502960062e+02
-6.261663426882945194e-01 3.439622034788050176e+00 2.541749856069960174e+02
-2.221259385880778037e-01 3.439622034788043514e+00 2.541775242635960126e+02
1.819144654121667981e-01 3.439622034788035965e+00 2.541800629202960238e+02
5.859548695122380746e-01 3.439622034788040406e+00 2.541826015769960065e+02
9.899952735122657943e-01 3.439622034788041294e+00 2.541851402335960302e+02
1.394035677512176497e+00 3.439622034788058169e+00 2.541876788902960129e+02
1.798076081611979182e+00 3.439622034788062166e+00 2.541902175469960241e+02
2.202116485611866459e+00 3.439622034788059501e+00 2.541927562035960193e+02
-1.030206746688106412e+00 3.843662438887950117e+00 2.541717804462960260e+02
-6.261663426879451322e-01 3.843662438887936350e+00 2.541743191028960211e+02
-2.221259385880804682e-01 3.843662438887916366e+00 2.541768577595960323e+02
1.819144654119659865e-01 3.843662438887919031e+00 2.541793964162960151e+02
5.859548695120624373e-01 3.843662438887922139e+00 2.541819350728960103e+02
9.899952735120760572e-01 3.843662438887910149e+00 2.541844737295960215e+02
1.394035677511853422e+00 3.843662438887914146e+00 2.541870123862960327e+02
1.798076081611853949e+00 3.843662438887882171e+00 2.541895510428960279e+02
2.202116485612100050e+00 3.843662438887887056e+00 2.541920896995960106e+02
-6.261663426882067007e-01 4.247702842887866481e+00 2.541736525988960125e+02
-2.221259385879834070e-01 4.247702842887887797e+00 2.541761912555960237e+02
1.819144654123348859e-01 4.247702842887894015e+00 2.541787299121960473e+02
5.859548695123711903e-01 4.247702842887902897e+00 2.541812685688960585e+02
9.899952735124615266e-01 4.247702842887908226e+00 2.541838072255960412e+02
1.394035677512202254e+00 4.247702842887900232e+00 2.541863458822960240e+02
1.798076081611905908e+00 4.247702842887865593e+00 2.541888845388960192e+02
-6.261663426882071448e-01 4.651743246987963154e+00 2.541729860948960322e+02
-2.221259385884400694e-01 4.651743246987976477e+00 2.541755247515960150e+02
1.819144654115733006e-01 4.651743246987939173e+00 2.541780634081960102e+02
5.859548695117344774e-01 4.651743246987918745e+00 2.541806020648960214e+02
9.899952735119609271e-01 4.651743246987936509e+00 2.541831407215960326e+02
1.394035677512058591e+00 4.651743246987900093e+00 2.541856793781960278e+02
1.798076081612412613e+00 4.651743246987895652e+00 2.541882180348960389e+02
-6.261663426883203876e-01 5.055783650987938138e+00 2.541723195908960236e+02
-2.221259385882161930e-01 5.055783650987898170e+00 2.541748582474960187e+02
1.819144654119811133e-01 5.055783650987896394e+00 2.541773969041960299e+02
5.859548695119686235e-01 5.055783650987892841e+00 2.541799355608960127e+02
9.899952735121656522e-01 5.055783650987895506e+00 2.541824742174960079e+02
1.394035677511997751e+00 5.055783650987886624e+00 2.541850128741960191e+02
1.798076081612091759e+00 5.055783650987880407e+00 2.541875515308960303e+02
-1.030206746688473007e+00 5.459824054987901576e+00 2.541691144301960321e+02
-6.261663426883813388e-01 5.459824054987891806e+00 2.541716530867960273e+02
-2.221259385882980997e-01 5.459824054987872266e+00 2.541741917434960101e+02
1.819144654118253213e-01 5.459824054987890918e+00 2.541767304001960213e+02
5.859548695118740325e-01 5.459824054987871378e+00 2.541792690567960165e+02
9.899952735119512681e-01 5.459824054987878483e+00 2.541818077134960276e+02
1.394035677512030835e+00 5.459824054987866049e+00 2.541843463701960104e+02
1.798076081612055122e+00 5.459824054987840292e+00 2.541868850268960216e+02
2.202116485612362062e+00 5.459824054987835851e+00 2.541894236834960452e+02
-1.030206746688396624e+00 5.863864459087855252e+00 2.541684479261960234e+02
-6.261663426884103156e-01 5.863864459087837488e+00 2.541709865827960186e+02
-2.221259385882365656e-01 5.863864459087853476e+00 2.541735252394960298e+02
1.819144654119270732e-01 5.863864459087842818e+00 2.541760638961960126e+02
5.859548695118632633e-01 5.863864459087824166e+00 2.541786025527960078e+02
9.899952735119119662e-01 5.863864459087804626e+00 2.541811412094960190e+02
1.394035677511956894e+00 5.863864459087795744e+00 2.541836798661960302e+02
1.798076081612088872e+00 5.863864459087790415e+00 2.541862185227960254e+02
2.202116485612315433e+00 5.863864459087801073e+00 2.541887571794960081e+02
-1.030206746688180797e+00 6.267904863087824907e+00 2.541677814220960272e+02
-6.261663426881167727e-01 6.267904863087840894e+00 2.541703200787960100e+02
-2.221259385881227122e-01 6.267904863087840006e+00 2.541728587354960212e+02
1.819144654119269622e-01 6.267904863087843559e+00 2.541753973920960163e+02
5.859548695119947137e-01 6.267904863087823131e+00 2.541779360487960275e+02
9.899952735120063352e-01 6.267904863087802703e+00 2.541804747054960103e+02
1.394035677511889615e+00 6.267904863087811584e+00 2.541830133620960055e+02
1.798076081611809540e+00 6.267904863087827572e+00 2.541855520187960167e+02
-1.030206746687919894e+00 6.671945267187840756e+00 2.541671149180960185e+02
-6.261663426879511274e-01 6.671945267187842532e+00 2.541696535747960297e+02
-2.221259385879334469e-01 6.671945267187822992e+00 2.541721922313960249e+02
1.819144654121894744e-01 6.671945267187846973e+00 2.541747308880960077e+02
5.859548695119268791e-01 6.671945267187843420e+00 2.541772695447960189e+02
9.899952735118285885e-01 6.671945267187826545e+00 2.541798082013960141e+02
1.394035677511566762e+00 6.671945267187817663e+00 2.541823468580960252e+02
1.798076081611531984e+00 6.671945267187820328e+00 2.541848855147960080e+02
-1.030206746687875485e+00 7.075985671187899229e+00 2.541664484140960099e+02
-6.261663426878247840e-01 7.075985671187893900e+00 2.541689870707960210e+02
-2.221259385877931980e-01 7.075985671187888570e+00 2.541715257273960162e+02
1.819144654122238358e-01 7.075985671187874360e+00 2.541740643840960274e+02
5.859548695119737305e-01 7.075985671187843273e+00 2.541766030407960102e+02
9.899952735117423241e-01 7.075985671187841497e+00 2.541791416973960054e+02
1.394035677511404447e+00 7.075985671187841497e+00 2.541816803540960166e+02
1.798076081611505561e+00 7.075985671187834392e+00 2.541842190107960278e+02
-6.261663426877372984e-01 7.480026075187924839e+00 2.541683205666960248e+02
-2.221259385877221992e-01 7.480026075187929280e+00 2.541708592233960076e+02
1.819144654121870042e-01 7.480026075187930168e+00 2.541733978800960188e+02
5.859548695120148087e-01 7.480026075187898194e+00 2.541759365366960139e+02
9.899952735117034663e-01 7.480026075187917733e+00 2.541784751933960251e+02
1.394035677511572979e+00 7.480026075187907075e+00 2.541810138500960079e+02
1.798076081611694743e+00 7.480026075187912404e+00 2.541835525066960315e+02
-1.030206746687963193e+00 7.884066479287960227e+00 2.541651154059960049e+02
-6.261663426877909222e-01 7.884066479287959339e+00 2.541676540626960161e+02
-2.221259385877899228e-01 7.884066479287949569e+00 2.541701927193960273e+02
1.819144654121514215e-01 7.884066479287940687e+00 2.541727313759960225e+02
5.859548695120120332e-01 7.884066479287925588e+00 2.541752700326960053e+02
9.899952735119306180e-01 7.884066479287928253e+00 2.541778086893960165e+02
1.394035677511939353e+00 7.884066479287934470e+00 2.541803473459960117e+02
1.798076081611803545e+00 7.884066479287944240e+00 2.541828860026960228e+02
-1.030206746687977848e+00 8.288106883287950311e+00 2.541644489019960247e+02
-6.261663426879473526e-01 8.288106883287959192e+00 2.541669875586960075e+02
-2.221259385878391890e-01 8.288106883287941429e+00 2.541695262152960311e+02
1.819144654120787852e-01 8.288106883287914783e+00 2.541720648719960138e+02
5.859548695120753159e-01 8.288106883287948534e+00 2.541746035286960250e+02
9.899952735121260172e-01 8.288106883287944981e+00 2.541771421853960078e+02
1.394035677512128757e+00 8.288106883287952087e+00 2.541796808419960314e+02
1.798076081612073995e+00 8.288106883287962745e+00 2.541822194986960142e+02
2.202116485612152452e+00 8.288106883287955640e+00 2.541847581553960254e+02
-1.030206746688251851e+00 8.692147287387935961e+00 2.541637823979960160e+02
-6.261663426880476058e-01 8.692147287387960830e+00 2.541663210546960272e+02
-2.221259385880002268e-01 8.692147287387985699e+00 2.541688597112960224e+02
1.819144654120413152e-01 8.692147287387976817e+00 2.541713983679960052e+02
5.859548695122144268e-01 8.692147287387966159e+00 2.541739370246960164e+02
9.899952735123456193e-01 8.692147287387969712e+00 2.541764756812960400e+02
1.394035677512178051e+00 8.692147287387959054e+00 2.541790143379960227e+02
1.798076081612205446e+00 8.692147287387962606e+00 2.541815529946960055e+02
2.202116485612225283e+00 8.692147287387948396e+00 2.541840916512960291e+02
-1.030206746688253849e+00 9.096187691387957130e+00 2.541631158939960073e+02
-6.261663426880255123e-01 9.096187691387955354e+00 2.541656545505960310e+02
-2.221259385879873760e-01 9.096187691387919827e+00 2.541681932072960137e+02
1.819144654122029081e-01 9.096187691387926932e+00 2.541707318639960249e+02
5.859548695123162343e-01 9.096187691387918051e+00 2.541732705205960201e+02
9.899952735122988789e-01 9.096187691387935814e+00 2.541758091772960597e+02
1.394035677512261096e+00 9.096187691387907392e+00 2.541783478339960425e+02
1.798076081612248300e+00 9.096187691387880747e+00 2.541808864905960377e+02
-1.030206746688046904e+00 9.500228095387951655e+00 2.541624493898960111e+02
-6.261663426881081129e-01 9.500228095387969418e+00 2.541649880465960223e+02
-2.221259385879393311e-01 9.500228095387940996e+00 2.541675267032960051e+02
1.819144654120436466e-01 9.500228095387955207e+00 2.541700653598960287e+02
5.859548695121400419e-01 9.500228095387958760e+00 2.541726040165960114e+02
9.899952735121977376e-01 9.500228095387944549e+00 2.541751426732960226e+02
1.394035677512159399e+00 9.500228095387955207e+00 2.541776813299960054e+02
1.798076081612118626e+00 9.500228095387921456e+00 2.541802199865960290e+02
2.202116485612301222e+00 9.500228095387939220e+00 2.541827586432960402e+02
-1.030206746688104413e+00 9.904268499487965727e+00 2.541617828858960308e+02
-6.261663426880129668e-01 9.904268499487958621e+00 2.541643215425960136e+02
-2.221259385881556303e-01 9.904268499487978161e+00 2.541668601992960248e+02
1.819144654119602134e-01 9.904268499487976385e+00 2.541693988558960200e+02
5.859548695120091466e-01 9.904268499487955069e+00 2.541719375125960312e+02
9.899952735120852720e-01 9.904268499487944410e+00 2.541744761692960139e+02
1.394035677512077465e+00 9.904268499487960398e+00 2.541770148258960091e+02
1.798076081612125510e+00 9.904268499487947963e+00 2.541795534825960203e+02
2.202116485612284791e+00 9.904268499487946187e+00 2.541820921392960599e+02
-6.261663426879987560e-01 1.030830890348797269e+01 2.541636550385960049e+02
-2.221259385879420512e-01 1.030830890348796736e+01 2.541661936951960286e+02
1.819144654120291860e-01 1.030830890348794249e+01 2.541687323518960113e+02
5.859548695120456729e-01 1.030830890348793361e+01 2.541712710085960225e+02
9.899952735120844949e-01 1.030830890348795137e+01 2.541738096651960177e+02
1.394035677512002191e+00 1.030830890348790163e+01 2.541763483218960289e+02
1.798076081612133281e+00 1.030830890348790696e+01 2.541788869785960117e+02
2.202116485612286123e+00 1.030830890348793538e+01 2.541814256351960353e+02
-6.261663426879465755e-01 1.071234930758794945e+01 2.541629885344960087e+02
-2.221259385879237602e-01 1.071234930758797255e+01 2.541655271911960199e+02
1.819144654120273263e-01 1.071234930758796189e+01 2.541680658478960311e+02
5.859548695120253559e-01 1.071234930758798143e+01 2.541706045044960263e+02
9.899952735121633207e-01 1.071234930758797788e+01 2.541731431611960090e+02
1.394035677512126092e+00 1.071234930758797432e+01 2.541756818178960202e+02
1.798076081611930332e+00 1.071234930758796366e+01 2.541782204744960154e+02
2.202116485612249264e+00 1.071234930758795656e+01 2.541807591311960550e+02
-6.261663426879811034e-01 1.111638971158798306e+01 2.541623220304960284e+02
-2.221259385879088000e-01 1.111638971158797951e+01 2.541648606871960112e+02
1.819144654120767868e-01 1.111638971158796885e+01 2.541673993438960224e+02
5.859548695119872752e-01 1.111638971158801681e+01 2.541699380004960176e+02
9.899952735121257952e-01 1.111638971158800615e+01 2.541724766571960288e+02
1.394035677512044824e+00 1.111638971158797595e+01 2.541750153138960115e+02
1.798076081611998056e+00 1.111638971158797595e+01 2.541775539704960067e+02
2.202116485612267471e+00 1.111638971158796707e+01 2.541800926271960179e+02
-1.030206746687963859e+00 1.152043011568796693e+01 2.541591168697960086e+02
-6.261663426879552352e-01 1.152043011568797581e+01 2.541616555264960198e+02
-2.221259385879580939e-01 1.152043011568797048e+01 2.541641941831960310e+02
1.819144654120420923e-01 1.152043011568796871e+01 2.541667328397960262e+02
5.859548695119753958e-01 1.152043011568797937e+01 2.541692714964960089e+02
9.899952735120978176e-01 1.152043011568797404e+01 2.541718101531960201e+02
1.394035677512058147e+00 1.152043011568799713e+01 2.541743488097960153e+02
1.798076081612014265e+00 1.152043011568797048e+01 2.541768874664960265e+02
2.202116485612078733e+00 1.152043011568794739e+01 2.541794261231960093e+02
-1.030206746688095976e+00 1.192447051968797567e+01 2.541584503657960283e+02
-6.261663426879688910e-01 1.192447051968795790e+01 2.541609890224960111e+02
-2.221259385880083870e-01 1.192447051968800587e+01 2.541635276790960063e+02
1.819144654121616078e-01 1.192447051968802541e+01 2.541660663357960175e+02
5.859548695121600259e-01 1.192447051968800764e+01 2.541686049924960287e+02
9.899952735120827185e-01 1.192447051968802896e+01 2.541711436490960239e+02
1.394035677512005078e+00 1.192447051968802541e+01 2.541736823057960066e+02
1.798076081612009380e+00 1.192447051968801830e+01 2.541762209624960178e+02
-1.030206746688030250e+00 1.232851092368797374e+01 2.541577838617960197e+02
-6.261663426879744421e-01 1.232851092368801105e+01 2.541603225183960149e+02
-2.221259385880607062e-01 1.232851092368802703e+01 2.541628611750960260e+02
1.819144654121430116e-01 1.232851092368802171e+01 2.541653998317960088e+02
5.859548695121565842e-01 1.232851092368804125e+01 2.541679384884960200e+02
9.899952735120656211e-01 1.232851092368804480e+01 2.541704771450960152e+02
1.394035677512116322e+00 1.232851092368803592e+01 2.541730158017960264e+02
1.798076081611988952e+00 1.232851092368803236e+01 2.541755544584960091e+02
-1.030206746688115294e+00 1.273255132778801091e+01 2.541571173577960110e+02
-6.261663426879758854e-01 1.273255132778799315e+01 2.541596560143960062e+02
-2.221259385880444692e-01 1.273255132778802157e+01 2.541621946710960174e+02
1.819144654120372351e-01 1.273255132778801801e+01 2.541647333277960286e+02
5.859548695120677664e-01 1.273255132778802512e+01 2.541672719843960238e+02
9.899952735121341219e-01 1.273255132778801801e+01 2.541698106410960065e+02
1.394035677512017957e+00 1.273255132778801979e+01 2.541723492977960177e+02
1.798076081611958976e+00 1.273255132778802157e+01 2.541748879543960129e+02
2.202116485611945951e+00 1.273255132778799847e+01 2.541774266110960241e+02
-6.261663426879922056e-01 1.313659173178800010e+01 2.541589895103960259e+02
-2.221259385880584025e-01 1.313659173178800543e+01 2.541615281670960087e+02
1.819144654120372351e-01 1.313659173178801787e+01 2.541640668236960323e+02
5.859548695120535555e-01 1.313659173178801076e+01 2.541666054803960151e+02
9.899952735121191338e-01 1.313659173178801254e+01 2.541691441370960263e+02
1.394035677512067473e+00 1.313659173178802675e+01 2.541716827936960215e+02
1.798076081611993171e+00 1.313659173178799300e+01 2.541742214503960327e+02
2.202116485611946395e+00 1.313659173178799122e+01 2.541767601070960154e+02
2.606156889712064828e+00 1.354063213588799108e+01 2.541786322596960304e+02
