-1.028950138151180971e+00 -1.231828363524245162e+01 2.539984448270087682e+02
9.912518820490910931e-01 -1.231828363524247116e+01 2.540111381103087922e+02
1.395292286049132358e+00 -1.231828363524247472e+01 2.540136767670087750e+02
-1.028950138151149218e+00 -1.191424323124244644e+01 2.539977783230087880e+02
-6.249097341511722359e-01 -1.191424323124244822e+01 2.540003169796087832e+02
-2.208693300510556345e-01 -1.191424323124247131e+01 2.540028556363087944e+02
1.831710739489155193e-01 -1.191424323124247486e+01 2.540053942930087771e+02
5.872114780490754748e-01 -1.191424323124246243e+01 2.540079329496087723e+02
9.912518820490286986e-01 -1.191424323124246420e+01 2.540104716063087835e+02
1.395292286049091057e+00 -1.191424323124247309e+01 2.540130102630087947e+02
1.799332690149045844e+00 -1.191424323124245888e+01 2.540155489196087899e+02
2.203373094149121858e+00 -1.191424323124245710e+01 2.540180875763087727e+02
-1.028950138151118354e+00 -1.151020282724243060e+01 2.539971118190087793e+02
-6.249097341511594683e-01 -1.151020282724243060e+01 2.539996504756087745e+02
-2.208693300511592184e-01 -1.151020282724243238e+01 2.540021891323087857e+02
1.831710739489828266e-01 -1.151020282724244481e+01 2.540047277890087685e+02
5.872114780490748087e-01 -1.151020282724245725e+01 2.540072664456087921e+02
9.912518820490273663e-01 -1.151020282724245192e+01 2.540098051023087748e+02
1.395292286049012231e+00 -1.151020282724244659e+01 2.540123437590087860e+02
1.799332690149043401e+00 -1.151020282724243415e+01 2.540148824156087812e+02
-1.028950138151030425e+00 -1.110616242314245738e+01 2.539964453149087831e+02
-6.249097341510605474e-01 -1.110616242314242541e+01 2.539989839716087943e+02
-2.208693300510582436e-01 -1.110616242314244673e+01 2.540015226283087770e+02
1.831710739490120532e-01 -1.110616242314244495e+01 2.540040612849087722e+02
5.872114780490029773e-01 -1.110616242314244140e+01 2.540065999416087834e+02
9.912518820489981675e-01 -1.110616242314245028e+01 2.540091385983087946e+02
1.395292286049053088e+00 -1.110616242314244140e+01 2.540116772549087898e+02
1.799332690148994995e+00 -1.110616242314242008e+01 2.540142159116087726e+02
-1.028950138150997340e+00 -1.070212201914249661e+01 2.539957788109087744e+02
-6.249097341510558845e-01 -1.070212201914246997e+01 2.539983174676087856e+02
-2.208693300510602697e-01 -1.070212201914242733e+01 2.540008561242087808e+02
1.831710739490108042e-01 -1.070212201914243266e+01 2.540033947809087920e+02
5.872114780489756658e-01 -1.070212201914246108e+01 2.540059334376087747e+02
9.912518820490274774e-01 -1.070212201914245220e+01 2.540084720942087699e+02
1.395292286048982922e+00 -1.070212201914244687e+01 2.540110107509087811e+02
1.799332690148969238e+00 -1.070212201914245398e+01 2.540135494076087923e+02
-6.249097341509824988e-01 -1.029808161504249853e+01 2.539976509635087893e+02
-2.208693300510702340e-01 -1.029808161504247188e+01 2.540001896202087721e+02
1.831710739489420536e-01 -1.029808161504245057e+01 2.540027282769087833e+02
5.872114780489818830e-01 -1.029808161504246655e+01 2.540052669336087945e+02
9.912518820490293647e-01 -1.029808161504247188e+01 2.540078055902087897e+02
1.395292286049029995e+00 -1.029808161504247899e+01 2.540103442469087724e+02
1.799332690148941261e+00 -1.029808161504249853e+01 2.540128829036087836e+02
2.203373094148959321e+00 -1.029808161504250030e+01 2.540154215602087788e+02
-6.249097341509680659e-01 -9.894041211042498674e+00 2.539969844595087807e+02
-2.208693300510829460e-01 -9.894041211042491568e+00 2.539995231162087919e+02
1.831710739489319228e-01 -9.894041211042495121e+00 2.540020617729087746e+02
5.872114780489976482e-01 -9.894041211042479134e+00 2.540046004295087698e+02
9.912518820489338855e-01 -9.894041211042512884e+00 2.540071390862087810e+02
1.395292286049049313e+00 -9.894041211042523543e+00 2.540096777429087922e+02
1.799332690148971015e+00 -9.894041211042504003e+00 2.540122163995087874e+02
2.203373094148992628e+00 -9.894041211042518214e+00 2.540147550562087702e+02
-1.028950138151082383e+00 -9.490000806942498812e+00 2.539937792988087892e+02
-6.249097341509278758e-01 -9.490000806942486378e+00 2.539963179555087720e+02
-2.208693300510373991e-01 -9.490000806942477496e+00 2.539988566122087832e+02
1.831710739490050588e-01 -9.490000806942463285e+00 2.540013952688087784e+02
5.872114780490816921e-01 -9.490000806942468614e+00 2.540039339255087896e+02
9.912518820490305860e-01 -9.490000806942482825e+00 2.540064725822087723e+02
1.395292286049014674e+00 -9.490000806942504141e+00 2.540090112388087960e+02
1.799332690149040515e+00 -9.490000806942495259e+00 2.540115498955087787e+02
2.203373094149117417e+00 -9.490000806942475720e+00 2.540140885522087899e+02
-1.028950138151157878e+00 -9.085960402942504288e+00 2.539931127948087806e+02
-6.249097341510467807e-01 -9.085960402942472314e+00 2.539956514515087918e+02
-2.208693300509718682e-01 -9.085960402942429681e+00 2.539981901081087869e+02
1.831710739490097772e-01 -9.085960402942422576e+00 2.540007287648087697e+02
5.872114780490044206e-01 -9.085960402942458103e+00 2.540032674215087809e+02
9.912518820491039717e-01 -9.085960402942456327e+00 2.540058060782087921e+02
1.395292286049115260e+00 -9.085960402942481196e+00 2.540083447348087873e+02
1.799332690149161751e+00 -9.085960402942475866e+00 2.540108833915087700e+02
2.203373094149191136e+00 -9.085960402942506065e+00 2.540134220482087812e+02
-1.028950138151127236e+00 -8.681919998942518646e+00 2.539924462908087719e+02
-6.249097341512610537e-01 -8.681919998942500882e+00 2.539949849475087831e+02
-2.208693300512204194e-01 -8.681919998942493777e+00 2.539975236041087783e+02
1.831710739489863793e-01 -8.681919998942511540e+00 2.540000622608087895e+02
5.872114780491433095e-01 -8.681919998942525751e+00 2.540026009175087722e+02
9.912518820493043670e-01 -8.681919998942523975e+00 2.540051395741087958e+02
1.395292286049406583e+00 -8.681919998942548844e+00 2.540076782308087786e+02
1.799332690149351377e+00 -8.681919998942523975e+00 2.540102168875087898e+02
-1.028950138151251803e+00 -8.277879594842504574e+00 2.539917797868087916e+02
-6.249097341512036552e-01 -8.277879594842515232e+00 2.539943184434087868e+02
-2.208693300510961299e-01 -8.277879594842506350e+00 2.539968571001087696e+02
1.831710739490751971e-01 -8.277879594842517008e+00 2.539993957568087808e+02
5.872114780493130626e-01 -8.277879594842522337e+00 2.540019344134087760e+02
9.912518820493751992e-01 -8.277879594842525890e+00 2.540044730701087872e+02
1.395292286049372166e+00 -8.277879594842529443e+00 2.540070117268087699e+02
1.799332690149464398e+00 -8.277879594842511679e+00 2.540095503834087936e+02
-1.028950138151081273e+00 -7.873839190842564228e+00 2.539911132827087954e+02
-6.249097341510158055e-01 -7.873839190842546465e+00 2.539936519394087782e+02
-2.208693300509759205e-01 -7.873839190842532254e+00 2.539961905961087894e+02
1.831710739490573225e-01 -7.873839190842515379e+00 2.539987292527087845e+02
5.872114780490933494e-01 -7.873839190842495839e+00 2.540012679094087957e+02
9.912518820492327576e-01 -7.873839190842510938e+00 2.540038065661087785e+02
1.395292286049334196e+00 -7.873839190842529590e+00 2.540063452227087737e+02
1.799332690149253899e+00 -7.873839190842542912e+00 2.540088838794087849e+02
-1.028950138150871441e+00 -7.469798786742522623e+00 2.539904467787087867e+02
-6.249097341511804515e-01 -7.469798786742511965e+00 2.539929854354087695e+02
-2.208693300511413438e-01 -7.469798786742521735e+00 2.539955240921087807e+02
1.831710739489161022e-01 -7.469798786742511965e+00 2.539980627487087759e+02
5.872114780489617880e-01 -7.469798786742499530e+00 2.540006014054087871e+02
9.912518820490145988e-01 -7.469798786742499530e+00 2.540031400621087698e+02
1.395292286049187869e+00 -7.469798786742532393e+00 2.540056787187087934e+02
1.799332690149309855e+00 -7.469798786742519958e+00 2.540082173754087762e+02
-1.028950138150960036e+00 -7.065758382742489019e+00 2.539897802747087781e+02
-6.249097341510608805e-01 -7.065758382742477473e+00 2.539923189314087892e+02
-2.208693300511313240e-01 -7.065758382742476584e+00 2.539948575880087844e+02
1.831710739488260908e-01 -7.065758382742465926e+00 2.539973962447087956e+02
5.872114780488745245e-01 -7.065758382742479249e+00 2.539999349014087784e+02
9.912518820489406579e-01 -7.065758382742465926e+00 2.540024735580087736e+02
1.395292286049242492e+00 -7.065758382742464150e+00 2.540050122147087848e+02
1.799332690149466840e+00 -7.065758382742479249e+00 2.540075508714087960e+02
2.203373094149353228e+00 -7.065758382742485466e+00 2.540100895280087911e+02
-6.249097341510173598e-01 -6.661717978742474955e+00 2.539916524273087930e+02
-2.208693300511339885e-01 -6.661717978742451862e+00 2.539941910840087758e+02
1.831710739488809636e-01 -6.661717978742455415e+00 2.539967297407087869e+02
5.872114780490563790e-01 -6.661717978742450974e+00 2.539992683973087821e+02
9.912518820490952010e-01 -6.661717978742457191e+00 2.540018070540087933e+02
1.395292286049272912e+00 -6.661717978742477619e+00 2.540043457107087761e+02
1.799332690149372915e+00 -6.661717978742479396e+00 2.540068843673087713e+02
2.203373094149137845e+00 -6.661717978742468738e+00 2.540094230240087825e+02
-6.249097341509463055e-01 -6.257677574642480423e+00 2.539909859233087843e+02
-2.208693300510361224e-01 -6.257677574642434237e+00 2.539935245800087955e+02
1.831710739490373108e-01 -6.257677574642406704e+00 2.539960632367087783e+02
5.872114780490983454e-01 -6.257677574642401375e+00 2.539986018933087735e+02
9.912518820490485716e-01 -6.257677574642404927e+00 2.540011405500087847e+02
1.395292286049160335e+00 -6.257677574642438678e+00 2.540036792067087958e+02
1.799332690149219038e+00 -6.257677574642464435e+00 2.540062178633087910e+02
-1.028950138150889426e+00 -5.853637170642491228e+00 2.539877807626087929e+02
-6.249097341509620707e-01 -5.853637170642468135e+00 2.539903194193087757e+02
-2.208693300509260438e-01 -5.853637170642448595e+00 2.539928580760087868e+02
1.831710739492116435e-01 -5.853637170642447707e+00 2.539953967326087820e+02
5.872114780492726505e-01 -5.853637170642441490e+00 2.539979353893087932e+02
9.912518820492134397e-01 -5.853637170642407739e+00 2.540004740460087760e+02
1.395292286049145236e+00 -5.853637170642431720e+00 2.540030127026087712e+02
1.799332690149117342e+00 -5.853637170642443266e+00 2.540055513593087824e+02
-1.028950138150956928e+00 -5.449596766542520676e+00 2.539871142586087842e+02
-6.249097341508732528e-01 -5.449596766542506465e+00 2.539896529153087954e+02
-2.208693300506415769e-01 -5.449596766542505577e+00 2.539921915719087906e+02
1.831710739492867779e-01 -5.449596766542494031e+00 2.539947302286087734e+02
5.872114780491786146e-01 -5.449596766542496695e+00 2.539972688853087845e+02
9.912518820492078886e-01 -5.449596766542497583e+00 2.539998075419087797e+02
1.395292286049079289e+00 -5.449596766542501136e+00 2.540023461986087909e+02
1.799332690149062053e+00 -5.449596766542505577e+00 2.540048848553087737e+02
2.203373094148996181e+00 -5.449596766542518012e+00 2.540074235119087689e+02
-1.028950138150957372e+00 -5.045556362542515494e+00 2.539864477546087755e+02
-6.249097341508573766e-01 -5.045556362542518158e+00 2.539889864112087707e+02
-2.208693300507802992e-01 -5.045556362542495954e+00 2.539915250679087819e+02
1.831710739492020679e-01 -5.045556362542496842e+00 2.539940637246087931e+02
5.872114780491303199e-01 -5.045556362542483519e+00 2.539966023813087759e+02
9.912518820491246219e-01 -5.045556362542483519e+00 2.539991410379087711e+02
1.395292286049164110e+00 -5.045556362542499507e+00 2.540016796946087823e+02
1.799332690149196168e+00 -5.045556362542527040e+00 2.540042183513087934e+02
2.203373094149074785e+00 -5.045556362542543027e+00 2.540067570079087886e+02
-1.028950138151060401e+00 -4.641515958542484555e+00 2.539857812506087953e+02
-6.249097341510820858e-01 -4.641515958542501430e+00 2.539883199072087905e+02
-2.208693300509921575e-01 -4.641515958542460574e+00 2.539908585639087732e+02
1.831710739490756967e-01 -4.641515958542465903e+00 2.539933972206087844e+02
5.872114780491014541e-01 -4.641515958542487219e+00 2.539959358772087796e+02
9.912518820493099181e-01 -4.641515958542488995e+00 2.539984745339087908e+02
1.395292286049396813e+00 -4.641515958542510312e+00 2.540010131906087736e+02
1.799332690149299863e+00 -4.641515958542535181e+00 2.540035518472087688e+02
-6.249097341511462567e-01 -4.237475554442474923e+00 2.539876534032087818e+02
-2.208693300512791780e-01 -4.237475554442521997e+00 2.539901920599087930e+02
1.831710739489830486e-01 -4.237475554442533543e+00 2.539927307165087882e+02
5.872114780491849428e-01 -4.237475554442560188e+00 2.539952693732087710e+02
9.912518820493797511e-01 -4.237475554442570846e+00 2.539978080299087821e+02
1.395292286049334196e+00 -4.237475554442553971e+00 2.540003466865087773e+02
1.799332690149259895e+00 -4.237475554442572623e+00 2.540028853432087885e+02
-6.249097341512526160e-01 -3.833435150442464856e+00 2.539869868992087731e+02
-2.208693300513651647e-01 -3.833435150442455974e+00 2.539895255558087683e+02
1.831710739486499540e-01 -3.833435150442460859e+00 2.539920642125087795e+02
5.872114780488970620e-01 -3.833435150442469741e+00 2.539946028692087907e+02
9.912518820491065252e-01 -3.833435150442479955e+00 2.539971415258087859e+02
1.395292286049077735e+00 -3.833435150442485728e+00 2.539996801825087687e+02
1.799332690149098912e+00 -3.833435150442487949e+00 2.540022188392087799e+02
-6.249097341514737725e-01 -3.429394746342481426e+00 2.539863203952087929e+02
-2.208693300516004765e-01 -3.429394746342476097e+00 2.539888590518087881e+02
1.831710739484815886e-01 -3.429394746342478761e+00 2.539913977085087708e+02
5.872114780486106245e-01 -3.429394746342480538e+00 2.539939363652087820e+02
9.912518820487749016e-01 -3.429394746342477873e+00 2.539964750218087772e+02
1.395292286048760211e+00 -3.429394746342478317e+00 2.539990136785087884e+02
1.799332690148830904e+00 -3.429394746342481870e+00 2.540015523352087712e+02
-1.028950138151199623e+00 -3.025354342342524205e+00 2.539831152345087730e+02
-6.249097341513631942e-01 -3.025354342342501113e+00 2.539856538911087682e+02
-2.208693300513339119e-01 -3.025354342342502001e+00 2.539881925478087794e+02
1.831710739487859563e-01 -3.025354342342500669e+00 2.539907312045087906e+02
5.872114780488297825e-01 -3.025354342342500225e+00 2.539932698611087858e+02
9.912518820488565030e-01 -3.025354342342500225e+00 2.539958085178087686e+02
1.395292286048677166e+00 -3.025354342342497560e+00 2.539983471745087797e+02
1.799332690148796043e+00 -3.025354342342512215e+00 2.540008858311087749e+02
-1.028950138151276228e+00 -2.621313938342519467e+00 2.539824487304087768e+02
-6.249097341511666848e-01 -2.621313938342529681e+00 2.539849873871087880e+02
-2.208693300511661572e-01 -2.621313938342535010e+00 2.539875260438087707e+02
1.831710739487850681e-01 -2.621313938342547889e+00 2.539900647004087944e+02
5.872114780487408536e-01 -2.621313938342548777e+00 2.539926033571087771e+02
9.912518820486031501e-01 -2.621313938342549221e+00 2.539951420138087883e+02
1.395292286048666730e+00 -2.621313938342539895e+00 2.539976806704087835e+02
1.799332690148637504e+00 -2.621313938342538563e+00 2.540002193271087947e+02
-1.028950138150944937e+00 -2.217273534242519606e+00 2.539817822264087681e+02
-6.249097341509824988e-01 -2.217273534242524935e+00 2.539843208831087793e+02
-2.208693300511976598e-01 -2.217273534242543587e+00 2.539868595398087905e+02
1.831710739488471851e-01 -2.217273534242553357e+00 2.539893981964087857e+02
5.872114780486004104e-01 -2.217273534242548472e+00 2.539919368531087684e+02
9.912518820484911286e-01 -2.217273534242540034e+00 2.539944755098087796e+02
1.395292286048551267e+00 -2.217273534242526711e+00 2.539970141664087748e+02
1.799332690148553349e+00 -2.217273534242516497e+00 2.539995528231087860e+02
-1.028950138151167648e+00 -1.813233130242521529e+00 2.539811157224087879e+02
-6.249097341511997694e-01 -1.813233130242522639e+00 2.539836543791087706e+02
-2.208693300511228585e-01 -1.813233130242530189e+00 2.539861930357087942e+02
1.831710739486368811e-01 -1.813233130242531299e+00 2.539887316924087770e+02
5.872114780485934160e-01 -1.813233130242535074e+00 2.539912703491087882e+02
9.912518820485526350e-01 -1.813233130242539737e+00 2.539938090057087834e+02
1.395292286048678276e+00 -1.813233130242534852e+00 2.539963476624087946e+02
1.799332690148582659e+00 -1.813233130242516644e+00 2.539988863191087773e+02
-6.249097341511653525e-01 -1.409192726142455943e+00 2.539829878750087744e+02
-2.208693300512367119e-01 -1.409192726142447505e+00 2.539855265317087856e+02
1.831710739488478790e-01 -1.409192726142442398e+00 2.539880651884087683e+02
5.872114780486361596e-01 -1.409192726142437957e+00 2.539906038450087920e+02
9.912518820485511917e-01 -1.409192726142438845e+00 2.539931425017087747e+02
1.395292286048258390e+00 -1.409192726142444396e+00 2.539956811584087859e+02
1.799332690148214287e+00 -1.409192726142441510e+00 2.539982198150087811e+02
2.203373094148389999e+00 -1.409192726142444174e+00 2.540007584717087923e+02
-6.249097341510657655e-01 -1.005152322142453647e+00 2.539823213710087941e+02
-2.208693300510665425e-01 -1.005152322142446542e+00 2.539848600277087769e+02
1.831710739488865147e-01 -1.005152322142447652e+00 2.539873986844087881e+02
5.872114780488157937e-01 -1.005152322142444321e+00 2.539899373410087833e+02
9.912518820486452276e-01 -1.005152322142440546e+00 2.539924759977087945e+02
1.395292286048328112e+00 -1.005152322142435883e+00 2.539950146544087772e+02
1.799332690147996017e+00 -1.005152322142429444e+00 2.539975533110087724e+02
2.203373094147954792e+00 -1.005152322142433441e+00 2.540000919677087836e+02
-6.249097341511278270e-01 -6.011119181424485758e-01 2.539816548670087855e+02
-2.208693300510801705e-01 -6.011119181424559033e-01 2.539841935237087682e+02
1.831710739488727757e-01 -6.011119181424551261e-01 2.539867321803087918e+02
5.872114780488728591e-01 -6.011119181424556812e-01 2.539892708370087746e+02
9.912518820486226900e-01 -6.011119181424492419e-01 2.539918094937087858e+02
1.395292286048422703e+00 -6.011119181424439128e-01 2.539943481503087810e+02
1.799332690148281344e+00 -6.011119181424385838e-01 2.539968868070087922e+02
-1.028950138151547344e+00 -1.970715140424519340e-01 2.539784497063087940e+02
-6.249097341512828141e-01 -1.970715140424549872e-01 2.539809883630087768e+02
-2.208693300511269386e-01 -1.970715140424580958e-01 2.539835270196087720e+02
1.831710739488730810e-01 -1.970715140424575129e-01 2.539860656763087832e+02
5.872114780488784103e-01 -1.970715140424552647e-01 2.539886043330087944e+02
9.912518820486875271e-01 -1.970715140424499912e-01 2.539911429896087895e+02
1.395292286048417152e+00 -1.970715140424444123e-01 2.539936816463087723e+02
1.799332690148470304e+00 -1.970715140424483258e-01 2.539962203030087835e+02
-1.028950138151381921e+00 2.069688899575378715e-01 2.539777832023087853e+02
-6.249097341514056048e-01 2.069688899575415353e-01 2.539803218589087805e+02
-2.208693300513382973e-01 2.069688899575404806e-01 2.539828605156087917e+02
1.831710739487618367e-01 2.069688899575369556e-01 2.539853991723087745e+02
5.872114780488266739e-01 2.069688899575355956e-01 2.539879378289087697e+02
9.912518820487828952e-01 2.069688899575359564e-01 2.539904764856087809e+02
1.395292286048791519e+00 2.069688899575365670e-01 2.539930151423087921e+02
1.799332690148944147e+00 2.069688899575362617e-01 2.539955537990087748e+02
2.203373094149084555e+00 2.069688899575357899e-01 2.539980924556087700e+02
-1.028950138151367710e+00 6.110092940575418963e-01 2.539771166983087767e+02
-6.249097341514825432e-01 6.110092940575485576e-01 2.539796553549087719e+02
-2.208693300516942626e-01 6.110092940575529985e-01 2.539821940116087831e+02
1.831710739485761796e-01 6.110092940575462261e-01 2.539847326683087942e+02
5.872114780487411867e-01 6.110092940575395648e-01 2.539872713249087894e+02
9.912518820487826732e-01 6.110092940575383436e-01 2.539898099816087722e+02
1.395292286048938513e+00 6.110092940575334586e-01 2.539923486383087834e+02
1.799332690148695457e+00 6.110092940575349019e-01 2.539948872949087786e+02
2.203373094148870948e+00 6.110092940575322373e-01 2.539974259516087898e+02
-6.249097341516920423e-01 1.015049698057562066e+00 2.539789888509087916e+02
-2.208693300517152180e-01 1.015049698057558736e+00 2.539815275076087744e+02
1.831710739485231387e-01 1.015049698057549632e+00 2.539840661642087696e+02
5.872114780485937491e-01 1.015049698057548078e+00 2.539866048209087808e+02
9.912518820488493976e-01 1.015049698057544525e+00 2.539891434776087920e+02
1.395292286048960939e+00 1.015049698057545191e+00 2.539916821342087871e+02
1.799332690148964353e+00 1.015049698057543637e+00 2.539942207909087699e+02
-6.249097341512042103e-01 1.419090102057551706e+00 2.539783223469087829e+02
-2.208693300513033531e-01 1.419090102057546376e+00 2.539808610035087781e+02
1.831710739488113526e-01 1.419090102057542158e+00 2.539833996602087893e+02
5.872114780487790453e-01 1.419090102057542158e+00 2.539859383169087721e+02
9.912518820487559168e-01 1.419090102057539493e+00 2.539884769735087957e+02
1.395292286048690489e+00 1.419090102057549485e+00 2.539910156302087785e+02
1.799332690148611080e+00 1.419090102057551706e+00 2.539935542869087897e+02
-6.249097341512992454e-01 1.823130506157562891e+00 2.539776558429087743e+02
-2.208693300512804825e-01 1.823130506157552899e+00 2.539801944995087695e+02
1.831710739486631656e-01 1.823130506157558450e+00 2.539827331562087807e+02
5.872114780488674191e-01 1.823130506157565556e+00 2.539852718129087918e+02
9.912518820488086524e-01 1.823130506157570219e+00 2.539878104695087870e+02
1.395292286048792629e+00 1.823130506157583319e+00 2.539903491262087698e+02
1.799332690148879088e+00 1.823130506157571107e+00 2.539928877829087810e+02
-6.249097341507892089e-01 2.227170910157565853e+00 2.539769893388087780e+02
-2.208693300507062474e-01 2.227170910157555639e+00 2.539795279955087892e+02
1.831710739490028383e-01 2.227170910157564077e+00 2.539820666522087720e+02
5.872114780487818209e-01 2.227170910157571182e+00 2.539846053088087956e+02
9.912518820485832771e-01 2.227170910157565409e+00 2.539871439655087784e+02
1.395292286048458008e+00 2.227170910157583172e+00 2.539896826222087896e+02
1.799332690148599090e+00 2.227170910157582728e+00 2.539922212788087847e+02
-1.028950138150913407e+00 2.631211314257607903e+00 2.539737841781087866e+02
-6.249097341510452264e-01 2.631211314257605682e+00 2.539763228348087694e+02
-2.208693300511016255e-01 2.631211314257611456e+00 2.539788614915087805e+02
1.831710739487735773e-01 2.631211314257595912e+00 2.539814001481087757e+02
5.872114780487353025e-01 2.631211314257598133e+00 2.539839388048087869e+02
9.912518820488505078e-01 2.631211314257590583e+00 2.539864774615087697e+02
1.395292286048629427e+00 2.631211314257601241e+00 2.539890161181087933e+02
1.799332690148805147e+00 2.631211314257604350e+00 2.539915547748087761e+02
-1.028950138150754645e+00 3.035251718257575781e+00 2.539731176741087779e+02
-6.249097341506778536e-01 3.035251718257569120e+00 2.539756563308087891e+02
-2.208693300508744739e-01 3.035251718257567344e+00 2.539781949875087719e+02
1.831710739487620865e-01 3.035251718257565567e+00 2.539807336441087955e+02
5.872114780485041541e-01 3.035251718257562015e+00 2.539832723008087783e+02
9.912518820486831972e-01 3.035251718257561571e+00 2.539858109575087894e+02
1.395292286048593011e+00 3.035251718257554465e+00 2.539883496141087846e+02
1.799332690148724101e+00 3.035251718257565567e+00 2.539908882708087958e+02
2.203373094148873168e+00 3.035251718257566900e+00 2.539934269275087786e+02
-1.028950138151625726e+00 3.439292122257545881e+00 2.539724511701087692e+02
-6.249097341515261750e-01 3.439292122257547213e+00 2.539749898268087804e+02
-2.208693300513229485e-01 3.439292122257540996e+00 2.539775284834087756e+02
1.831710739489063600e-01 3.439292122257533446e+00 2.539800671401087868e+02
5.872114780489732233e-01 3.439292122257537887e+00 2.539826057968087696e+02
9.912518820489992777e-01 3.439292122257538775e+00 2.539851444534087932e+02
1.395292286048915420e+00 3.439292122257554762e+00 2.539876831101087760e+02
1.799332690148730540e+00 3.439292122257557871e+00 2.539902217668087872e+02
2.203373094148624922e+00 3.439292122257556095e+00 2.539927604234087823e+02
-1.028950138151349725e+00 3.843332526357453371e+00 2.539717846661087890e+02
-6.249097341511985482e-01 3.843332526357440493e+00 2.539743233227087842e+02
-2.208693300513254465e-01 3.843332526357421397e+00 2.539768619794087954e+02
1.831710739487181216e-01 3.843332526357424062e+00 2.539794006361087781e+02
5.872114780488085772e-01 3.843332526357427170e+00 2.539819392927087733e+02
9.912518820488213089e-01 3.843332526357415624e+00 2.539844779494087845e+02
1.395292286048612551e+00 3.843332526357419621e+00 2.539870166061087957e+02
1.799332690148613079e+00 3.843332526357389423e+00 2.539895552627087909e+02
2.203373094148843858e+00 3.843332526357393863e+00 2.539920939194087737e+02
-6.249097341514437964e-01 4.247372930357374621e+00 2.539736568187087755e+02
-2.208693300512344637e-01 4.247372930357395049e+00 2.539761954754087867e+02
1.831710739490639561e-01 4.247372930357400378e+00 2.539787341320087819e+02
5.872114780490980124e-01 4.247372930357409260e+00 2.539812727887087931e+02
9.912518820491826865e-01 4.247372930357413701e+00 2.539838114454087759e+02
1.395292286048939623e+00 4.247372930357406595e+00 2.539863501021087870e+02
1.799332690148661706e+00 4.247372930357373733e+00 2.539888887587087822e+02
-6.249097341514441295e-01 4.651413334457465965e+00 2.539729903147087953e+02
-2.208693300516625657e-01 4.651413334457478399e+00 2.539755289714087780e+02
1.831710739483499717e-01 4.651413334457442872e+00 2.539780676280087732e+02
5.872114780485010455e-01 4.651413334457424220e+00 2.539806062847087844e+02
9.912518820487133953e-01 4.651413334457441096e+00 2.539831449414087956e+02
1.395292286048804842e+00 4.651413334457406457e+00 2.539856835980087908e+02
1.799332690149136660e+00 4.651413334457402904e+00 2.539882222547087736e+02
-6.249097341515503778e-01 5.055453738457442725e+00 2.539723238107087866e+02
-2.208693300514526781e-01 5.055453738457404533e+00 2.539748624673087818e+02
1.831710739487323047e-01 5.055453738457402757e+00 2.539774011240087930e+02
5.872114780487205365e-01 5.055453738457399204e+00 2.539799397807087757e+02
9.912518820489052418e-01 5.055453738457401869e+00 2.539824784373087709e+02
1.395292286048747776e+00 5.055453738457393875e+00 2.539850170940087821e+02
1.799332690148836233e+00 5.055453738457387658e+00 2.539875557507087933e+02
-1.028950138151693450e+00 5.459494142457407051e+00 2.539691186500087952e+02
-6.249097341516074433e-01 5.459494142457398169e+00 2.539716573066087903e+02
-2.208693300515294777e-01 5.459494142457380406e+00 2.539741959633087731e+02
1.831710739485862549e-01 5.459494142457397281e+00 2.539767346200087843e+02
5.872114780486319408e-01 5.459494142457379517e+00 2.539792732766087795e+02
9.912518820487042914e-01 5.459494142457385735e+00 2.539818119333087907e+02
1.395292286048778863e+00 5.459494142457374188e+00 2.539843505900087735e+02
1.799332690148801817e+00 5.459494142457350208e+00 2.539868892467087846e+02
2.203373094149089439e+00 5.459494142457346655e+00 2.539894279033087798e+02
-1.028950138151621951e+00 5.863534546557364280e+00 2.539684521460087865e+02
-6.249097341516346438e-01 5.863534546557347404e+00 2.539709908026087817e+02
-2.208693300514718016e-01 5.863534546557362503e+00 2.539735294593087929e+02
1.831710739486816231e-01 5.863534546557352733e+00 2.539760681160087756e+02
5.872114780486218377e-01 5.863534546557334970e+00 2.539786067726087708e+02
9.912518820486675430e-01 5.863534546557316318e+00 2.539811454293087820e+02
1.395292286048709585e+00 5.863534546557308325e+00 2.539836840860087932e+02
1.799332690148833347e+00 5.863534546557303884e+00 2.539862227426087884e+02
2.203373094149045475e+00 5.863534546557312765e+00 2.539887613993087712e+02
-1.028950138151419447e+00 6.267574950557335711e+00 2.539677856419087902e+02
-6.249097341513594195e-01 6.267574950557350810e+00 2.539703242986087730e+02
-2.208693300513650537e-01 6.267574950557349922e+00 2.539728629553087842e+02
1.831710739486815398e-01 6.267574950557353475e+00 2.539754016119087794e+02
5.872114780487450725e-01 6.267574950557334823e+00 2.539779402686087906e+02
9.912518820487560278e-01 6.267574950557315283e+00 2.539804789253087733e+02
1.395292286048646524e+00 6.267574950557323277e+00 2.539830175819087685e+02
1.799332690148571556e+00 6.267574950557338376e+00 2.539855562386087797e+02
-1.028950138151174754e+00 6.671615354657350672e+00 2.539671191379087816e+02
-6.249097341512040993e-01 6.671615354657352448e+00 2.539696577946087928e+02
-2.208693300511876123e-01 6.671615354657333796e+00 2.539721964512087879e+02
1.831710739489276485e-01 6.671615354657356001e+00 2.539747351079087707e+02
5.872114780486814567e-01 6.671615354657353336e+00 2.539772737646087819e+02
9.912518820485893833e-01 6.671615354657337349e+00 2.539798124212087771e+02
1.395292286048343655e+00 6.671615354657329355e+00 2.539823510779087883e+02
1.799332690148311098e+00 6.671615354657332020e+00 2.539848897346087711e+02
-1.028950138151133231e+00 7.075655758657405592e+00 2.539664526339087729e+02
-6.249097341510857495e-01 7.075655758657401151e+00 2.539689912906087841e+02
-2.208693300510561341e-01 7.075655758657395822e+00 2.539715299472087793e+02
1.831710739489598450e-01 7.075655758657382499e+00 2.539740686039087905e+02
5.872114780487253105e-01 7.075655758657353189e+00 2.539766072606087732e+02
9.912518820485084481e-01 7.075655758657351413e+00 2.539791459172087684e+02
1.395292286048191555e+00 7.075655758657351413e+00 2.539816845739087796e+02
1.799332690148286451e+00 7.075655758657344307e+00 2.539842232306087908e+02
-6.249097341510038151e-01 7.479696162657430314e+00 2.539683247865087878e+02
-2.208693300509895763e-01 7.479696162657432978e+00 2.539708634432087706e+02
1.831710739489253170e-01 7.479696162657434755e+00 2.539734020999087818e+02
5.872114780487638352e-01 7.479696162657404557e+00 2.539759407565087770e+02
9.912518820484720328e-01 7.479696162657422320e+00 2.539784794132087882e+02
1.395292286048349650e+00 7.479696162657413439e+00 2.539810180699087709e+02
1.799332690148463643e+00 7.479696162657417879e+00 2.539835567265087946e+02
-1.028950138151215610e+00 7.883736566757463038e+00 2.539651196258087680e+02
-6.249097341510539971e-01 7.883736566757462150e+00 2.539676582825087792e+02
-2.208693300510530533e-01 7.883736566757452380e+00 2.539701969392087904e+02
1.831710739488919548e-01 7.883736566757444386e+00 2.539727355958087855e+02
5.872114780487612817e-01 7.883736566757430175e+00 2.539752742525087683e+02
9.912518820486849735e-01 7.883736566757432840e+00 2.539778129092087795e+02
1.395292286048693153e+00 7.883736566757438169e+00 2.539803515658087747e+02
1.799332690148565783e+00 7.883736566757447939e+00 2.539828902225087859e+02
-1.028950138151229154e+00 8.287776970757454009e+00 2.539644531218087877e+02
-6.249097341512006576e-01 8.287776970757461115e+00 2.539669917785087705e+02
-2.208693300510992386e-01 8.287776970757445127e+00 2.539695304351087941e+02
1.831710739488238704e-01 8.287776970757420258e+00 2.539720690918087769e+02
5.872114780488206787e-01 8.287776970757452233e+00 2.539746077485087881e+02
9.912518820488681603e-01 8.287776970757448680e+00 2.539771464052087708e+02
1.395292286048870567e+00 8.287776970757454009e+00 2.539796850618087944e+02
1.799332690148819358e+00 8.287776970757466444e+00 2.539822237185087772e+02
2.203373094148893152e+00 8.287776970757459338e+00 2.539847623752087884e+02
-1.028950138151486060e+00 8.691817374857439660e+00 2.539637866178087791e+02
-6.249097341512946935e-01 8.691817374857462752e+00 2.539663252745087902e+02
-2.208693300512502011e-01 8.691817374857487621e+00 2.539688639311087854e+02
1.831710739487887318e-01 8.691817374857478740e+00 2.539714025878087682e+02
5.872114780489510188e-01 8.691817374857468081e+00 2.539739412445087794e+02
9.912518820490741067e-01 8.691817374857471634e+00 2.539764799011087746e+02
1.395292286048916974e+00 8.691817374857460976e+00 2.539790185578087858e+02
1.799332690148942593e+00 8.691817374857464529e+00 2.539815572145087685e+02
2.203373094148961098e+00 8.691817374857452094e+00 2.539840958711087922e+02
-1.028950138151488058e+00 9.095857778857459053e+00 2.539631201138087704e+02
-6.249097341512739323e-01 9.095857778857459053e+00 2.539656587704087940e+02
-2.208693300512381552e-01 9.095857778857423526e+00 2.539681974271087768e+02
1.831710739489402218e-01 9.095857778857432407e+00 2.539707360838087880e+02
5.872114780490464980e-01 9.095857778857421749e+00 2.539732747404087831e+02
9.912518820490302529e-01 9.095857778857439513e+00 2.539758133971087943e+02
1.395292286048994912e+00 9.095857778857412868e+00 2.539783520538087771e+02
1.799332690148982783e+00 9.095857778857387999e+00 2.539808907104087723e+02
-1.028950138151293991e+00 9.499898182857455353e+00 2.539624536097087741e+02
-6.249097341513513149e-01 9.499898182857471340e+00 2.539649922664087853e+02
-2.208693300511931357e-01 9.499898182857444695e+00 2.539675309231087681e+02
1.831710739487908968e-01 9.499898182857458906e+00 2.539700695797087917e+02
5.872114780488812968e-01 9.499898182857462459e+00 2.539726082364087745e+02
9.912518820489354399e-01 9.499898182857448248e+00 2.539751468931087857e+02
1.395292286048899433e+00 9.499898182857457130e+00 2.539776855498087684e+02
1.799332690148861325e+00 9.499898182857426931e+00 2.539802242064087920e+02
2.203373094149032596e+00 9.499898182857442919e+00 2.539827628631087748e+02
-1.028950138151347948e+00 9.903938586957467649e+00 2.539617871057087939e+02
-6.249097341512621639e-01 9.903938586957460544e+00 2.539643257624087767e+02
-2.208693300513959179e-01 9.903938586957478307e+00 2.539668644191087878e+02
1.831710739487126816e-01 9.903938586957478307e+00 2.539694030757087830e+02
5.872114780487585062e-01 9.903938586957456991e+00 2.539719417324087942e+02
9.912518820488299687e-01 9.903938586957448109e+00 2.539744803891087770e+02
1.395292286048822605e+00 9.903938586957464096e+00 2.539770190457087722e+02
1.799332690148867542e+00 9.903938586957451662e+00 2.539795577024087834e+02
2.203373094149017053e+00 9.903938586957449886e+00 2.539820963591087946e+02
-6.249097341512488413e-01 1.030797899095747461e+01 2.539636592584087680e+02
-2.208693300511956614e-01 1.030797899095746928e+01 2.539661979150087916e+02
1.831710739487773520e-01 1.030797899095744619e+01 2.539687365717087744e+02
5.872114780487928121e-01 1.030797899095743730e+01 2.539712752284087856e+02
9.912518820488291915e-01 1.030797899095745507e+01 2.539738138850087807e+02
1.395292286048751995e+00 1.030797899095740711e+01 2.539763525417087919e+02
1.799332690148874869e+00 1.030797899095741244e+01 2.539788911984087747e+02
2.203373094149018385e+00 1.030797899095743908e+01 2.539814298550087699e+02
-6.249097341511999915e-01 1.071201939505745315e+01 2.539629927543087717e+02
-2.208693300511785362e-01 1.071201939505747447e+01 2.539655314110087829e+02
1.831710739487756034e-01 1.071201939505746381e+01 2.539680700677087941e+02
5.872114780487738273e-01 1.071201939505748157e+01 2.539706087243087893e+02
9.912518820489031324e-01 1.071201939505747802e+01 2.539731473810087721e+02
1.395292286048868347e+00 1.071201939505747625e+01 2.539756860377087833e+02
1.799332690148684577e+00 1.071201939505746559e+01 2.539782246943087785e+02
2.203373094148983746e+00 1.071201939505746026e+01 2.539807633510087896e+02
-6.249097341512322989e-01 1.111605979905748498e+01 2.539623262503087915e+02
-2.208693300511645197e-01 1.111605979905748143e+01 2.539648649070087743e+02
1.831710739488219830e-01 1.111605979905747077e+01 2.539674035637087854e+02
5.872114780487380781e-01 1.111605979905751518e+01 2.539699422203087806e+02
9.912518820488679383e-01 1.111605979905750452e+01 2.539724808770087918e+02
1.395292286048791963e+00 1.111605979905747610e+01 2.539750195337087746e+02
1.799332690148748304e+00 1.111605979905747787e+01 2.539775581903087698e+02
2.203373094149000622e+00 1.111605979905746899e+01 2.539800968470087810e+02
-1.028950138151216054e+00 1.152010020315746885e+01 2.539591210896087716e+02
-6.249097341512079851e-01 1.152010020315747774e+01 2.539616597463087828e+02
-2.208693300512107049e-01 1.152010020315747241e+01 2.539641984030087940e+02
1.831710739487894535e-01 1.152010020315747063e+01 2.539667370596087892e+02
5.872114780487269758e-01 1.152010020315747951e+01 2.539692757163087720e+02
9.912518820488416260e-01 1.152010020315747596e+01 2.539718143730087831e+02
1.395292286048804398e+00 1.152010020315749728e+01 2.539743530296087783e+02
1.799332690148763403e+00 1.152010020315747241e+01 2.539768916863087895e+02
2.203373094148823874e+00 1.152010020315745109e+01 2.539794303430087723e+02
-1.028950138151340177e+00 1.192414060715747581e+01 2.539584545856087914e+02
-6.249097341512208637e-01 1.192414060715745983e+01 2.539609932423087741e+02
-2.208693300512578617e-01 1.192414060715750423e+01 2.539635318989087693e+02
1.831710739489015027e-01 1.192414060715752377e+01 2.539660705556087805e+02
5.872114780489000596e-01 1.192414060715750779e+01 2.539686092123087917e+02
9.912518820488275262e-01 1.192414060715752733e+01 2.539711478689087869e+02
1.395292286048754882e+00 1.192414060715752377e+01 2.539736865256087697e+02
1.799332690148758740e+00 1.192414060715751667e+01 2.539762251823087809e+02
-1.028950138151278448e+00 1.232818101115747567e+01 2.539577880816087827e+02
-6.249097341512260817e-01 1.232818101115751119e+01 2.539603267382087779e+02
-2.208693300513069335e-01 1.232818101115752540e+01 2.539628653949087891e+02
1.831710739488840722e-01 1.232818101115752008e+01 2.539654040516087719e+02
5.872114780488967289e-01 1.232818101115753784e+01 2.539679427083087830e+02
9.912518820488115390e-01 1.232818101115754139e+01 2.539704813649087782e+02
1.395292286048859021e+00 1.232818101115753429e+01 2.539730200216087894e+02
1.799332690148739644e+00 1.232818101115753073e+01 2.539755586783087722e+02
-1.028950138151357940e+00 1.273222141525751105e+01 2.539571215776087740e+02
-6.249097341512274140e-01 1.273222141525749329e+01 2.539596602342087692e+02
-2.208693300512916957e-01 1.273222141525751994e+01 2.539621988909087804e+02
1.831710739487849016e-01 1.273222141525751816e+01 2.539647375476087916e+02
5.872114780488134622e-01 1.273222141525752349e+01 2.539672762042087868e+02
9.912518820488757099e-01 1.273222141525751638e+01 2.539698148609087696e+02
1.395292286048766872e+00 1.273222141525751816e+01 2.539723535176087807e+02
1.799332690148711666e+00 1.273222141525751994e+01 2.539748921742087759e+02
2.203373094148699085e+00 1.273222141525749862e+01 2.539774308309087871e+02
-6.249097341512426240e-01 1.313626181925750025e+01 2.539589937302087890e+02
-2.208693300513047408e-01 1.313626181925750558e+01 2.539615323869087717e+02
1.831710739487849016e-01 1.313626181925751801e+01 2.539640710435087954e+02
5.872114780488001395e-01 1.313626181925751091e+01 2.539666097002087781e+02
9.912518820488617211e-01 1.313626181925751091e+01 2.539691483569087893e+02
1.395292286048813279e+00 1.313626181925752512e+01 2.539716870135087845e+02
1.799332690148743419e+00 1.313626181925749314e+01 2.539742256702087957e+02
2.203373094148699973e+00 1.313626181925749137e+01 2.539767643269087785e+02
1.831710739487860951e-01 1.354030222335750366e+01 2.539634045395087867e+02
5.872114780487709407e-01 1.354030222335751077e+01 2.539659431962087695e+02
9.912518820488146476e-01 1.354030222335751255e+01 2.539684818529087806e+02
2.607413498248810857e+00 1.354030222335749301e+01 2.539786364795087934e+02
