3.046237948303300858e+00 -1.831577502460720597e+00 2.523322867595502998e+02
3.450278284903300907e+00 -1.831577502460720597e+00 2.523293723308503047e+02
3.854318859903300698e+00 -1.831577502460720597e+00 2.523264426433503047e+02
4.258358958103301006e+00 -1.831577502460720597e+00 2.523235129558503047e+02
4.662399771603300991e+00 -1.831577502460720597e+00 2.523205832683503047e+02
5.066440108203301484e+00 -1.831577502460720597e+00 2.523176535808503047e+02
5.470480444803301090e+00 -1.831577502460720597e+00 2.523147391521503096e+02
5.874520781403301584e+00 -1.831577502460720597e+00 2.523118094646503096e+02
6.278561118003301189e+00 -1.831577502460720597e+00 2.523088797771503096e+02
6.682601454603300795e+00 -1.831577502460720597e+00 2.523059500896503096e+02
7.086641791203301288e+00 -1.831577502460720597e+00 2.523030204021503096e+02
7.490682604703301273e+00 -1.831577502460720597e+00 2.523001059734503144e+02
7.894722941303300878e+00 -1.831577502460720597e+00 2.522971762859503144e+02
-4.630529877796698557e+00 -1.427537046560720446e+00 2.523903617107503123e+02
-4.226489064296698572e+00 -1.427537046560720446e+00 2.523874320232503123e+02
-3.822448966096699152e+00 -1.427537046560720446e+00 2.523845023357503123e+02
-3.418408391096699361e+00 -1.427537046560720446e+00 2.523815726482503123e+02
-3.014368054496699312e+00 -1.427537046560720446e+00 2.523786582195502888e+02
-2.610327717896699262e+00 -1.427537046560720446e+00 2.523757285320502888e+02
-2.206287381296699213e+00 -1.427537046560720446e+00 2.523727988445502888e+02
-1.802246925496699070e+00 -1.427537046560720446e+00 2.523698691570502888e+02
-1.398206469596698920e+00 -1.427537046560720446e+00 2.523669394695502888e+02
-9.941660137966989996e-01 -1.427537046560720446e+00 2.523640250408502936e+02
-5.901256771966989501e-01 -1.427537046560720446e+00 2.523610953533502936e+02
-1.860852511966990253e-01 -1.427537046560720446e+00 2.523581656658502936e+02
2.179551450033009596e-01 -1.427537046560720446e+00 2.523552359783502936e+02
6.219955710033009399e-01 -1.427537046560720446e+00 2.523523062908502936e+02
1.026035907603300990e+00 -1.427537046560720446e+00 2.523493918620503109e+02
1.430076363403300910e+00 -1.427537046560720446e+00 2.523464621745503109e+02
1.834116819303301060e+00 -1.427537046560720446e+00 2.523435324870503109e+02
2.238157275103300758e+00 -1.427537046560720446e+00 2.523406027995503109e+02
2.642197611703300808e+00 -1.427537046560720446e+00 2.523376731120503109e+02
3.046237948303300858e+00 -1.427537046560720446e+00 2.523347586833503158e+02
3.450278284903300907e+00 -1.427537046560720446e+00 2.523318289958503158e+02
3.854318859903300698e+00 -1.427537046560720446e+00 2.523288993083503158e+02
4.258358958103301006e+00 -1.427537046560720446e+00 2.523259696208503158e+02
4.662399771603300991e+00 -1.427537046560720446e+00 2.523230399333503158e+02
5.066440108203301484e+00 -1.427537046560720446e+00 2.523201255046502922e+02
5.470480444803301090e+00 -1.427537046560720446e+00 2.523171958171502922e+02
5.874520781403301584e+00 -1.427537046560720446e+00 2.523142661296502922e+02
6.278561118003301189e+00 -1.427537046560720446e+00 2.523113364421502922e+02
6.682601454603300795e+00 -1.427537046560720446e+00 2.523084067546502922e+02
7.086641791203301288e+00 -1.427537046560720446e+00 2.523054923259502971e+02
7.490682604703301273e+00 -1.427537046560720446e+00 2.523025626384502971e+02
7.894722941303300878e+00 -1.427537046560720446e+00 2.522996329509502971e+02
-4.630529877796698557e+00 -1.023496590760720526e+00 2.523928183757502950e+02
-4.226489064296698572e+00 -1.023496590760720526e+00 2.523898886882502950e+02
-3.822448966096699152e+00 -1.023496590760720526e+00 2.523869590007502950e+02
-3.418408391096699361e+00 -1.023496590760720526e+00 2.523840445720502998e+02
-3.014368054496699312e+00 -1.023496590760720526e+00 2.523811148845502998e+02
-2.610327717896699262e+00 -1.023496590760720526e+00 2.523781851970502998e+02
-2.206287381296699213e+00 -1.023496590760720526e+00 2.523752555095502998e+02
-1.802246925496699070e+00 -1.023496590760720526e+00 2.523723258220502998e+02
-1.398206469596698920e+00 -1.023496590760720526e+00 2.523694113933503047e+02
-9.941660137966989996e-01 -1.023496590760720526e+00 2.523664817058503047e+02
-5.901256771966989501e-01 -1.023496590760720526e+00 2.523635520183503047e+02
-1.860852511966990253e-01 -1.023496590760720526e+00 2.523606223308503047e+02
2.179551450033009596e-01 -1.023496590760720526e+00 2.523576926433503047e+02
6.219955710033009399e-01 -1.023496590760720526e+00 2.523547782146503096e+02
1.026035907603300990e+00 -1.023496590760720526e+00 2.523518485271503096e+02
1.430076363403300910e+00 -1.023496590760720526e+00 2.523489188396503096e+02
1.834116819303301060e+00 -1.023496590760720526e+00 2.523459891521503096e+02
2.238157275103300758e+00 -1.023496590760720526e+00 2.523430594646503096e+02
2.642197611703300808e+00 -1.023496590760720526e+00 2.523401450359503144e+02
3.046237948303300858e+00 -1.023496590760720526e+00 2.523372153484503144e+02
3.450278284903300907e+00 -1.023496590760720526e+00 2.523342856609503144e+02
3.854318859903300698e+00 -1.023496590760720526e+00 2.523313559734503144e+02
4.258358958103301006e+00 -1.023496590760720526e+00 2.523284262859503144e+02
4.662399771603300991e+00 -1.023496590760720526e+00 2.523255118572502909e+02
5.066440108203301484e+00 -1.023496590760720526e+00 2.523225821697502909e+02
5.470480444803301090e+00 -1.023496590760720526e+00 2.523196524822502909e+02
5.874520781403301584e+00 -1.023496590760720526e+00 2.523167227947502909e+02
6.278561118003301189e+00 -1.023496590760720526e+00 2.523137931072502909e+02
6.682601454603300795e+00 -1.023496590760720526e+00 2.523108786785502957e+02
7.086641791203301288e+00 -1.023496590760720526e+00 2.523079489910502957e+02
7.490682604703301273e+00 -1.023496590760720526e+00 2.523050193035502957e+02
-5.034570214396699050e+00 -6.194562541607205874e-01 2.523982047283502936e+02
-4.630529877796698557e+00 -6.194562541607205874e-01 2.523952750408502936e+02
-4.226489064296698572e+00 -6.194562541607205874e-01 2.523923606120503109e+02
-3.822448966096699152e+00 -6.194562541607205874e-01 2.523894309245503109e+02
-3.418408391096699361e+00 -6.194562541607205874e-01 2.523865012370503109e+02
-3.014368054496699312e+00 -6.194562541607205874e-01 2.523835715495503109e+02
-2.610327717896699262e+00 -6.194562541607205874e-01 2.523806418620503109e+02
-2.206287381296699213e+00 -6.194562541607205874e-01 2.523777274333503158e+02
-1.802246925496699070e+00 -6.194562541607205874e-01 2.523747977458503158e+02
-1.398206469596698920e+00 -6.194562541607205874e-01 2.523718680583503158e+02
-9.941660137966989996e-01 -6.194562541607205874e-01 2.523689383708503158e+02
-5.901256771966989501e-01 -6.194562541607205874e-01 2.523660086833503158e+02
-1.860852511966990253e-01 -6.194562541607205874e-01 2.523630942546502922e+02
2.179551450033009596e-01 -6.194562541607205874e-01 2.523601645671502922e+02
6.219955710033009399e-01 -6.194562541607205874e-01 2.523572348796502922e+02
1.026035907603300990e+00 -6.194562541607205874e-01 2.523543051921502922e+02
1.430076363403300910e+00 -6.194562541607205874e-01 2.523513755046502922e+02
1.834116819303301060e+00 -6.194562541607205874e-01 2.523484610759502971e+02
2.238157275103300758e+00 -6.194562541607205874e-01 2.523455313884502971e+02
2.642197611703300808e+00 -6.194562541607205874e-01 2.523426017009502971e+02
3.046237948303300858e+00 -6.194562541607205874e-01 2.523396720134502971e+02
3.450278284903300907e+00 -6.194562541607205874e-01 2.523367423259502971e+02
3.854318859903300698e+00 -6.194562541607205874e-01 2.523338278972503019e+02
4.258358958103301006e+00 -6.194562541607205874e-01 2.523308982097503019e+02
4.662399771603300991e+00 -6.194562541607205874e-01 2.523279685222503019e+02
5.066440108203301484e+00 -6.194562541607205874e-01 2.523250388347503019e+02
5.470480444803301090e+00 -6.194562541607205874e-01 2.523221091472503019e+02
5.874520781403301584e+00 -6.194562541607205874e-01 2.523191794597503019e+02
6.278561118003301189e+00 -6.194562541607205874e-01 2.523162650310503068e+02
6.682601454603300795e+00 -6.194562541607205874e-01 2.523133353435503068e+02
7.086641791203301288e+00 -6.194562541607205874e-01 2.523104056560503068e+02
7.490682604703301273e+00 -6.194562541607205874e-01 2.523074759685503068e+02
-4.226489064296698572e+00 -2.154158281607206349e-01 2.523948172771503096e+02
-3.822448966096699152e+00 -2.154158281607206349e-01 2.523918875896503096e+02
-3.418408391096699361e+00 -2.154158281607206349e-01 2.523889579021503096e+02
-3.014368054496699312e+00 -2.154158281607206349e-01 2.523860282146503096e+02
-2.610327717896699262e+00 -2.154158281607206349e-01 2.523831137859503144e+02
-2.206287381296699213e+00 -2.154158281607206349e-01 2.523801840984503144e+02
-1.802246925496699070e+00 -2.154158281607206349e-01 2.523772544109503144e+02
-1.398206469596698920e+00 -2.154158281607206349e-01 2.523743247234503144e+02
-9.941660137966989996e-01 -2.154158281607206349e-01 2.523713950359503144e+02
-5.901256771966989501e-01 -2.154158281607206349e-01 2.523684806072502909e+02
-1.860852511966990253e-01 -2.154158281607206349e-01 2.523655509197502909e+02
2.179551450033009596e-01 -2.154158281607206349e-01 2.523626212322502909e+02
6.219955710033009399e-01 -2.154158281607206349e-01 2.523596915447502909e+02
1.026035907603300990e+00 -2.154158281607206349e-01 2.523567618572502909e+02
1.430076363403300910e+00 -2.154158281607206349e-01 2.523538474285502957e+02
1.834116819303301060e+00 -2.154158281607206349e-01 2.523509177410502957e+02
2.238157275103300758e+00 -2.154158281607206349e-01 2.523479880535502957e+02
2.642197611703300808e+00 -2.154158281607206349e-01 2.523450583660502957e+02
3.046237948303300858e+00 -2.154158281607206349e-01 2.523421286785502957e+02
3.450278284903300907e+00 -2.154158281607206349e-01 2.523392142497503130e+02
3.854318859903300698e+00 -2.154158281607206349e-01 2.523362845622503130e+02
4.258358958103301006e+00 -2.154158281607206349e-01 2.523333548747503130e+02
4.662399771603300991e+00 -2.154158281607206349e-01 2.523304251872503130e+02
5.066440108203301484e+00 -2.154158281607206349e-01 2.523274954997503130e+02
5.470480444803301090e+00 -2.154158281607206349e-01 2.523245810710502894e+02
5.874520781403301584e+00 -2.154158281607206349e-01 2.523216513835502894e+02
6.278561118003301189e+00 -2.154158281607206349e-01 2.523187216960502894e+02
6.682601454603300795e+00 -2.154158281607206349e-01 2.523157920085502894e+02
7.086641791203301288e+00 -2.154158281607206349e-01 2.523128623210502894e+02
7.490682604703301273e+00 -2.154158281607206349e-01 2.523099478923502943e+02
-4.630529877796698557e+00 1.886245680392793500e-01 2.524002036296502922e+02
-4.226489064296698572e+00 1.886245680392793500e-01 2.523972739421502922e+02
-3.822448966096699152e+00 1.886245680392793500e-01 2.523943442546502922e+02
-3.418408391096699361e+00 1.886245680392793500e-01 2.523914145671502922e+02
-3.014368054496699312e+00 1.886245680392793500e-01 2.523885001384502971e+02
-2.610327717896699262e+00 1.886245680392793500e-01 2.523855704509502971e+02
-2.206287381296699213e+00 1.886245680392793500e-01 2.523826407634502971e+02
-1.802246925496699070e+00 1.886245680392793500e-01 2.523797110759502971e+02
-1.398206469596698920e+00 1.886245680392793500e-01 2.523767813884502971e+02
-9.941660137966989996e-01 1.886245680392793500e-01 2.523738669597503019e+02
-5.901256771966989501e-01 1.886245680392793500e-01 2.523709372722503019e+02
-1.860852511966990253e-01 1.886245680392793500e-01 2.523680075847503019e+02
2.179551450033009596e-01 1.886245680392793500e-01 2.523650778972503019e+02
6.219955710033009399e-01 1.886245680392793500e-01 2.523621482097503019e+02
1.026035907603300990e+00 1.886245680392793500e-01 2.523592337810503068e+02
1.430076363403300910e+00 1.886245680392793500e-01 2.523563040935503068e+02
1.834116819303301060e+00 1.886245680392793500e-01 2.523533744060503068e+02
2.238157275103300758e+00 1.886245680392793500e-01 2.523504447185503068e+02
2.642197611703300808e+00 1.886245680392793500e-01 2.523475150310503068e+02
3.046237948303300858e+00 1.886245680392793500e-01 2.523446006023503116e+02
3.450278284903300907e+00 1.886245680392793500e-01 2.523416709148503116e+02
3.854318859903300698e+00 1.886245680392793500e-01 2.523387412273503116e+02
4.258358958103301006e+00 1.886245680392793500e-01 2.523358115398503116e+02
4.662399771603300991e+00 1.886245680392793500e-01 2.523328818523503116e+02
5.066440108203301484e+00 1.886245680392793500e-01 2.523299674236503165e+02
5.470480444803301090e+00 1.886245680392793500e-01 2.523270377361503165e+02
5.874520781403301584e+00 1.886245680392793500e-01 2.523241080486503165e+02
6.278561118003301189e+00 1.886245680392793500e-01 2.523211783611503165e+02
6.682601454603300795e+00 1.886245680392793500e-01 2.523182486736503165e+02
7.086641791203301288e+00 1.886245680392793500e-01 2.523153342449502929e+02
7.490682604703301273e+00 1.886245680392793500e-01 2.523124045574502929e+02
7.894722941303300878e+00 1.886245680392793500e-01 2.523094748699502929e+02
-4.630529877796698557e+00 5.926649940392793026e-01 2.524026602947502909e+02
-4.226489064296698572e+00 5.926649940392793026e-01 2.523997306072502909e+02
-3.822448966096699152e+00 5.926649940392793026e-01 2.523968009197502909e+02
-3.418408391096699361e+00 5.926649940392793026e-01 2.523938864910502957e+02
-3.014368054496699312e+00 5.926649940392793026e-01 2.523909568035502957e+02
-2.610327717896699262e+00 5.926649940392793026e-01 2.523880271160502957e+02
-2.206287381296699213e+00 5.926649940392793026e-01 2.523850974285502957e+02
-1.802246925496699070e+00 5.926649940392793026e-01 2.523821677410502957e+02
-1.398206469596698920e+00 5.926649940392793026e-01 2.523792533122503130e+02
-9.941660137966989996e-01 5.926649940392793026e-01 2.523763236247503130e+02
-5.901256771966989501e-01 5.926649940392793026e-01 2.523733939372503130e+02
-1.860852511966990253e-01 5.926649940392793026e-01 2.523704642497503130e+02
2.179551450033009596e-01 5.926649940392793026e-01 2.523675345622503130e+02
6.219955710033009399e-01 5.926649940392793026e-01 2.523646201335502894e+02
1.026035907603300990e+00 5.926649940392793026e-01 2.523616904460502894e+02
1.430076363403300910e+00 5.926649940392793026e-01 2.523587607585502894e+02
1.834116819303301060e+00 5.926649940392793026e-01 2.523558310710502894e+02
2.238157275103300758e+00 5.926649940392793026e-01 2.523529013835502894e+02
2.642197611703300808e+00 5.926649940392793026e-01 2.523499869548502943e+02
3.046237948303300858e+00 5.926649940392793026e-01 2.523470572673502943e+02
3.450278284903300907e+00 5.926649940392793026e-01 2.523441275798502943e+02
3.854318859903300698e+00 5.926649940392793026e-01 2.523411978923502943e+02
4.258358958103301006e+00 5.926649940392793026e-01 2.523382682048502943e+02
4.662399771603300991e+00 5.926649940392793026e-01 2.523353537761502992e+02
5.066440108203301484e+00 5.926649940392793026e-01 2.523324240886502992e+02
5.470480444803301090e+00 5.926649940392793026e-01 2.523294944011502992e+02
5.874520781403301584e+00 5.926649940392793026e-01 2.523265647136502992e+02
6.278561118003301189e+00 5.926649940392793026e-01 2.523236350261502992e+02
6.682601454603300795e+00 5.926649940392793026e-01 2.523207205974503040e+02
7.086641791203301288e+00 5.926649940392793026e-01 2.523177909099503040e+02
7.490682604703301273e+00 5.926649940392793026e-01 2.523148612224503040e+02
7.894722941303300878e+00 5.926649940392793026e-01 2.523119315349503040e+02
-4.630529877796698557e+00 9.967053306392793521e-01 2.524051169597503019e+02
-4.226489064296698572e+00 9.967053306392793521e-01 2.524021872722503019e+02
-3.822448966096699152e+00 9.967053306392793521e-01 2.523992728435503068e+02
-3.418408391096699361e+00 9.967053306392793521e-01 2.523963431560503068e+02
-3.014368054496699312e+00 9.967053306392793521e-01 2.523934134685503068e+02
-2.610327717896699262e+00 9.967053306392793521e-01 2.523904837810503068e+02
-2.206287381296699213e+00 9.967053306392793521e-01 2.523875540935503068e+02
-1.802246925496699070e+00 9.967053306392793521e-01 2.523846396648503116e+02
-1.398206469596698920e+00 9.967053306392793521e-01 2.523817099773503116e+02
-9.941660137966989996e-01 9.967053306392793521e-01 2.523787802898503116e+02
-5.901256771966989501e-01 9.967053306392793521e-01 2.523758506023503116e+02
-1.860852511966990253e-01 9.967053306392793521e-01 2.523729209148503116e+02
2.179551450033009596e-01 9.967053306392793521e-01 2.523700064861503165e+02
6.219955710033009399e-01 9.967053306392793521e-01 2.523670767986503165e+02
1.026035907603300990e+00 9.967053306392793521e-01 2.523641471111503165e+02
1.430076363403300910e+00 9.967053306392793521e-01 2.523612174236503165e+02
1.834116819303301060e+00 9.967053306392793521e-01 2.523582877361503165e+02
2.238157275103300758e+00 9.967053306392793521e-01 2.523553733074502929e+02
2.642197611703300808e+00 9.967053306392793521e-01 2.523524436199502929e+02
3.046237948303300858e+00 9.967053306392793521e-01 2.523495139324502929e+02
3.450278284903300907e+00 9.967053306392793521e-01 2.523465842449502929e+02
3.854318859903300698e+00 9.967053306392793521e-01 2.523436545574502929e+02
4.258358958103301006e+00 9.967053306392793521e-01 2.523407401286503102e+02
4.662399771603300991e+00 9.967053306392793521e-01 2.523378104411503102e+02
5.066440108203301484e+00 9.967053306392793521e-01 2.523348807536503102e+02
5.470480444803301090e+00 9.967053306392793521e-01 2.523319510661503102e+02
5.874520781403301584e+00 9.967053306392793521e-01 2.523290213786503102e+02
6.278561118003301189e+00 9.967053306392793521e-01 2.523261069499503151e+02
6.682601454603300795e+00 9.967053306392793521e-01 2.523231772624503151e+02
7.086641791203301288e+00 9.967053306392793521e-01 2.523202475749503151e+02
7.490682604703301273e+00 9.967053306392793521e-01 2.523173178874503151e+02
-5.034570214396699050e+00 1.400745786439279383e+00 2.524105033122503130e+02
-4.630529877796698557e+00 1.400745786439279383e+00 2.524075888835502894e+02
-4.226489064296698572e+00 1.400745786439279383e+00 2.524046591960502894e+02
-3.822448966096699152e+00 1.400745786439279383e+00 2.524017295085502894e+02
-3.418408391096699361e+00 1.400745786439279383e+00 2.523987998210502894e+02
-3.014368054496699312e+00 1.400745786439279383e+00 2.523958701335502894e+02
-2.610327717896699262e+00 1.400745786439279383e+00 2.523929557048502943e+02
-2.206287381296699213e+00 1.400745786439279383e+00 2.523900260173502943e+02
-1.802246925496699070e+00 1.400745786439279383e+00 2.523870963298502943e+02
-1.398206469596698920e+00 1.400745786439279383e+00 2.523841666423502943e+02
-9.941660137966989996e-01 1.400745786439279383e+00 2.523812369548502943e+02
-5.901256771966989501e-01 1.400745786439279383e+00 2.523783225261502992e+02
-1.860852511966990253e-01 1.400745786439279383e+00 2.523753928386502992e+02
2.179551450033009596e-01 1.400745786439279383e+00 2.523724631511502992e+02
6.219955710033009399e-01 1.400745786439279383e+00 2.523695334636502992e+02
1.026035907603300990e+00 1.400745786439279383e+00 2.523666037761502992e+02
1.430076363403300910e+00 1.400745786439279383e+00 2.523636893474503040e+02
1.834116819303301060e+00 1.400745786439279383e+00 2.523607596599503040e+02
2.238157275103300758e+00 1.400745786439279383e+00 2.523578299724503040e+02
2.642197611703300808e+00 1.400745786439279383e+00 2.523549002849503040e+02
3.046237948303300858e+00 1.400745786439279383e+00 2.523519705974503040e+02
3.450278284903300907e+00 1.400745786439279383e+00 2.523490409099503040e+02
3.854318859903300698e+00 1.400745786439279383e+00 2.523461264812503089e+02
4.258358958103301006e+00 1.400745786439279383e+00 2.523431967937503089e+02
4.662399771603300991e+00 1.400745786439279383e+00 2.523402671062503089e+02
5.066440108203301484e+00 1.400745786439279383e+00 2.523373374187503089e+02
5.470480444803301090e+00 1.400745786439279383e+00 2.523344077312503089e+02
5.874520781403301584e+00 1.400745786439279383e+00 2.523314933025503137e+02
6.278561118003301189e+00 1.400745786439279383e+00 2.523285636150503137e+02
6.682601454603300795e+00 1.400745786439279383e+00 2.523256339275503137e+02
7.086641791203301288e+00 1.400745786439279383e+00 2.523227042400503137e+02
7.490682604703301273e+00 1.400745786439279383e+00 2.523197745525503137e+02
-4.630529877796698557e+00 1.804786242339279534e+00 2.524100455486503165e+02
-4.226489064296698572e+00 1.804786242339279534e+00 2.524071158611503165e+02
-3.822448966096699152e+00 1.804786242339279534e+00 2.524041861736503165e+02
-3.418408391096699361e+00 1.804786242339279534e+00 2.524012564861503165e+02
-3.014368054496699312e+00 1.804786242339279534e+00 2.523983420574502929e+02
-2.610327717896699262e+00 1.804786242339279534e+00 2.523954123699502929e+02
-2.206287381296699213e+00 1.804786242339279534e+00 2.523924826824502929e+02
-1.802246925496699070e+00 1.804786242339279534e+00 2.523895529949502929e+02
-1.398206469596698920e+00 1.804786242339279534e+00 2.523866233074502929e+02
-9.941660137966989996e-01 1.804786242339279534e+00 2.523837088786503102e+02
-5.901256771966989501e-01 1.804786242339279534e+00 2.523807791911503102e+02
-1.860852511966990253e-01 1.804786242339279534e+00 2.523778495036503102e+02
2.179551450033009596e-01 1.804786242339279534e+00 2.523749198161503102e+02
6.219955710033009399e-01 1.804786242339279534e+00 2.523719901286503102e+02
1.026035907603300990e+00 1.804786242339279534e+00 2.523690756999503151e+02
1.430076363403300910e+00 1.804786242339279534e+00 2.523661460124503151e+02
1.834116819303301060e+00 1.804786242339279534e+00 2.523632163249503151e+02
2.238157275103300758e+00 1.804786242339279534e+00 2.523602866374503151e+02
2.642197611703300808e+00 1.804786242339279534e+00 2.523573569499503151e+02
3.046237948303300858e+00 1.804786242339279534e+00 2.523544425212502915e+02
3.450278284903300907e+00 1.804786242339279534e+00 2.523515128337502915e+02
3.854318859903300698e+00 1.804786242339279534e+00 2.523485831462502915e+02
4.258358958103301006e+00 1.804786242339279534e+00 2.523456534587502915e+02
4.662399771603300991e+00 1.804786242339279534e+00 2.523427237712502915e+02
5.066440108203301484e+00 1.804786242339279534e+00 2.523398093425502964e+02
5.470480444803301090e+00 1.804786242339279534e+00 2.523368796550502964e+02
5.874520781403301584e+00 1.804786242339279534e+00 2.523339499675502964e+02
6.278561118003301189e+00 1.804786242339279534e+00 2.523310202800502964e+02
6.682601454603300795e+00 1.804786242339279534e+00 2.523280905925502964e+02
7.086641791203301288e+00 1.804786242339279534e+00 2.523251761638503012e+02
7.490682604703301273e+00 1.804786242339279534e+00 2.523222464763503012e+02
-5.034570214396699050e+00 2.208826698139279454e+00 2.524154319011502992e+02
-4.630529877796698557e+00 2.208826698139279454e+00 2.524125022136502992e+02
-4.226489064296698572e+00 2.208826698139279454e+00 2.524095725261502992e+02
-3.822448966096699152e+00 2.208826698139279454e+00 2.524066428386502992e+02
-3.418408391096699361e+00 2.208826698139279454e+00 2.524037284099503040e+02
-3.014368054496699312e+00 2.208826698139279454e+00 2.524007987224503040e+02
-2.610327717896699262e+00 2.208826698139279454e+00 2.523978690349503040e+02
-2.206287381296699213e+00 2.208826698139279454e+00 2.523949393474503040e+02
-1.802246925496699070e+00 2.208826698139279454e+00 2.523920096599503040e+02
-1.398206469596698920e+00 2.208826698139279454e+00 2.523890952312503089e+02
-9.941660137966989996e-01 2.208826698139279454e+00 2.523861655437503089e+02
-5.901256771966989501e-01 2.208826698139279454e+00 2.523832358562503089e+02
-1.860852511966990253e-01 2.208826698139279454e+00 2.523803061687503089e+02
2.179551450033009596e-01 2.208826698139279454e+00 2.523773764812503089e+02
6.219955710033009399e-01 2.208826698139279454e+00 2.523744620525503137e+02
1.026035907603300990e+00 2.208826698139279454e+00 2.523715323650503137e+02
1.430076363403300910e+00 2.208826698139279454e+00 2.523686026775503137e+02
1.834116819303301060e+00 2.208826698139279454e+00 2.523656729900503137e+02
2.238157275103300758e+00 2.208826698139279454e+00 2.523627433025503137e+02
2.642197611703300808e+00 2.208826698139279454e+00 2.523598288738502902e+02
3.046237948303300858e+00 2.208826698139279454e+00 2.523568991863502902e+02
3.450278284903300907e+00 2.208826698139279454e+00 2.523539694988502902e+02
3.854318859903300698e+00 2.208826698139279454e+00 2.523510398113502902e+02
4.258358958103301006e+00 2.208826698139279454e+00 2.523481101238502902e+02
4.662399771603300991e+00 2.208826698139279454e+00 2.523451956951502950e+02
5.066440108203301484e+00 2.208826698139279454e+00 2.523422660076502950e+02
5.470480444803301090e+00 2.208826698139279454e+00 2.523393363201502950e+02
5.874520781403301584e+00 2.208826698139279454e+00 2.523364066326502950e+02
6.278561118003301189e+00 2.208826698139279454e+00 2.523334769451502950e+02
6.682601454603300795e+00 2.208826698139279454e+00 2.523305625163503123e+02
7.086641791203301288e+00 2.208826698139279454e+00 2.523276328288503123e+02
7.490682604703301273e+00 2.208826698139279454e+00 2.523247031413503123e+02
-5.034570214396699050e+00 2.612867034739279504e+00 2.524178885661503102e+02
-4.630529877796698557e+00 2.612867034739279504e+00 2.524149588786503102e+02
-4.226489064296698572e+00 2.612867034739279504e+00 2.524120291911503102e+02
-3.822448966096699152e+00 2.612867034739279504e+00 2.524091147624503151e+02
-3.418408391096699361e+00 2.612867034739279504e+00 2.524061850749503151e+02
-3.014368054496699312e+00 2.612867034739279504e+00 2.524032553874503151e+02
-2.610327717896699262e+00 2.612867034739279504e+00 2.524003256999503151e+02
-2.206287381296699213e+00 2.612867034739279504e+00 2.523973960124503151e+02
-1.802246925496699070e+00 2.612867034739279504e+00 2.523944815837502915e+02
-1.398206469596698920e+00 2.612867034739279504e+00 2.523915518962502915e+02
-9.941660137966989996e-01 2.612867034739279504e+00 2.523886222087502915e+02
-5.901256771966989501e-01 2.612867034739279504e+00 2.523856925212502915e+02
-1.860852511966990253e-01 2.612867034739279504e+00 2.523827628337502915e+02
2.179551450033009596e-01 2.612867034739279504e+00 2.523798484050502964e+02
6.219955710033009399e-01 2.612867034739279504e+00 2.523769187175502964e+02
1.026035907603300990e+00 2.612867034739279504e+00 2.523739890300502964e+02
1.430076363403300910e+00 2.612867034739279504e+00 2.523710593425502964e+02
1.834116819303301060e+00 2.612867034739279504e+00 2.523681296550502964e+02
2.238157275103300758e+00 2.612867034739279504e+00 2.523652152263503012e+02
2.642197611703300808e+00 2.612867034739279504e+00 2.523622855388503012e+02
3.046237948303300858e+00 2.612867034739279504e+00 2.523593558513503012e+02
3.450278284903300907e+00 2.612867034739279504e+00 2.523564261638503012e+02
3.854318859903300698e+00 2.612867034739279504e+00 2.523534964763503012e+02
4.258358958103301006e+00 2.612867034739279504e+00 2.523505820476503061e+02
4.662399771603300991e+00 2.612867034739279504e+00 2.523476523601503061e+02
5.066440108203301484e+00 2.612867034739279504e+00 2.523447226726503061e+02
5.470480444803301090e+00 2.612867034739279504e+00 2.523417929851503061e+02
5.874520781403301584e+00 2.612867034739279504e+00 2.523388632976503061e+02
6.278561118003301189e+00 2.612867034739279504e+00 2.523359488689503110e+02
6.682601454603300795e+00 2.612867034739279504e+00 2.523330191814503110e+02
7.086641791203301288e+00 2.612867034739279504e+00 2.523300894939503110e+02
7.490682604703301273e+00 2.612867034739279504e+00 2.523271598064503110e+02
-5.438610550996698656e+00 3.016907371339279553e+00 2.524232749187503089e+02
-5.034570214396699050e+00 3.016907371339279553e+00 2.524203452312503089e+02
-4.630529877796698557e+00 3.016907371339279553e+00 2.524174155437503089e+02
-4.226489064296698572e+00 3.016907371339279553e+00 2.524145011150503137e+02
-3.822448966096699152e+00 3.016907371339279553e+00 2.524115714275503137e+02
-3.418408391096699361e+00 3.016907371339279553e+00 2.524086417400503137e+02
-3.014368054496699312e+00 3.016907371339279553e+00 2.524057120525503137e+02
-2.610327717896699262e+00 3.016907371339279553e+00 2.524027823650503137e+02
-2.206287381296699213e+00 3.016907371339279553e+00 2.523998679363502902e+02
-1.802246925496699070e+00 3.016907371339279553e+00 2.523969382488502902e+02
-1.398206469596698920e+00 3.016907371339279553e+00 2.523940085613502902e+02
-9.941660137966989996e-01 3.016907371339279553e+00 2.523910788738502902e+02
-5.901256771966989501e-01 3.016907371339279553e+00 2.523881491863502902e+02
-1.860852511966990253e-01 3.016907371339279553e+00 2.523852347576502950e+02
2.179551450033009596e-01 3.016907371339279553e+00 2.523823050701502950e+02
6.219955710033009399e-01 3.016907371339279553e+00 2.523793753826502950e+02
1.026035907603300990e+00 3.016907371339279553e+00 2.523764456951502950e+02
1.430076363403300910e+00 3.016907371339279553e+00 2.523735160076502950e+02
1.834116819303301060e+00 3.016907371339279553e+00 2.523706015788503123e+02
2.238157275103300758e+00 3.016907371339279553e+00 2.523676718913503123e+02
2.642197611703300808e+00 3.016907371339279553e+00 2.523647422038503123e+02
3.046237948303300858e+00 3.016907371339279553e+00 2.523618125163503123e+02
3.450278284903300907e+00 3.016907371339279553e+00 2.523588828288503123e+02
3.854318859903300698e+00 3.016907371339279553e+00 2.523559684001502887e+02
4.258358958103301006e+00 3.016907371339279553e+00 2.523530387126502887e+02
4.662399771603300991e+00 3.016907371339279553e+00 2.523501090251502887e+02
5.066440108203301484e+00 3.016907371339279553e+00 2.523471793376502887e+02
5.470480444803301090e+00 3.016907371339279553e+00 2.523442496501502887e+02
5.874520781403301584e+00 3.016907371339279553e+00 2.523413352214502936e+02
6.278561118003301189e+00 3.016907371339279553e+00 2.523384055339502936e+02
6.682601454603300795e+00 3.016907371339279553e+00 2.523354758464502936e+02
7.086641791203301288e+00 3.016907371339279553e+00 2.523325461589502936e+02
7.490682604703301273e+00 3.016907371339279553e+00 2.523296164714502936e+02
-5.438610550996698656e+00 3.420947707939279603e+00 2.524257315837502915e+02
-5.034570214396699050e+00 3.420947707939279603e+00 2.524228171550502964e+02
-4.630529877796698557e+00 3.420947707939279603e+00 2.524198874675502964e+02
-4.226489064296698572e+00 3.420947707939279603e+00 2.524169577800502964e+02
-3.822448966096699152e+00 3.420947707939279603e+00 2.524140280925502964e+02
-3.418408391096699361e+00 3.420947707939279603e+00 2.524110984050502964e+02
-3.014368054496699312e+00 3.420947707939279603e+00 2.524081839763503012e+02
-2.610327717896699262e+00 3.420947707939279603e+00 2.524052542888503012e+02
-2.206287381296699213e+00 3.420947707939279603e+00 2.524023246013503012e+02
-1.802246925496699070e+00 3.420947707939279603e+00 2.523993949138503012e+02
-1.398206469596698920e+00 3.420947707939279603e+00 2.523964652263503012e+02
-9.941660137966989996e-01 3.420947707939279603e+00 2.523935355388503012e+02
-5.901256771966989501e-01 3.420947707939279603e+00 2.523906211101503061e+02
-1.860852511966990253e-01 3.420947707939279603e+00 2.523876914226503061e+02
2.179551450033009596e-01 3.420947707939279603e+00 2.523847617351503061e+02
6.219955710033009399e-01 3.420947707939279603e+00 2.523818320476503061e+02
1.026035907603300990e+00 3.420947707939279603e+00 2.523789023601503061e+02
1.430076363403300910e+00 3.420947707939279603e+00 2.523759879314503110e+02
1.834116819303301060e+00 3.420947707939279603e+00 2.523730582439503110e+02
2.238157275103300758e+00 3.420947707939279603e+00 2.523701285564503110e+02
2.642197611703300808e+00 3.420947707939279603e+00 2.523671988689503110e+02
3.046237948303300858e+00 3.420947707939279603e+00 2.523642691814503110e+02
3.450278284903300907e+00 3.420947707939279603e+00 2.523613547527503158e+02
3.854318859903300698e+00 3.420947707939279603e+00 2.523584250652503158e+02
4.258358958103301006e+00 3.420947707939279603e+00 2.523554953777503158e+02
4.662399771603300991e+00 3.420947707939279603e+00 2.523525656902503158e+02
5.066440108203301484e+00 3.420947707939279603e+00 2.523496360027503158e+02
5.470480444803301090e+00 3.420947707939279603e+00 2.523467215740502922e+02
5.874520781403301584e+00 3.420947707939279603e+00 2.523437918865502922e+02
6.278561118003301189e+00 3.420947707939279603e+00 2.523408621990502922e+02
6.682601454603300795e+00 3.420947707939279603e+00 2.523379325115502922e+02
7.086641791203301288e+00 3.420947707939279603e+00 2.523350028240502922e+02
7.490682604703301273e+00 3.420947707939279603e+00 2.523320883952503095e+02
-5.438610550996698656e+00 3.824988282939279394e+00 2.524282035076502950e+02
-5.034570214396699050e+00 3.824988282939279394e+00 2.524252738201502950e+02
-4.630529877796698557e+00 3.824988282939279394e+00 2.524223441326502950e+02
-4.226489064296698572e+00 3.824988282939279394e+00 2.524194144451502950e+02
-3.822448966096699152e+00 3.824988282939279394e+00 2.524164847576502950e+02
-3.418408391096699361e+00 3.824988282939279394e+00 2.524135703288503123e+02
-3.014368054496699312e+00 3.824988282939279394e+00 2.524106406413503123e+02
-2.610327717896699262e+00 3.824988282939279394e+00 2.524077109538503123e+02
-2.206287381296699213e+00 3.824988282939279394e+00 2.524047812663503123e+02
-1.802246925496699070e+00 3.824988282939279394e+00 2.524018515788503123e+02
-1.398206469596698920e+00 3.824988282939279394e+00 2.523989371501502887e+02
-9.941660137966989996e-01 3.824988282939279394e+00 2.523960074626502887e+02
-5.901256771966989501e-01 3.824988282939279394e+00 2.523930777751502887e+02
-1.860852511966990253e-01 3.824988282939279394e+00 2.523901480876502887e+02
2.179551450033009596e-01 3.824988282939279394e+00 2.523872184001502887e+02
6.219955710033009399e-01 3.824988282939279394e+00 2.523843039714502936e+02
1.026035907603300990e+00 3.824988282939279394e+00 2.523813742839502936e+02
1.430076363403300910e+00 3.824988282939279394e+00 2.523784445964502936e+02
1.834116819303301060e+00 3.824988282939279394e+00 2.523755149089502936e+02
2.238157275103300758e+00 3.824988282939279394e+00 2.523725852214502936e+02
2.642197611703300808e+00 3.824988282939279394e+00 2.523696707927502985e+02
3.046237948303300858e+00 3.824988282939279394e+00 2.523667411052502985e+02
3.450278284903300907e+00 3.824988282939279394e+00 2.523638114177502985e+02
3.854318859903300698e+00 3.824988282939279394e+00 2.523608817302502985e+02
4.258358958103301006e+00 3.824988282939279394e+00 2.523579520427502985e+02
4.662399771603300991e+00 3.824988282939279394e+00 2.523550376140503033e+02
5.066440108203301484e+00 3.824988282939279394e+00 2.523521079265503033e+02
5.470480444803301090e+00 3.824988282939279394e+00 2.523491782390503033e+02
5.874520781403301584e+00 3.824988282939279394e+00 2.523462485515503033e+02
6.278561118003301189e+00 3.824988282939279394e+00 2.523433188640503033e+02
6.682601454603300795e+00 3.824988282939279394e+00 2.523404044353503082e+02
7.086641791203301288e+00 3.824988282939279394e+00 2.523374747478503082e+02
7.490682604703301273e+00 3.824988282939279394e+00 2.523345450603503082e+02
-5.438610550996698656e+00 4.229028381139278814e+00 2.524306601726503061e+02
-5.034570214396699050e+00 4.229028381139278814e+00 2.524277304851503061e+02
-4.630529877796698557e+00 4.229028381139278814e+00 2.524248007976503061e+02
-4.226489064296698572e+00 4.229028381139278814e+00 2.524218711101503061e+02
-3.822448966096699152e+00 4.229028381139278814e+00 2.524189566814503110e+02
-3.418408391096699361e+00 4.229028381139278814e+00 2.524160269939503110e+02
-3.014368054496699312e+00 4.229028381139278814e+00 2.524130973064503110e+02
-2.610327717896699262e+00 4.229028381139278814e+00 2.524101676189503110e+02
-2.206287381296699213e+00 4.229028381139278814e+00 2.524072379314503110e+02
-1.802246925496699070e+00 4.229028381139278814e+00 2.524043235027503158e+02
-1.398206469596698920e+00 4.229028381139278814e+00 2.524013938152503158e+02
-9.941660137966989996e-01 4.229028381139278814e+00 2.523984641277503158e+02
-5.901256771966989501e-01 4.229028381139278814e+00 2.523955344402503158e+02
-1.860852511966990253e-01 4.229028381139278814e+00 2.523926047527503158e+02
2.179551450033009596e-01 4.229028381139278814e+00 2.523896903240502922e+02
6.219955710033009399e-01 4.229028381139278814e+00 2.523867606365502922e+02
1.026035907603300990e+00 4.229028381139278814e+00 2.523838309490502922e+02
1.430076363403300910e+00 4.229028381139278814e+00 2.523809012615502922e+02
1.834116819303301060e+00 4.229028381139278814e+00 2.523779715740502922e+02
2.238157275103300758e+00 4.229028381139278814e+00 2.523750571452503095e+02
2.642197611703300808e+00 4.229028381139278814e+00 2.523721274577503095e+02
3.046237948303300858e+00 4.229028381139278814e+00 2.523691977702503095e+02
3.450278284903300907e+00 4.229028381139278814e+00 2.523662680827503095e+02
3.854318859903300698e+00 4.229028381139278814e+00 2.523633383952503095e+02
4.258358958103301006e+00 4.229028381139278814e+00 2.523604239665503144e+02
4.662399771603300991e+00 4.229028381139278814e+00 2.523574942790503144e+02
5.066440108203301484e+00 4.229028381139278814e+00 2.523545645915503144e+02
5.470480444803301090e+00 4.229028381139278814e+00 2.523516349040503144e+02
5.874520781403301584e+00 4.229028381139278814e+00 2.523487052165503144e+02
6.278561118003301189e+00 4.229028381139278814e+00 2.523457907878502908e+02
6.682601454603300795e+00 4.229028381139278814e+00 2.523428611003502908e+02
7.086641791203301288e+00 4.229028381139278814e+00 2.523399314128502908e+02
7.490682604703301273e+00 4.229028381139278814e+00 2.523370017253502908e+02
-5.438610550996698656e+00 4.633069194639278798e+00 2.524331168376502887e+02
-5.034570214396699050e+00 4.633069194639278798e+00 2.524301871501502887e+02
-4.630529877796698557e+00 4.633069194639278798e+00 2.524272574626502887e+02
-4.226489064296698572e+00 4.633069194639278798e+00 2.524243430339502936e+02
-3.822448966096699152e+00 4.633069194639278798e+00 2.524214133464502936e+02
-3.418408391096699361e+00 4.633069194639278798e+00 2.524184836589502936e+02
-3.014368054496699312e+00 4.633069194639278798e+00 2.524155539714502936e+02
-2.610327717896699262e+00 4.633069194639278798e+00 2.524126242839502936e+02
-2.206287381296699213e+00 4.633069194639278798e+00 2.524097098552502985e+02
-1.802246925496699070e+00 4.633069194639278798e+00 2.524067801677502985e+02
-1.398206469596698920e+00 4.633069194639278798e+00 2.524038504802502985e+02
-9.941660137966989996e-01 4.633069194639278798e+00 2.524009207927502985e+02
-5.901256771966989501e-01 4.633069194639278798e+00 2.523979911052502985e+02
-1.860852511966990253e-01 4.633069194639278798e+00 2.523950766765503033e+02
2.179551450033009596e-01 4.633069194639278798e+00 2.523921469890503033e+02
6.219955710033009399e-01 4.633069194639278798e+00 2.523892173015503033e+02
1.026035907603300990e+00 4.633069194639278798e+00 2.523862876140503033e+02
1.430076363403300910e+00 4.633069194639278798e+00 2.523833579265503033e+02
1.834116819303301060e+00 4.633069194639278798e+00 2.523804434978503082e+02
2.238157275103300758e+00 4.633069194639278798e+00 2.523775138103503082e+02
2.642197611703300808e+00 4.633069194639278798e+00 2.523745841228503082e+02
3.046237948303300858e+00 4.633069194639278798e+00 2.523716544353503082e+02
3.450278284903300907e+00 4.633069194639278798e+00 2.523687247478503082e+02
3.854318859903300698e+00 4.633069194639278798e+00 2.523658103191503130e+02
4.258358958103301006e+00 4.633069194639278798e+00 2.523628806316503130e+02
4.662399771603300991e+00 4.633069194639278798e+00 2.523599509441503130e+02
5.066440108203301484e+00 4.633069194639278798e+00 2.523570212566503130e+02
5.470480444803301090e+00 4.633069194639278798e+00 2.523540915691503130e+02
5.874520781403301584e+00 4.633069194639278798e+00 2.523511771404502895e+02
6.278561118003301189e+00 4.633069194639278798e+00 2.523482474529502895e+02
6.682601454603300795e+00 4.633069194639278798e+00 2.523453177654502895e+02
7.086641791203301288e+00 4.633069194639278798e+00 2.523423880779502895e+02
7.490682604703301273e+00 4.633069194639278798e+00 2.523394583904502895e+02
-5.034570214396699050e+00 5.037109531239279292e+00 2.524326438152503158e+02
-4.630529877796698557e+00 5.037109531239279292e+00 2.524297293865502922e+02
-4.226489064296698572e+00 5.037109531239279292e+00 2.524267996990502922e+02
-3.822448966096699152e+00 5.037109531239279292e+00 2.524238700115502922e+02
-3.418408391096699361e+00 5.037109531239279292e+00 2.524209403240502922e+02
-3.014368054496699312e+00 5.037109531239279292e+00 2.524180106365502922e+02
-2.610327717896699262e+00 5.037109531239279292e+00 2.524150962077503095e+02
-2.206287381296699213e+00 5.037109531239279292e+00 2.524121665202503095e+02
-1.802246925496699070e+00 5.037109531239279292e+00 2.524092368327503095e+02
-1.398206469596698920e+00 5.037109531239279292e+00 2.524063071452503095e+02
-9.941660137966989996e-01 5.037109531239279292e+00 2.524033774577503095e+02
-5.901256771966989501e-01 5.037109531239279292e+00 2.524004630290503144e+02
-1.860852511966990253e-01 5.037109531239279292e+00 2.523975333415503144e+02
2.179551450033009596e-01 5.037109531239279292e+00 2.523946036540503144e+02
6.219955710033009399e-01 5.037109531239279292e+00 2.523916739665503144e+02
1.026035907603300990e+00 5.037109531239279292e+00 2.523887442790503144e+02
1.430076363403300910e+00 5.037109531239279292e+00 2.523858298503502908e+02
1.834116819303301060e+00 5.037109531239279292e+00 2.523829001628502908e+02
2.238157275103300758e+00 5.037109531239279292e+00 2.523799704753502908e+02
2.642197611703300808e+00 5.037109531239279292e+00 2.523770407878502908e+02
3.046237948303300858e+00 5.037109531239279292e+00 2.523741111003502908e+02
3.450278284903300907e+00 5.037109531239279292e+00 2.523711966716502957e+02
3.854318859903300698e+00 5.037109531239279292e+00 2.523682669841502957e+02
4.258358958103301006e+00 5.037109531239279292e+00 2.523653372966502957e+02
4.662399771603300991e+00 5.037109531239279292e+00 2.523624076091502957e+02
5.066440108203301484e+00 5.037109531239279292e+00 2.523594779216502957e+02
5.470480444803301090e+00 5.037109531239279292e+00 2.523565634929503005e+02
5.874520781403301584e+00 5.037109531239279292e+00 2.523536338054503005e+02
6.278561118003301189e+00 5.037109531239279292e+00 2.523507041179503005e+02
6.682601454603300795e+00 5.037109531239279292e+00 2.523477744304503005e+02
7.086641791203301288e+00 5.037109531239279292e+00 2.523448447429503005e+02
7.490682604703301273e+00 5.037109531239279292e+00 2.523419303142503054e+02
-4.630529877796698557e+00 5.441149867839278897e+00 2.524321860515503033e+02
-4.226489064296698572e+00 5.441149867839278897e+00 2.524292563640503033e+02
-3.822448966096699152e+00 5.441149867839278897e+00 2.524263266765503033e+02
-3.418408391096699361e+00 5.441149867839278897e+00 2.524233969890503033e+02
-3.014368054496699312e+00 5.441149867839278897e+00 2.524204825603503082e+02
-2.610327717896699262e+00 5.441149867839278897e+00 2.524175528728503082e+02
-2.206287381296699213e+00 5.441149867839278897e+00 2.524146231853503082e+02
-1.802246925496699070e+00 5.441149867839278897e+00 2.524116934978503082e+02
-1.398206469596698920e+00 5.441149867839278897e+00 2.524087638103503082e+02
-9.941660137966989996e-01 5.441149867839278897e+00 2.524058493816503130e+02
-5.901256771966989501e-01 5.441149867839278897e+00 2.524029196941503130e+02
-1.860852511966990253e-01 5.441149867839278897e+00 2.523999900066503130e+02
2.179551450033009596e-01 5.441149867839278897e+00 2.523970603191503130e+02
6.219955710033009399e-01 5.441149867839278897e+00 2.523941306316503130e+02
1.026035907603300990e+00 5.441149867839278897e+00 2.523912162029502895e+02
1.430076363403300910e+00 5.441149867839278897e+00 2.523882865154502895e+02
1.834116819303301060e+00 5.441149867839278897e+00 2.523853568279502895e+02
2.238157275103300758e+00 5.441149867839278897e+00 2.523824271404502895e+02
2.642197611703300808e+00 5.441149867839278897e+00 2.523794974529502895e+02
3.046237948303300858e+00 5.441149867839278897e+00 2.523765830242502943e+02
3.450278284903300907e+00 5.441149867839278897e+00 2.523736533367502943e+02
3.854318859903300698e+00 5.441149867839278897e+00 2.523707236492502943e+02
4.258358958103301006e+00 5.441149867839278897e+00 2.523677939617502943e+02
4.662399771603300991e+00 5.441149867839278897e+00 2.523648642742502943e+02
5.066440108203301484e+00 5.441149867839278897e+00 2.523619498454503116e+02
5.470480444803301090e+00 5.441149867839278897e+00 2.523590201579503116e+02
5.874520781403301584e+00 5.441149867839278897e+00 2.523560904704503116e+02
6.278561118003301189e+00 5.441149867839278897e+00 2.523531607829503116e+02
6.682601454603300795e+00 5.441149867839278897e+00 2.523502310954503116e+02
7.086641791203301288e+00 5.441149867839278897e+00 2.523473166667503165e+02
7.490682604703301273e+00 5.441149867839278897e+00 2.523443869792503165e+02
-4.226489064296698572e+00 5.845190204439279391e+00 2.524317130290503144e+02
-3.822448966096699152e+00 5.845190204439279391e+00 2.524287986003502908e+02
-3.418408391096699361e+00 5.845190204439279391e+00 2.524258689128502908e+02
-3.014368054496699312e+00 5.845190204439279391e+00 2.524229392253502908e+02
-2.610327717896699262e+00 5.845190204439279391e+00 2.524200095378502908e+02
-2.206287381296699213e+00 5.845190204439279391e+00 2.524170798503502908e+02
-1.802246925496699070e+00 5.845190204439279391e+00 2.524141654216502957e+02
-1.398206469596698920e+00 5.845190204439279391e+00 2.524112357341502957e+02
-9.941660137966989996e-01 5.845190204439279391e+00 2.524083060466502957e+02
-5.901256771966989501e-01 5.845190204439279391e+00 2.524053763591502957e+02
-1.860852511966990253e-01 5.845190204439279391e+00 2.524024466716502957e+02
2.179551450033009596e-01 5.845190204439279391e+00 2.523995322429503005e+02
6.219955710033009399e-01 5.845190204439279391e+00 2.523966025554503005e+02
1.026035907603300990e+00 5.845190204439279391e+00 2.523936728679503005e+02
1.430076363403300910e+00 5.845190204439279391e+00 2.523907431804503005e+02
1.834116819303301060e+00 5.845190204439279391e+00 2.523878134929503005e+02
2.238157275103300758e+00 5.845190204439279391e+00 2.523848990642503054e+02
2.642197611703300808e+00 5.845190204439279391e+00 2.523819693767503054e+02
3.046237948303300858e+00 5.845190204439279391e+00 2.523790396892503054e+02
3.450278284903300907e+00 5.845190204439279391e+00 2.523761100017503054e+02
3.854318859903300698e+00 5.845190204439279391e+00 2.523731803142503054e+02
4.258358958103301006e+00 5.845190204439279391e+00 2.523702506267503054e+02
4.662399771603300991e+00 5.845190204439279391e+00 2.523673361980503103e+02
5.066440108203301484e+00 5.845190204439279391e+00 2.523644065105503103e+02
5.470480444803301090e+00 5.845190204439279391e+00 2.523614768230503103e+02
5.874520781403301584e+00 5.845190204439279391e+00 2.523585471355503103e+02
6.278561118003301189e+00 5.845190204439279391e+00 2.523556174480503103e+02
6.682601454603300795e+00 5.845190204439279391e+00 2.523527030193503151e+02
7.086641791203301288e+00 5.845190204439279391e+00 2.523497733318503151e+02
-4.226489064296698572e+00 6.249230541039278997e+00 2.524341849529502895e+02
-3.822448966096699152e+00 6.249230541039278997e+00 2.524312552654502895e+02
-3.418408391096699361e+00 6.249230541039278997e+00 2.524283255779502895e+02
-3.014368054496699312e+00 6.249230541039278997e+00 2.524253958904502895e+02
-2.610327717896699262e+00 6.249230541039278997e+00 2.524224662029502895e+02
-2.206287381296699213e+00 6.249230541039278997e+00 2.524195517742502943e+02
-1.802246925496699070e+00 6.249230541039278997e+00 2.524166220867502943e+02
-1.398206469596698920e+00 6.249230541039278997e+00 2.524136923992502943e+02
-9.941660137966989996e-01 6.249230541039278997e+00 2.524107627117502943e+02
-5.901256771966989501e-01 6.249230541039278997e+00 2.524078330242502943e+02
-1.860852511966990253e-01 6.249230541039278997e+00 2.524049185954503116e+02
2.179551450033009596e-01 6.249230541039278997e+00 2.524019889079503116e+02
6.219955710033009399e-01 6.249230541039278997e+00 2.523990592204503116e+02
1.026035907603300990e+00 6.249230541039278997e+00 2.523961295329503116e+02
1.430076363403300910e+00 6.249230541039278997e+00 2.523931998454503116e+02
1.834116819303301060e+00 6.249230541039278997e+00 2.523902854167503165e+02
2.238157275103300758e+00 6.249230541039278997e+00 2.523873557292503165e+02
