-1.426707499467451790e+00 -1.272397360199496852e+01 2.529965937734725117e+02
-1.022667095467453935e+00 -1.231993319789496688e+01 2.529984659260724982e+02
-6.186266914675083717e-01 -1.231993319789496866e+01 2.530010045827725094e+02
-2.145862873673713145e-01 -1.231993319789497221e+01 2.530035432393725046e+02
1.894541166326565995e-01 -1.231993319789497576e+01 2.530060818960725157e+02
5.934945207327488870e-01 -1.231993319789497932e+01 2.530086205527724985e+02
9.975349247327274238e-01 -1.231993319789498109e+01 2.530111592093725221e+02
1.401575328732755032e+00 -1.231993319789498287e+01 2.530136978660725049e+02
1.805615732832749121e+00 -1.231993319789498287e+01 2.530162365227725161e+02
2.209656136832729434e+00 -1.231993319789498109e+01 2.530187751793725113e+02
-1.022667095467432841e+00 -1.191589279389496348e+01 2.529977994220725179e+02
-6.186266914674481976e-01 -1.191589279389496525e+01 2.530003380786725131e+02
-2.145862873673704263e-01 -1.191589279389498124e+01 2.530028767353725243e+02
1.894541166326103587e-01 -1.191589279389498301e+01 2.530054153920725071e+02
5.934945207327170236e-01 -1.191589279389497591e+01 2.530079540486725023e+02
9.975349247326857904e-01 -1.191589279389497591e+01 2.530104927053725135e+02
1.401575328732727277e+00 -1.191589279389498124e+01 2.530130313620725246e+02
1.805615732832697384e+00 -1.191589279389497236e+01 2.530155700186725198e+02
2.209656136832748086e+00 -1.191589279389497058e+01 2.530181086753725026e+02
-1.022667095467412191e+00 -1.151185238989495474e+01 2.529971329180725093e+02
-6.186266914674396489e-01 -1.151185238989495296e+01 2.529996715746725044e+02
-2.145862873674394822e-01 -1.151185238989495474e+01 2.530022102313725156e+02
1.894541166326552117e-01 -1.151185238989496362e+01 2.530047488880724984e+02
5.934945207327165795e-01 -1.151185238989497073e+01 2.530072875446725220e+02
9.975349247326849023e-01 -1.151185238989496717e+01 2.530098262013725048e+02
1.401575328732674874e+00 -1.151185238989496362e+01 2.530123648580725160e+02
1.805615732832695608e+00 -1.151185238989495652e+01 2.530149035146725112e+02
-1.022667095467353793e+00 -1.110781198579497087e+01 2.529964664139725130e+02
-6.186266914673737016e-01 -1.110781198579494955e+01 2.529990050706725242e+02
-2.145862873673721749e-01 -1.110781198579496554e+01 2.530015437273725070e+02
1.894541166326746962e-01 -1.110781198579496376e+01 2.530040823839725022e+02
5.934945207326686178e-01 -1.110781198579496198e+01 2.530066210406725133e+02
9.975349247326654734e-01 -1.110781198579496731e+01 2.530091596973725245e+02
1.401575328732701964e+00 -1.110781198579496198e+01 2.530116983539725197e+02
1.805615732832663412e+00 -1.110781198579494777e+01 2.530142370106725025e+02
-1.022667095467331588e+00 -1.070377158179499766e+01 2.529957999099725043e+02
-6.186266914673705930e-01 -1.070377158179497989e+01 2.529983385666725155e+02
-2.145862873673735072e-01 -1.070377158179495147e+01 2.530008772232725107e+02
1.894541166326738635e-01 -1.070377158179495503e+01 2.530034158799725219e+02
5.934945207326504102e-01 -1.070377158179497457e+01 2.530059545366725047e+02
9.975349247326850133e-01 -1.070377158179496746e+01 2.530084931932724999e+02
1.401575328732655334e+00 -1.070377158179496391e+01 2.530110318499725111e+02
1.805615732832646092e+00 -1.070377158179496924e+01 2.530135705066725222e+02
2.209656136832730766e+00 -1.070377158179499233e+01 2.530161091632725174e+02
-6.186266914673216322e-01 -1.029973117769499780e+01 2.529976720625725193e+02
-2.145862873673801685e-01 -1.029973117769498181e+01 2.530002107192725020e+02
1.894541166326280390e-01 -1.029973117769496760e+01 2.530027493759725132e+02
5.934945207326545180e-01 -1.029973117769497826e+01 2.530052880326725244e+02
9.975349247326862345e-01 -1.029973117769498003e+01 2.530078266892725196e+02
1.401575328732686643e+00 -1.029973117769498536e+01 2.530103653459725024e+02
1.805615732832627440e+00 -1.029973117769499780e+01 2.530129040026725136e+02
2.209656136832639728e+00 -1.029973117769499957e+01 2.530154426592725088e+02
-1.022667095467350684e+00 -9.895690773695001496e+00 2.529944669019725154e+02
-6.186266914673119732e-01 -9.895690773694997944e+00 2.529970055585725106e+02
-2.145862873673886340e-01 -9.895690773694994391e+00 2.529995442152725218e+02
1.894541166326212944e-01 -9.895690773694996167e+00 2.530020828719725046e+02
5.934945207326650651e-01 -9.895690773694985509e+00 2.530046215285724998e+02
9.975349247326226187e-01 -9.895690773695008602e+00 2.530071601852725109e+02
1.401575328732699521e+00 -9.895690773695015707e+00 2.530096988419725221e+02
1.805615732832647424e+00 -9.895690773695003273e+00 2.530122374985725173e+02
2.209656136832661932e+00 -9.895690773695012155e+00 2.530147761552725001e+02
-1.022667095467388210e+00 -9.491650369594999859e+00 2.529938003978725192e+02
-6.186266914672852169e-01 -9.491650369594990977e+00 2.529963390545725019e+02
-2.145862873673582694e-01 -9.491650369594985648e+00 2.529988777112725131e+02
1.894541166326700610e-01 -9.491650369594976766e+00 2.530014163678725083e+02
5.934945207327211314e-01 -9.491650369594978542e+00 2.530039550245725195e+02
9.975349247326870117e-01 -9.491650369594989201e+00 2.530064936812725023e+02
1.401575328732676429e+00 -9.491650369595001635e+00 2.530090323378725259e+02
1.805615732832693610e+00 -9.491650369594996306e+00 2.530115709945725087e+02
2.209656136832744977e+00 -9.491650369594983871e+00 2.530141096512725198e+02
-1.022667095467438614e+00 -9.087609965595003558e+00 2.529931338938725105e+02
-6.186266914673645978e-01 -9.087609965594982242e+00 2.529956725505725217e+02
-2.145862873673145821e-01 -9.087609965594952044e+00 2.529982112071725169e+02
1.894541166326731696e-01 -9.087609965594948491e+00 2.530007498638724996e+02
5.934945207326696170e-01 -9.087609965594971584e+00 2.530032885205725108e+02
9.975349247327359725e-01 -9.087609965594971584e+00 2.530058271772725220e+02
1.401575328732743486e+00 -9.087609965594987571e+00 2.530083658338725172e+02
1.805615732832774656e+00 -9.087609965594984018e+00 2.530109044905725000e+02
2.209656136832793827e+00 -9.087609965595003558e+00 2.530134431472725112e+02
-1.022667095467418186e+00 -8.683569561595012587e+00 2.529924673898725018e+02
-6.186266914675073725e-01 -8.683569561595000152e+00 2.529950060465725130e+02
-2.145862873674802829e-01 -8.683569561594996600e+00 2.529975447031725082e+02
1.894541166326575987e-01 -8.683569561595007258e+00 2.530000833598725194e+02
5.934945207327622096e-01 -8.683569561595016140e+00 2.530026220165725022e+02
9.975349247328696434e-01 -8.683569561595016140e+00 2.530051606731725258e+02
1.401575328732937775e+00 -8.683569561595033903e+00 2.530076993298725085e+02
1.805615732832900999e+00 -8.683569561595016140e+00 2.530102379865725197e+02
-1.022667095467501230e+00 -8.279529157495002067e+00 2.529918008858725216e+02
-6.186266914674690698e-01 -8.279529157495010949e+00 2.529943395424725168e+02
-2.145862873673974047e-01 -8.279529157495003844e+00 2.529968781991724995e+02
1.894541166327168014e-01 -8.279529157495010949e+00 2.529994168558725107e+02
5.934945207328754524e-01 -8.279529157495014502e+00 2.530019555124725059e+02
9.975349247329168278e-01 -8.279529157495018055e+00 2.530044941691725171e+02
1.401575328732914683e+00 -8.279529157495019831e+00 2.530070328258724999e+02
1.805615732832976272e+00 -8.279529157495007397e+00 2.530095714824725235e+02
-1.022667095467387544e+00 -7.875488753495043071e+00 2.529911343817725253e+02
-6.186266914673438366e-01 -7.875488753495030636e+00 2.529936730384725081e+02
-2.145862873673172744e-01 -7.875488753495020866e+00 2.529962116951725193e+02
1.894541166327048942e-01 -7.875488753495010208e+00 2.529987503517725145e+02
5.934945207327289030e-01 -7.875488753494996885e+00 2.530012890084725257e+02
9.975349247328219038e-01 -7.875488753495007543e+00 2.530038276651725084e+02
1.401575328732889369e+00 -7.875488753495019978e+00 2.530063663217725036e+02
1.805615732832835940e+00 -7.875488753495028860e+00 2.530089049784725148e+02
-1.426707499467297469e+00 -7.471448349395003241e+00 2.529879292211725215e+02
-1.022667095467247655e+00 -7.471448349395014787e+00 2.529904678777725167e+02
-6.186266914674536377e-01 -7.471448349395007682e+00 2.529930065344724994e+02
-2.145862873674275750e-01 -7.471448349395014787e+00 2.529955451911725106e+02
1.894541166326107473e-01 -7.471448349395008570e+00 2.529980838477725058e+02
5.934945207326411953e-01 -7.471448349394999688e+00 2.530006225044725170e+02
9.975349247326763535e-01 -7.471448349394999688e+00 2.530031611611724998e+02
1.401575328732791892e+00 -7.471448349395021893e+00 2.530056998177725234e+02
1.805615732832873244e+00 -7.471448349395013011e+00 2.530082384744725061e+02
2.209656136832845785e+00 -7.471448349395027222e+00 2.530107771311725173e+02
-1.426707499467164464e+00 -7.067407945395025592e+00 2.529872627170725252e+02
-1.022667095467306719e+00 -7.067407945394992730e+00 2.529898013737725080e+02
-6.186266914673739237e-01 -7.067407945394985624e+00 2.529923400304725192e+02
-2.145862873674208859e-01 -7.067407945394984736e+00 2.529948786870725144e+02
1.894541166325507398e-01 -7.067407945394976743e+00 2.529974173437725256e+02
5.934945207325830197e-01 -7.067407945394985624e+00 2.529999560004725083e+02
9.975349247326271707e-01 -7.067407945394977631e+00 2.530024946570725035e+02
1.401575328732828307e+00 -7.067407945394975854e+00 2.530050333137725147e+02
1.805615732832977827e+00 -7.067407945394986513e+00 2.530075719704725259e+02
2.209656136832902185e+00 -7.067407945394990065e+00 2.530101106270725211e+02
-1.022667095467255205e+00 -6.663367541394980442e+00 2.529891348697724993e+02
-6.186266914673449469e-01 -6.663367541394983107e+00 2.529916735263725229e+02
-2.145862873674226623e-01 -6.663367541394968008e+00 2.529942121830725057e+02
1.894541166325873216e-01 -6.663367541394970672e+00 2.529967508397725169e+02
5.934945207327042560e-01 -6.663367541394967120e+00 2.529992894963725121e+02
9.975349247327301994e-01 -6.663367541394971560e+00 2.530018281530725233e+02
1.401575328732848735e+00 -6.663367541394984883e+00 2.530043668097725060e+02
1.805615732832915210e+00 -6.663367541394986659e+00 2.530069054663725012e+02
2.209656136832758300e+00 -6.663367541394979554e+00 2.530094441230725124e+02
-1.022667095467322262e+00 -6.259327137294994792e+00 2.529884683656725031e+02
-6.186266914672975403e-01 -6.259327137294986798e+00 2.529910070223725143e+02
-2.145862873673574089e-01 -6.259327137294955712e+00 2.529935456790725254e+02
1.894541166326915438e-01 -6.259327137294937948e+00 2.529960843357725082e+02
5.934945207327322336e-01 -6.259327137294934396e+00 2.529986229923725034e+02
9.975349247326991131e-01 -6.259327137294937060e+00 2.530011616490725146e+02
1.401575328732773684e+00 -6.259327137294959265e+00 2.530037003057725258e+02
1.805615732832812625e+00 -6.259327137294976140e+00 2.530062389623725210e+02
2.209656136832717888e+00 -6.259327137294984134e+00 2.530087776190725037e+02
-1.022667095467259646e+00 -5.855286733294994050e+00 2.529878018616725228e+02
-6.186266914673080874e-01 -5.855286733294978063e+00 2.529903405183725056e+02
-2.145862873672840232e-01 -5.855286733294965629e+00 2.529928791750725168e+02
1.894541166328077564e-01 -5.855286733294965629e+00 2.529954178316725120e+02
5.934945207328484740e-01 -5.855286733294961188e+00 2.529979564883725232e+02
9.975349247328090252e-01 -5.855286733294938095e+00 2.530004951450725059e+02
1.401575328732763470e+00 -5.855286733294954082e+00 2.530030338016725011e+02
1.805615732832744902e+00 -5.855286733294962076e+00 2.530055724583725123e+02
2.209656136832676143e+00 -5.855286733294978063e+00 2.530081111150725235e+02
2.613696540932631152e+00 -5.855286733294982504e+00 2.530106497716725187e+02
-1.022667095467304499e+00 -5.451246329195013729e+00 2.529871353576725141e+02
-6.186266914672488015e-01 -5.451246329195003959e+00 2.529896740143725253e+02
-2.145862873670943971e-01 -5.451246329195003071e+00 2.529922126709725205e+02
1.894541166328578552e-01 -5.451246329194995965e+00 2.529947513276725033e+02
5.934945207327857464e-01 -5.451246329194997742e+00 2.529972899843725145e+02
9.975349247328053615e-01 -5.451246329194998630e+00 2.529998286409725097e+02
1.401575328732719505e+00 -5.451246329195000406e+00 2.530023672976725209e+02
1.805615732832708042e+00 -5.451246329195003959e+00 2.530049059543725036e+02
2.209656136832664153e+00 -5.451246329195011953e+00 2.530074446109724988e+02
-1.022667095467304943e+00 -5.047205925195010323e+00 2.529864688536725055e+02
-6.186266914672382544e-01 -5.047205925195012099e+00 2.529890075102725007e+02
-2.145862873671868787e-01 -5.047205925194997000e+00 2.529915461669725119e+02
1.894541166328013726e-01 -5.047205925194997889e+00 2.529940848236725230e+02
5.934945207327535499e-01 -5.047205925194989007e+00 2.529966234803725058e+02
9.975349247327497393e-01 -5.047205925194989007e+00 2.529991621369725010e+02
1.401575328732776127e+00 -5.047205925194999665e+00 2.530017007936725122e+02
1.805615732832797526e+00 -5.047205925195017429e+00 2.530042394503725234e+02
2.209656136832716555e+00 -5.047205925195028975e+00 2.530067781069725186e+02
-1.426707499467310125e+00 -4.643165521195014911e+00 2.529832636929725140e+02
-1.022667095467373555e+00 -4.643165521194990042e+00 2.529858023496725252e+02
-6.186266914673880235e-01 -4.643165521195000700e+00 2.529883410062725204e+02
-2.145862873673280991e-01 -4.643165521194974055e+00 2.529908796629725032e+02
1.894541166327171344e-01 -4.643165521194976719e+00 2.529934183196725144e+02
5.934945207327343430e-01 -4.643165521194991818e+00 2.529959569762725096e+02
9.975349247328733071e-01 -4.643165521194992706e+00 2.529984956329725208e+02
1.401575328732931114e+00 -4.643165521195006917e+00 2.530010342896725035e+02
1.805615732832866582e+00 -4.643165521195023793e+00 2.530035729462724987e+02
-6.186266914674308781e-01 -4.239125117094983963e+00 2.529876745022725117e+02
-2.145862873675194460e-01 -4.239125117095015050e+00 2.529902131589725229e+02
1.894541166326553783e-01 -4.239125117095022155e+00 2.529927518155725181e+02
5.934945207327899652e-01 -4.239125117095039919e+00 2.529952904722725009e+02
9.975349247329199365e-01 -4.239125117095047912e+00 2.529978291289725121e+02
1.401575328732889369e+00 -4.239125117095036366e+00 2.530003677855725073e+02
1.805615732832839937e+00 -4.239125117095048800e+00 2.530029064422725185e+02
-1.022667095467491682e+00 -3.835084713094979669e+00 2.529844693415725203e+02
-6.186266914675017103e-01 -3.835084713094976561e+00 2.529870079982725031e+02
-2.145862873675767890e-01 -3.835084713094970787e+00 2.529895466548724983e+02
1.894541166324333059e-01 -3.835084713094973896e+00 2.529920853115725095e+02
5.934945207325981187e-01 -3.835084713094980113e+00 2.529946239682725206e+02
9.975349247327376379e-01 -3.835084713094986775e+00 2.529971626248725158e+02
1.401575328732718395e+00 -3.835084713094990327e+00 2.529997012815724986e+02
1.805615732832732689e+00 -3.835084713094991660e+00 2.530022399382725098e+02
-1.022667095467686638e+00 -3.431044308994986913e+00 2.529838028375725116e+02
-6.186266914676491480e-01 -3.431044308994987801e+00 2.529863414942725228e+02
-2.145862873677336358e-01 -3.431044308994984249e+00 2.529888801508725180e+02
1.894541166323210624e-01 -3.431044308994985581e+00 2.529914188075725008e+02
5.934945207324071603e-01 -3.431044308994986913e+00 2.529939574642725120e+02
9.975349247325167035e-01 -3.431044308994985137e+00 2.529964961208725072e+02
1.401575328732506787e+00 -3.431044308994985581e+00 2.529990347775725184e+02
1.805615732832553944e+00 -3.431044308994988246e+00 2.530015734342725011e+02
-1.022667095467466369e+00 -3.027003904995015926e+00 2.529831363335725030e+02
-6.186266914675754292e-01 -3.027003904995000827e+00 2.529856749901724982e+02
-2.145862873675559446e-01 -3.027003904995001271e+00 2.529882136468725093e+02
1.894541166325239556e-01 -3.027003904995000383e+00 2.529907523035725205e+02
5.934945207325531547e-01 -3.027003904994999939e+00 2.529932909601725157e+02
9.975349247325709934e-01 -3.027003904994999939e+00 2.529958296168724985e+02
1.401575328732451498e+00 -3.027003904994998162e+00 2.529983682735725097e+02
1.805615732832530851e+00 -3.027003904995008376e+00 2.530009069301725049e+02
-1.022667095467517440e+00 -2.622963500995012964e+00 2.529824698294725067e+02
-6.186266914674444228e-01 -2.622963500995019626e+00 2.529850084861725179e+02
-2.145862873674441174e-01 -2.622963500995023178e+00 2.529875471428725007e+02
1.894541166325233728e-01 -2.622963500995032060e+00 2.529900857994725243e+02
5.934945207324938687e-01 -2.622963500995032504e+00 2.529926244561725071e+02
9.975349247324021285e-01 -2.622963500995032948e+00 2.529951631128725182e+02
1.401575328732444614e+00 -2.622963500995026731e+00 2.529977017694725134e+02
1.805615732832425158e+00 -2.622963500995025399e+00 2.530002404261725246e+02
-1.022667095467296727e+00 -2.218923096895013103e+00 2.529818033254724980e+02
-6.186266914673216322e-01 -2.218923096895016656e+00 2.529843419821725092e+02
-2.145862873674651006e-01 -2.218923096895029090e+00 2.529868806388725204e+02
1.894541166325647841e-01 -2.218923096895035751e+00 2.529894192954725156e+02
5.934945207324002769e-01 -2.218923096895032199e+00 2.529919579521724984e+02
9.975349247323274104e-01 -2.218923096895026870e+00 2.529944966088725096e+02
1.401575328732367565e+00 -2.218923096895017988e+00 2.529970352654725048e+02
1.805615732832368980e+00 -2.218923096895010882e+00 2.529995739221725159e+02
-1.426707499467482876e+00 -1.814882692895007033e+00 2.529785981647725066e+02
-1.022667095467445053e+00 -1.814882692895014360e+00 2.529811368214725178e+02
-6.186266914674665163e-01 -1.814882692895015026e+00 2.529836754781725006e+02
-2.145862873674152516e-01 -1.814882692895020133e+00 2.529862141347725242e+02
1.894541166324245907e-01 -1.814882692895020799e+00 2.529887527914725069e+02
5.934945207323956140e-01 -1.814882692895023464e+00 2.529912914481725181e+02
9.975349247323684887e-01 -1.814882692895026572e+00 2.529938301047725133e+02
1.401575328732452164e+00 -1.814882692895023242e+00 2.529963687614725245e+02
1.805615732832388298e+00 -1.814882692895011251e+00 2.529989074181725073e+02
2.209656136832429230e+00 -1.814882692895010807e+00 2.530014460747725025e+02
-6.186266914674435347e-01 -1.410842288794970756e+00 2.529830089740725043e+02
-2.145862873674911353e-01 -1.410842288794964983e+00 2.529855476307725155e+02
1.894541166325652559e-01 -1.410842288794961652e+00 2.529880862874724983e+02
5.934945207324240357e-01 -1.410842288794958543e+00 2.529906249440725219e+02
9.975349247323674895e-01 -1.410842288794959209e+00 2.529931636007725047e+02
1.401575328732172165e+00 -1.410842288794962984e+00 2.529957022574725158e+02
1.805615732832142939e+00 -1.410842288794960986e+00 2.529982409140725110e+02
2.209656136832260032e+00 -1.410842288794962762e+00 2.530007795707725222e+02
-6.186266914673772543e-01 -1.006801884794969126e+00 2.529823424700725241e+02
-2.145862873673776983e-01 -1.006801884794964463e+00 2.529848811267725068e+02
1.894541166325910131e-01 -1.006801884794965130e+00 2.529874197834725180e+02
5.934945207325438288e-01 -1.006801884794962909e+00 2.529899584400725132e+02
9.975349247324301061e-01 -1.006801884794960467e+00 2.529924970967725244e+02
1.401575328732218573e+00 -1.006801884794957358e+00 2.529950357534725072e+02
1.805615732831997278e+00 -1.006801884794952917e+00 2.529975744100725024e+02
2.209656136831970041e+00 -1.006801884794955582e+00 2.530001130667725135e+02
-6.186266914674185546e-01 -6.027614807949657205e-01 2.529816759660725154e+02
-2.145862873673867743e-01 -6.027614807949706055e-01 2.529842146227724982e+02
1.894541166325818538e-01 -6.027614807949700504e-01 2.529867532793725218e+02
5.934945207325819094e-01 -6.027614807949704945e-01 2.529892919360725045e+02
9.975349247324152291e-01 -6.027614807949661646e-01 2.529918305927725157e+02
1.401575328732281855e+00 -6.027614807949626119e-01 2.529943692493725109e+02
1.805615732832187570e+00 -6.027614807949590592e-01 2.529969079060725221e+02
-1.022667095467698184e+00 -1.987210766949679686e-01 2.529784708053725240e+02
-6.186266914675219164e-01 -1.987210766949699947e-01 2.529810094620725067e+02
-2.145862873674179716e-01 -1.987210766949720764e-01 2.529835481186725019e+02
1.894541166325820480e-01 -1.987210766949716878e-01 2.529860867753725131e+02
5.934945207325855732e-01 -1.987210766949701890e-01 2.529886254320725243e+02
9.975349247324583057e-01 -1.987210766949666640e-01 2.529911640886725195e+02
1.401575328732278081e+00 -1.987210766949629448e-01 2.529937027453725022e+02
1.805615732832313469e+00 -1.987210766949655538e-01 2.529962414020725134e+02
2.209656136832401252e+00 -1.987210766949654983e-01 2.529987800586725086e+02
-1.022667095467588050e+00 2.053193273050252510e-01 2.529778043013725153e+02
-6.186266914676037398e-01 2.053193273050276935e-01 2.529803429579725105e+02
-2.145862873675588589e-01 2.053193273050269718e-01 2.529828816146725217e+02
1.894541166325079129e-01 2.053193273050246404e-01 2.529854202713725044e+02
5.934945207325511563e-01 2.053193273050237244e-01 2.529879589279724996e+02
9.975349247325219215e-01 2.053193273050239742e-01 2.529904975846725108e+02
1.401575328732527659e+00 2.053193273050243906e-01 2.529930362413725220e+02
1.805615732832629439e+00 2.053193273050241685e-01 2.529955748980725048e+02
2.209656136832723217e+00 2.053193273050238632e-01 2.529981135546725000e+02
-1.022667095467578502e+00 6.093597314050279712e-01 2.529771377973725066e+02
-6.186266914676550321e-01 6.093597314050323011e-01 2.529796764539725018e+02
-2.145862873677961691e-01 6.093597314050352987e-01 2.529822151106725130e+02
1.894541166323841230e-01 6.093597314050308578e-01 2.529847537673725242e+02
5.934945207324940908e-01 6.093597314050264169e-01 2.529872924239725194e+02
9.975349247325218105e-01 6.093597314050255287e-01 2.529898310806725021e+02
1.401575328732625803e+00 6.093597314050223090e-01 2.529923697373725133e+02
1.805615732832463571e+00 6.093597314050233082e-01 2.529949083939725085e+02
2.209656136832580664e+00 6.093597314050215319e-01 2.529974470506725197e+02
-6.186266914677946982e-01 1.013400135405041480e+00 2.529790099499725216e+02
-2.145862873678101579e-01 1.013400135405039260e+00 2.529815486066725043e+02
1.894541166323487624e-01 1.013400135405033042e+00 2.529840872632724995e+02
5.934945207323958360e-01 1.013400135405032154e+00 2.529866259199725107e+02
9.975349247325662194e-01 1.013400135405029712e+00 2.529891645766725219e+02
1.401575328732640457e+00 1.013400135405030156e+00 2.529917032332725171e+02
1.805615732832642761e+00 1.013400135405029046e+00 2.529942418899724998e+02
-6.186266914674695139e-01 1.417440539405034450e+00 2.529783434459725129e+02
-2.145862873675355720e-01 1.417440539405030897e+00 2.529808821025725081e+02
1.894541166325409143e-01 1.417440539405028010e+00 2.529834207592725193e+02
5.934945207325194039e-01 1.417440539405028233e+00 2.529859594159725020e+02
9.975349247325039359e-01 1.417440539405026234e+00 2.529884980725725256e+02
1.401575328732460379e+00 1.417440539405032895e+00 2.529910367292725084e+02
1.805615732832407394e+00 1.417440539405034450e+00 2.529935753859725196e+02
-6.186266914675327966e-01 1.821480943505042083e+00 2.529776769419725042e+02
-2.145862873675203342e-01 1.821480943505035199e+00 2.529802155985724994e+02
1.894541166324421044e-01 1.821480943505038974e+00 2.529827542552725106e+02
5.934945207325783567e-01 1.821480943505043637e+00 2.529852929119725218e+02
9.975349247325391300e-01 1.821480943505046746e+00 2.529878315685725170e+02
1.401575328732528325e+00 1.821480943505055627e+00 2.529903702252724997e+02
1.805615732832586140e+00 1.821480943505047412e+00 2.529929088819725109e+02
-6.186266914671927353e-01 2.225521347505043934e+00 2.529770104378725080e+02
-2.145862873671375015e-01 2.225521347505037273e+00 2.529795490945725192e+02
1.894541166326685622e-01 2.225521347505042602e+00 2.529820877512725019e+02
5.934945207325211802e-01 2.225521347505047487e+00 2.529846264078725255e+02
9.975349247323888058e-01 2.225521347505043490e+00 2.529871650645725083e+02
1.401575328732305392e+00 2.225521347505055481e+00 2.529897037212725195e+02
1.805615732832399400e+00 2.225521347505055036e+00 2.529922423778725147e+02
-1.022667095467275633e+00 2.629561751605072217e+00 2.529738052771725165e+02
-6.186266914673634876e-01 2.629561751605070441e+00 2.529763439338724993e+02
-2.145862873674010685e-01 2.629561751605073994e+00 2.529788825905725105e+02
1.894541166325157122e-01 2.629561751605063780e+00 2.529814212471725057e+02
5.934945207324902050e-01 2.629561751605065556e+00 2.529839599038725169e+02
9.975349247325669966e-01 2.629561751605060227e+00 2.529864985605724996e+02
1.401575328732419745e+00 2.629561751605067776e+00 2.529890372171725232e+02
1.805615732832536624e+00 2.629561751605069553e+00 2.529915758738725060e+02
-1.022667095467169718e+00 3.033602155605050310e+00 2.529731387731725079e+02
-6.186266914671185724e-01 3.033602155605046313e+00 2.529756774298725190e+02
-2.145862873672496340e-01 3.033602155605044537e+00 2.529782160865725018e+02
1.894541166325080517e-01 3.033602155605043649e+00 2.529807547431725254e+02
5.934945207323361061e-01 3.033602155605040984e+00 2.529832933998725082e+02
9.975349247324555302e-01 3.033602155605040984e+00 2.529858320565725194e+02
1.401575328732395320e+00 3.033602155605036099e+00 2.529883707131725146e+02
1.805615732832482667e+00 3.033602155605043649e+00 2.529909093698725258e+02
2.209656136832581996e+00 3.033602155605044537e+00 2.529934480265725085e+02
-1.022667095467750364e+00 3.437642559605030623e+00 2.529724722691724992e+02
-6.186266914676841200e-01 3.437642559605031511e+00 2.529750109258725104e+02
-2.145862873675486449e-01 3.437642559605027515e+00 2.529775495824725056e+02
1.894541166326042525e-01 3.437642559605022630e+00 2.529800882391725168e+02
5.934945207326488559e-01 3.437642559605025294e+00 2.529826268958724995e+02
9.975349247326661395e-01 3.437642559605025738e+00 2.529851655524725231e+02
1.401575328732610259e+00 3.437642559605036396e+00 2.529877042091725059e+02
1.805615732832487108e+00 3.437642559605038617e+00 2.529902428658725171e+02
2.209656136832416795e+00 3.437642559605037285e+00 2.529927815224725123e+02
-1.022667095467566512e+00 3.841682963704968756e+00 2.529718057651725189e+02
-6.186266914674657391e-01 3.841682963704960319e+00 2.529743444217725141e+02
-2.145862873675502824e-01 3.841682963704947884e+00 2.529768830784725253e+02
1.894541166324787418e-01 3.841682963704949216e+00 2.529794217351725081e+02
5.934945207325390548e-01 3.841682963704951437e+00 2.529819603917725033e+02
9.975349247325475677e-01 3.841682963704943887e+00 2.529844990484725145e+02
1.401575328732408421e+00 3.841682963704946552e+00 2.529870377051725256e+02
1.805615732832408726e+00 3.841682963704926568e+00 2.529895763617725208e+02
2.209656136832562456e+00 3.841682963704929232e+00 2.529921150184725036e+02
-1.022667095467755471e+00 4.245723367704925977e+00 2.529711392610725227e+02
-6.186266914676292750e-01 4.245723367704917095e+00 2.529736779177725055e+02
-2.145862873674896365e-01 4.245723367704930418e+00 2.529762165744725166e+02
1.894541166327093074e-01 4.245723367704933970e+00 2.529787552310725118e+02
5.934945207327320116e-01 4.245723367704939299e+00 2.529812938877725230e+02
9.975349247327884861e-01 4.245723367704942852e+00 2.529838325444725058e+02
1.401575328732626247e+00 4.245723367704937523e+00 2.529863712011725170e+02
1.805615732832441145e+00 4.245723367704916207e+00 2.529889098577725122e+02
-1.022667095467539422e+00 4.649763771804974688e+00 2.529704727570725140e+02
-6.186266914676294970e-01 4.649763771804977353e+00 2.529730114137725252e+02
-2.145862873677750471e-01 4.649763771804985346e+00 2.529755500704725080e+02
1.894541166322333270e-01 4.649763771804962253e+00 2.529780887270725032e+02
5.934945207323339966e-01 4.649763771804949819e+00 2.529806273837725143e+02
9.975349247324756252e-01 4.649763771804960477e+00 2.529831660404725255e+02
1.401575328732536541e+00 4.649763771804937385e+00 2.529857046970725207e+02
1.805615732832757780e+00 4.649763771804934720e+00 2.529882433537725035e+02
2.209656136832872875e+00 4.649763771804934720e+00 2.529907820104725147e+02
-1.022667095467618692e+00 5.053804175804965659e+00 2.529698062530725053e+02
-6.186266914677002182e-01 5.053804175804961218e+00 2.529723449097725165e+02
-2.145862873676351312e-01 5.053804175804936349e+00 2.529748835663725117e+02
1.894541166324882064e-01 5.053804175804935461e+00 2.529774222230725229e+02
5.934945207324804350e-01 5.053804175804932797e+00 2.529799608797725057e+02
9.975349247326035229e-01 5.053804175804934573e+00 2.529824995363725009e+02
1.401575328732498571e+00 5.053804175804929244e+00 2.529850381930725121e+02
1.805615732832557496e+00 5.053804175804924803e+00 2.529875768497725232e+02
2.209656136832652606e+00 5.053804175804932797e+00 2.529901155063725184e+02
2.613696540932913592e+00 5.053804175804932797e+00 2.529926541630725012e+02
-1.022667095467795662e+00 5.457844579804937979e+00 2.529691397490725251e+02
-6.186266914677382989e-01 5.457844579804932650e+00 2.529716784056725203e+02
-2.145862873676863125e-01 5.457844579804920215e+00 2.529742170623725031e+02
1.894541166323908399e-01 5.457844579804931762e+00 2.529767557190725142e+02
5.934945207324212602e-01 5.457844579804919327e+00 2.529792943756725094e+02
9.975349247324696300e-01 5.457844579804923768e+00 2.529818330323725206e+02
1.401575328732519221e+00 5.457844579804916663e+00 2.529843716890725034e+02
1.805615732832534626e+00 5.457844579804900675e+00 2.529869103457725146e+02
2.209656136832726325e+00 5.457844579804897123e+00 2.529894490023725098e+02
-1.022667095467747922e+00 5.861884983904909419e+00 2.529684732450725164e+02
-6.186266914677563955e-01 5.861884983904897872e+00 2.529710119016725116e+02
-2.145862873676478710e-01 5.861884983904908530e+00 2.529735505583725228e+02
1.894541166324544279e-01 5.861884983904901425e+00 2.529760892150725056e+02
5.934945207324144878e-01 5.861884983904889879e+00 2.529786278716725008e+02
9.975349247324450941e-01 5.861884983904877444e+00 2.529811665283725119e+02
1.401575328732473036e+00 5.861884983904872115e+00 2.529837051850725231e+02
1.805615732832555498e+00 5.861884983904868562e+00 2.529862438416725183e+02
2.209656136832697015e+00 5.861884983904875668e+00 2.529887824983725011e+02
-1.022667095467612919e+00 6.265925387904890620e+00 2.529678067409725202e+02
-6.186266914675729867e-01 6.265925387904900390e+00 2.529703453976725029e+02
-2.145862873675767057e-01 6.265925387904900390e+00 2.529728840543725141e+02
1.894541166324543724e-01 6.265925387904903054e+00 2.529754227109725093e+02
5.934945207324967553e-01 6.265925387904889732e+00 2.529779613676725205e+02
9.975349247325040469e-01 6.265925387904877297e+00 2.529805000243725033e+02
1.401575328732431069e+00 6.265925387904882626e+00 2.529830386809724985e+02
1.805615732832380971e+00 6.265925387904892396e+00 2.529855773376725097e+02
2.209656136832603313e+00 6.265925387904896837e+00 2.529881159943725208e+02
2.613696540932691104e+00 6.265925387904890620e+00 2.529906546509725160e+02
-1.022667095467449938e+00 6.669965792004901139e+00 2.529671402369725115e+02
-6.186266914674694029e-01 6.669965792004902028e+00 2.529696788936725227e+02
-2.145862873674584115e-01 6.669965792004889593e+00 2.529722175502725179e+02
1.894541166326184356e-01 6.669965792004904692e+00 2.529747562069725006e+02
5.934945207324543448e-01 6.669965792004902916e+00 2.529772948636725118e+02
9.975349247323929136e-01 6.669965792004891370e+00 2.529798335202725070e+02
1.401575328732229231e+00 6.669965792004886040e+00 2.529823721769725182e+02
1.805615732832207554e+00 6.669965792004887817e+00 2.529849108336725010e+02
-1.022667095467422183e+00 7.074006196004937408e+00 2.529664737329725028e+02
-6.186266914673905770e-01 7.074006196004933855e+00 2.529690123896725140e+02
-2.145862873673707594e-01 7.074006196004930302e+00 2.529715510462725092e+02
1.894541166326398907e-01 7.074006196004921421e+00 2.529740897029725204e+02
5.934945207324835437e-01 7.074006196004901881e+00 2.529766283596725032e+02
9.975349247323389568e-01 7.074006196004900993e+00 2.529791670162724984e+02
1.401575328732127756e+00 7.074006196004900993e+00 2.529817056729725095e+02
1.805615732832190901e+00 7.074006196004896552e+00 2.529842443296725207e+02
-1.022667095467366227e+00 7.478046600004943478e+00 2.529658072289725226e+02
-6.186266914673358430e-01 7.478046600004953248e+00 2.529683458855725178e+02
-2.145862873673263782e-01 7.478046600004955913e+00 2.529708845422725005e+02
1.894541166326168813e-01 7.478046600004955913e+00 2.529734231989725117e+02
5.934945207325091898e-01 7.478046600004936373e+00 2.529759618555725069e+02
9.975349247323147539e-01 7.478046600004947919e+00 2.529785005122725181e+02
1.401575328732233228e+00 7.478046600004941702e+00 2.529810391689725009e+02
1.805615732832309250e+00 7.478046600004945255e+00 2.529835778255725245e+02
-1.022667095467477028e+00 7.882087004104975314e+00 2.529651407248724979e+02
-6.186266914673693718e-01 7.882087004104974426e+00 2.529676793815725091e+02
-2.145862873673687055e-01 7.882087004104968209e+00 2.529702180382725203e+02
1.894541166325946491e-01 7.882087004104962880e+00 2.529727566948725155e+02
5.934945207325075245e-01 7.882087004104953110e+00 2.529752953515724982e+02
9.975349247324566404e-01 7.882087004104954886e+00 2.529778340082725094e+02
1.401575328732461934e+00 7.882087004104959327e+00 2.529803726648725046e+02
1.805615732832377196e+00 7.882087004104965544e+00 2.529829113215725158e+02
2.209656136832387485e+00 7.882087004104976202e+00 2.529854499782724986e+02
2.613696540932548107e+00 7.882087004104948669e+00 2.529879886348725222e+02
-1.022667095467486131e+00 8.286127408104968950e+00 2.529644742208725177e+02
-6.186266914674670714e-01 8.286127408104974279e+00 2.529670128775725004e+02
-2.145862873673994864e-01 8.286127408104963621e+00 2.529695515341725240e+02
1.894541166325492410e-01 8.286127408104947634e+00 2.529720901908725068e+02
5.934945207325471594e-01 8.286127408104967174e+00 2.529746288475725180e+02
9.975349247325787649e-01 8.286127408104965397e+00 2.529771675042725008e+02
1.401575328732580283e+00 8.286127408104968950e+00 2.529797061608725244e+02
1.805615732832546172e+00 8.286127408104977832e+00 2.529822448175725071e+02
2.209656136832595319e+00 8.286127408104972503e+00 2.529847834742725183e+02
-1.022667095467657328e+00 8.690167812204959930e+00 2.529638077168725090e+02
-6.186266914675297990e-01 8.690167812204975917e+00 2.529663463735725202e+02
-2.145862873675001281e-01 8.690167812204991904e+00 2.529688850301725154e+02
1.894541166325258152e-01 8.690167812204986575e+00 2.529714236868724981e+02
5.934945207326340899e-01 8.690167812204979469e+00 2.529739623435725093e+02
9.975349247327160995e-01 8.690167812204981246e+00 2.529765010001725045e+02
1.401575328732611370e+00 8.690167812204974140e+00 2.529790396568725157e+02
1.805615732832628328e+00 8.690167812204975917e+00 2.529815783135724985e+02
2.209656136832640616e+00 8.690167812204968811e+00 2.529841169701725221e+02
-1.426707499467789075e+00 9.094208216204970441e+00 2.529606025561725176e+02
-1.022667095467658660e+00 9.094208216204972217e+00 2.529631412128725003e+02
-6.186266914675159212e-01 9.094208216204972217e+00 2.529656798694725239e+02
-2.145862873674921067e-01 9.094208216204949125e+00 2.529682185261725067e+02
1.894541166326268178e-01 9.094208216204954454e+00 2.529707571828725179e+02
5.934945207326977057e-01 9.094208216204949125e+00 2.529732958394725131e+02
9.975349247326867896e-01 9.094208216204959783e+00 2.529758344961725243e+02
1.401575328732663106e+00 9.094208216204942019e+00 2.529783731528725070e+02
1.805615732832655196e+00 9.094208216204924256e+00 2.529809118094725022e+02
-1.426707499467622764e+00 9.498248620204950754e+00 2.529599360521725089e+02
-1.022667095467529208e+00 9.498248620204970294e+00 2.529624747087725041e+02
-6.186266914675675466e-01 9.498248620204980952e+00 2.529650133654725153e+02
-2.145862873674620752e-01 9.498248620204963188e+00 2.529675520221724980e+02
1.894541166325272863e-01 9.498248620204972070e+00 2.529700906787725216e+02
5.934945207325875716e-01 9.498248620204973847e+00 2.529726293354725044e+02
9.975349247326236179e-01 9.498248620204964965e+00 2.529751679921725156e+02
1.401575328732599601e+00 9.498248620204972070e+00 2.529777066488724984e+02
1.805615732832574150e+00 9.498248620204950754e+00 2.529802453054725220e+02
2.209656136832688134e+00 9.498248620204961412e+00 2.529827839621725047e+02
-1.426707499467607221e+00 9.902289024304989695e+00 2.529592695481725002e+02
-1.022667095467565179e+00 9.902289024304979037e+00 2.529618082047725238e+02
-6.186266914675080386e-01 9.902289024304973708e+00 2.529643468614725066e+02
-2.145862873675972726e-01 9.902289024304986143e+00 2.529668855181725178e+02
1.894541166324751336e-01 9.902289024304986143e+00 2.529694241747725130e+02
5.934945207325057481e-01 9.902289024304971932e+00 2.529719628314725242e+02
9.975349247325533408e-01 9.902289024304964826e+00 2.529745014881725069e+02
1.401575328732548531e+00 9.902289024304975484e+00 2.529770401447725021e+02
1.805615732832578368e+00 9.902289024304968379e+00 2.529795788014725133e+02
2.209656136832678364e+00 9.902289024304966603e+00 2.529821174581725245e+02
2.613696540932810564e+00 9.902289024304966603e+00 2.529846561147725197e+02
-6.186266914674992679e-01 1.030632942830498244e+01 2.529636803574724979e+02
-2.145862873674637683e-01 1.030632942830497889e+01 2.529662190140725215e+02
1.894541166325182380e-01 1.030632942830496468e+01 2.529687576707725043e+02
5.934945207325285077e-01 1.030632942830495935e+01 2.529712963274725155e+02
9.975349247325527857e-01 1.030632942830497001e+01 2.529738349840725107e+02
1.401575328732501458e+00 1.030632942830493803e+01 2.529763736407725219e+02
1.805615732832583253e+00 1.030632942830494159e+01 2.529789122974725046e+02
2.209656136832678808e+00 1.030632942830495935e+01 2.529814509540724998e+02
-6.186266914674666273e-01 1.071036983240496809e+01 2.529630138533725017e+02
-2.145862873674523608e-01 1.071036983240498230e+01 2.529655525100725129e+02
1.894541166325170722e-01 1.071036983240497698e+01 2.529680911667725240e+02
5.934945207325158512e-01 1.071036983240498763e+01 2.529706298233725192e+02
9.975349247326020796e-01 1.071036983240498586e+01 2.529731684800725020e+02
1.401575328732578951e+00 1.071036983240498408e+01 2.529757071367725132e+02
1.805615732832456466e+00 1.071036983240497698e+01 2.529782457933725084e+02
2.209656136832655715e+00 1.071036983240497342e+01 2.529807844500725196e+02
-6.186266914674881656e-01 1.111441023640498926e+01 2.529623473493725214e+02
-2.145862873674430071e-01 1.111441023640498749e+01 2.529648860060725042e+02
1.894541166325479919e-01 1.111441023640498038e+01 2.529674246627725154e+02
5.934945207324920924e-01 1.111441023640501058e+01 2.529699633193725106e+02
9.975349247325786539e-01 1.111441023640500347e+01 2.529725019760725218e+02
1.401575328732528103e+00 1.111441023640498393e+01 2.529750406327725045e+02
1.805615732832498876e+00 1.111441023640498393e+01 2.529775792893724997e+02
2.209656136832667261e+00 1.111441023640497860e+01 2.529801179460725109e+02
-1.022667095467477472e+00 1.151845064050497847e+01 2.529591421886725016e+02
-6.186266914674720674e-01 1.151845064050498557e+01 2.529616808453725127e+02
-2.145862873674738158e-01 1.151845064050498024e+01 2.529642195020725239e+02
1.894541166325263148e-01 1.151845064050498024e+01 2.529667581586725191e+02
5.934945207324846539e-01 1.151845064050498557e+01 2.529692968153725019e+02
9.975349247325611124e-01 1.151845064050498380e+01 2.529718354720725131e+02
1.401575328732536319e+00 1.151845064050499801e+01 2.529743741286725083e+02
1.805615732832508868e+00 1.151845064050498202e+01 2.529769127853725195e+02
2.209656136832549134e+00 1.151845064050496781e+01 2.529794514420725022e+02
-1.022667095467560072e+00 1.192249104450498365e+01 2.529584756846725213e+02
-6.186266914674805051e-01 1.192249104450497299e+01 2.529610143413725041e+02
-2.145862873675052629e-01 1.192249104450500319e+01 2.529635529979724993e+02
1.894541166326010051e-01 1.192249104450501562e+01 2.529660916546725105e+02
5.934945207326000061e-01 1.192249104450500496e+01 2.529686303113725216e+02
9.975349247325516755e-01 1.192249104450501918e+01 2.529711689679725168e+02
1.401575328732503234e+00 1.192249104450501562e+01 2.529737076246724996e+02
1.805615732832505760e+00 1.192249104450501029e+01 2.529762462813725108e+02
-1.022667095467518994e+00 1.232653144850498350e+01 2.529578091806725126e+02
-6.186266914674840578e-01 1.232653144850500659e+01 2.529603478372725078e+02
-2.145862873675379590e-01 1.232653144850501725e+01 2.529628864939725190e+02
1.894541166325893755e-01 1.232653144850501370e+01 2.529654251506725018e+02
5.934945207325977856e-01 1.232653144850502613e+01 2.529679638073725130e+02
9.975349247325410174e-01 1.232653144850502791e+01 2.529705024639725082e+02
1.401575328732572734e+00 1.232653144850502258e+01 2.529730411206725194e+02
1.805615732832493103e+00 1.232653144850501903e+01 2.529755797773725021e+02
-1.426707499467551488e+00 1.273057185260499757e+01 2.529546040199725212e+02
-1.022667095467572063e+00 1.273057185260500646e+01 2.529571426766725040e+02
-6.186266914674849460e-01 1.273057185260499580e+01 2.529596813332724992e+02
-2.145862873675278004e-01 1.273057185260501356e+01 2.529622199899725103e+02
1.894541166325232895e-01 1.273057185260501178e+01 2.529647586466725215e+02
5.934945207325423855e-01 1.273057185260501534e+01 2.529672973032725167e+02
9.975349247325838720e-01 1.273057185260501178e+01 2.529698359599724995e+02
1.401575328732511228e+00 1.273057185260501356e+01 2.529723746166725107e+02
1.805615732832474452e+00 1.273057185260501356e+01 2.529749132732725059e+02
2.209656136832466089e+00 1.273057185260499935e+01 2.529774519299725171e+02
-1.022667095467530540e+00 1.313461225660500098e+01 2.529564761725725077e+02
-6.186266914674951600e-01 1.313461225660500098e+01 2.529590148292725189e+02
-2.145862873675364879e-01 1.313461225660500453e+01 2.529615534859725017e+02
1.894541166325232895e-01 1.313461225660501164e+01 2.529640921425725253e+02
5.934945207325335037e-01 1.313461225660500808e+01 2.529666307992725081e+02
9.975349247325744351e-01 1.313461225660500808e+01 2.529691694559725192e+02
1.401575328732542092e+00 1.313461225660501697e+01 2.529717081125725144e+02
1.805615732832495768e+00 1.313461225660499565e+01 2.529742467692725256e+02
2.209656136832466533e+00 1.313461225660499565e+01 2.529767854259725084e+02
-1.426707499467661400e+00 1.353865266070500084e+01 2.529532710118725163e+02
-1.022667095467494347e+00 1.353865266070499196e+01 2.529558096685724990e+02
-6.186266914674853901e-01 1.353865266070500084e+01 2.529583483252725102e+02
1.894541166325240666e-01 1.353865266070500262e+01 2.529634256385725166e+02
5.934945207325139638e-01 1.353865266070500795e+01 2.529659642952724994e+02
9.975349247325431268e-01 1.353865266070500795e+01 2.529685029519725106e+02
1.401575328732541204e+00 1.353865266070502571e+01 2.529710416085725058e+02
1.805615732832555942e+00 1.353865266070499906e+01 2.529735802652725170e+02
2.613696540932540557e+00 1.353865266070499551e+01 2.529786575785725233e+02
-1.022667095467494347e+00 1.394269306470499181e+01 2.529551431645725188e+02
