7.082295896593310047e+00 -1.071681262700779769e+01 2.516489243394456707e+02
7.486336710093310032e+00 -1.071681262700779769e+01 2.516459946519456707e+02
7.890377046693309637e+00 -1.071681262700779769e+01 2.516430802232456756e+02
8.294417383293309243e+00 -1.071681262700779769e+01 2.516401505357456756e+02
-5.442956445606689897e+00 -1.031277229040779808e+01 2.517421097642456687e+02
-5.038916109006690291e+00 -1.031277229040779808e+01 2.517391800767456687e+02
-4.634875772406689798e+00 -1.031277229040779808e+01 2.517362656480456735e+02
-4.230834958906689813e+00 -1.031277229040779808e+01 2.517333359605456735e+02
-3.826794860706689949e+00 -1.031277229040779808e+01 2.517304062730456735e+02
-3.422754285706690158e+00 -1.031277229040779808e+01 2.517274765855456735e+02
-3.018713949106690109e+00 -1.031277229040779808e+01 2.517245468980456735e+02
-2.614673612506690059e+00 -1.031277229040779808e+01 2.517216324693456500e+02
-2.210633275906690010e+00 -1.031277229040779808e+01 2.517187027818456500e+02
-1.806592820106690311e+00 -1.031277229040779808e+01 2.517157730943456500e+02
-1.402552364206690161e+00 -1.031277229040779808e+01 2.517128434068456500e+02
-9.985119084066902406e-01 -1.031277229040779808e+01 2.517099137193456500e+02
-5.944715718066901911e-01 -1.031277229040779808e+01 2.517069992906456548e+02
-1.904311458066901830e-01 -1.031277229040779808e+01 2.517040696031456548e+02
2.136092503933098019e-01 -1.031277229040779808e+01 2.517011399156456548e+02
6.176496763933096990e-01 -1.031277229040779808e+01 2.516982102281456548e+02
1.021690012993309749e+00 -1.031277229040779808e+01 2.516952805406456548e+02
1.425730468793309669e+00 -1.031277229040779808e+01 2.516923661118456721e+02
1.829770924693309819e+00 -1.031277229040779808e+01 2.516894364243456721e+02
2.233811380493309962e+00 -1.031277229040779808e+01 2.516865067368456721e+02
2.637851717093310011e+00 -1.031277229040779808e+01 2.516835770493456721e+02
3.041892053693310061e+00 -1.031277229040779808e+01 2.516806473618456721e+02
3.445932390293310110e+00 -1.031277229040779808e+01 2.516777329331456485e+02
3.849972965293309901e+00 -1.031277229040779808e+01 2.516748032456456485e+02
4.254013063493309765e+00 -1.031277229040779808e+01 2.516718735581456485e+02
4.658053876993309750e+00 -1.031277229040779808e+01 2.516689438706456485e+02
5.062094213593310243e+00 -1.031277229040779808e+01 2.516660141831456485e+02
5.466134550193309849e+00 -1.031277229040779808e+01 2.516630997544456534e+02
5.870174886793310343e+00 -1.031277229040779808e+01 2.516601700669456534e+02
6.274215223393309948e+00 -1.031277229040779808e+01 2.516572403794456534e+02
6.678255559993309554e+00 -1.031277229040779808e+01 2.516543106919456534e+02
7.082295896593310047e+00 -1.031277229040779808e+01 2.516513810044456534e+02
7.486336710093310032e+00 -1.031277229040779808e+01 2.516484665757456582e+02
7.890377046693309637e+00 -1.031277229040779808e+01 2.516455368882456582e+02
8.294417383293309243e+00 -1.031277229040779808e+01 2.516426072007456582e+02
-5.442956445606689897e+00 -9.908731953807796700e+00 2.517445664292456513e+02
-5.038916109006690291e+00 -9.908731953807796700e+00 2.517416520005456562e+02
-4.634875772406689798e+00 -9.908731953807796700e+00 2.517387223130456562e+02
-4.230834958906689813e+00 -9.908731953807796700e+00 2.517357926255456562e+02
-3.826794860706689949e+00 -9.908731953807796700e+00 2.517328629380456562e+02
-3.422754285706690158e+00 -9.908731953807796700e+00 2.517299332505456562e+02
-3.018713949106690109e+00 -9.908731953807796700e+00 2.517270188218456610e+02
-2.614673612506690059e+00 -9.908731953807796700e+00 2.517240891343456610e+02
-2.210633275906690010e+00 -9.908731953807796700e+00 2.517211594468456610e+02
-1.806592820106690311e+00 -9.908731953807796700e+00 2.517182297593456610e+02
-1.402552364206690161e+00 -9.908731953807796700e+00 2.517153000718456610e+02
-9.985119084066902406e-01 -9.908731953807796700e+00 2.517123856431456659e+02
-5.944715718066901911e-01 -9.908731953807796700e+00 2.517094559556456659e+02
-1.904311458066901830e-01 -9.908731953807796700e+00 2.517065262681456659e+02
2.136092503933098019e-01 -9.908731953807796700e+00 2.517035965806456659e+02
6.176496763933096990e-01 -9.908731953807796700e+00 2.517006668931456659e+02
1.021690012993309749e+00 -9.908731953807796700e+00 2.516977524644456707e+02
1.425730468793309669e+00 -9.908731953807796700e+00 2.516948227769456707e+02
1.829770924693309819e+00 -9.908731953807796700e+00 2.516918930894456707e+02
2.233811380493309962e+00 -9.908731953807796700e+00 2.516889634019456707e+02
2.637851717093310011e+00 -9.908731953807796700e+00 2.516860337144456707e+02
3.041892053693310061e+00 -9.908731953807796700e+00 2.516831192857456756e+02
3.445932390293310110e+00 -9.908731953807796700e+00 2.516801895982456756e+02
3.849972965293309901e+00 -9.908731953807796700e+00 2.516772599107456756e+02
4.254013063493309765e+00 -9.908731953807796700e+00 2.516743302232456756e+02
4.658053876993309750e+00 -9.908731953807796700e+00 2.516714005357456756e+02
5.062094213593310243e+00 -9.908731953807796700e+00 2.516684861070456520e+02
5.466134550193309849e+00 -9.908731953807796700e+00 2.516655564195456520e+02
5.870174886793310343e+00 -9.908731953807796700e+00 2.516626267320456520e+02
6.274215223393309948e+00 -9.908731953807796700e+00 2.516596970445456520e+02
6.678255559993309554e+00 -9.908731953807796700e+00 2.516567673570456520e+02
7.082295896593310047e+00 -9.908731953807796700e+00 2.516538529282456693e+02
7.486336710093310032e+00 -9.908731953807796700e+00 2.516509232407456693e+02
7.890377046693309637e+00 -9.908731953807796700e+00 2.516479935532456693e+02
-5.846996782206690391e+00 -9.504691617207797094e+00 2.517499680406456548e+02
-5.442956445606689897e+00 -9.504691617207797094e+00 2.517470383531456548e+02
-5.038916109006690291e+00 -9.504691617207797094e+00 2.517441086656456548e+02
-4.634875772406689798e+00 -9.504691617207797094e+00 2.517411789781456548e+02
-4.230834958906689813e+00 -9.504691617207797094e+00 2.517382492906456548e+02
-3.826794860706689949e+00 -9.504691617207797094e+00 2.517353348618456721e+02
-3.422754285706690158e+00 -9.504691617207797094e+00 2.517324051743456721e+02
-3.018713949106690109e+00 -9.504691617207797094e+00 2.517294754868456721e+02
-2.614673612506690059e+00 -9.504691617207797094e+00 2.517265457993456721e+02
-2.210633275906690010e+00 -9.504691617207797094e+00 2.517236161118456721e+02
-1.806592820106690311e+00 -9.504691617207797094e+00 2.517207016831456485e+02
-1.402552364206690161e+00 -9.504691617207797094e+00 2.517177719956456485e+02
-9.985119084066902406e-01 -9.504691617207797094e+00 2.517148423081456485e+02
-5.944715718066901911e-01 -9.504691617207797094e+00 2.517119126206456485e+02
-1.904311458066901830e-01 -9.504691617207797094e+00 2.517089829331456485e+02
2.136092503933098019e-01 -9.504691617207797094e+00 2.517060685044456534e+02
6.176496763933096990e-01 -9.504691617207797094e+00 2.517031388169456534e+02
1.021690012993309749e+00 -9.504691617207797094e+00 2.517002091294456534e+02
1.425730468793309669e+00 -9.504691617207797094e+00 2.516972794419456534e+02
1.829770924693309819e+00 -9.504691617207797094e+00 2.516943497544456534e+02
2.233811380493309962e+00 -9.504691617207797094e+00 2.516914200669456534e+02
2.637851717093310011e+00 -9.504691617207797094e+00 2.516885056382456582e+02
3.041892053693310061e+00 -9.504691617207797094e+00 2.516855759507456582e+02
3.445932390293310110e+00 -9.504691617207797094e+00 2.516826462632456582e+02
3.849972965293309901e+00 -9.504691617207797094e+00 2.516797165757456582e+02
4.254013063493309765e+00 -9.504691617207797094e+00 2.516767868882456582e+02
4.658053876993309750e+00 -9.504691617207797094e+00 2.516738724595456631e+02
5.062094213593310243e+00 -9.504691617207797094e+00 2.516709427720456631e+02
5.466134550193309849e+00 -9.504691617207797094e+00 2.516680130845456631e+02
5.870174886793310343e+00 -9.504691617207797094e+00 2.516650833970456631e+02
6.274215223393309948e+00 -9.504691617207797094e+00 2.516621537095456631e+02
6.678255559993309554e+00 -9.504691617207797094e+00 2.516592392808456680e+02
7.082295896593310047e+00 -9.504691617207797094e+00 2.516563095933456680e+02
7.486336710093310032e+00 -9.504691617207797094e+00 2.516533799058456680e+02
7.890377046693309637e+00 -9.504691617207797094e+00 2.516504502183456680e+02
-5.846996782206690391e+00 -9.100651280607797489e+00 2.517524247056456659e+02
-5.442956445606689897e+00 -9.100651280607797489e+00 2.517494950181456659e+02
-5.038916109006690291e+00 -9.100651280607797489e+00 2.517465653306456659e+02
-4.634875772406689798e+00 -9.100651280607797489e+00 2.517436356431456659e+02
-4.230834958906689813e+00 -9.100651280607797489e+00 2.517407212144456707e+02
-3.826794860706689949e+00 -9.100651280607797489e+00 2.517377915269456707e+02
-3.422754285706690158e+00 -9.100651280607797489e+00 2.517348618394456707e+02
-3.018713949106690109e+00 -9.100651280607797489e+00 2.517319321519456707e+02
-2.614673612506690059e+00 -9.100651280607797489e+00 2.517290024644456707e+02
-2.210633275906690010e+00 -9.100651280607797489e+00 2.517260880357456756e+02
-1.806592820106690311e+00 -9.100651280607797489e+00 2.517231583482456756e+02
-1.402552364206690161e+00 -9.100651280607797489e+00 2.517202286607456756e+02
-9.985119084066902406e-01 -9.100651280607797489e+00 2.517172989732456756e+02
-5.944715718066901911e-01 -9.100651280607797489e+00 2.517143692857456756e+02
-1.904311458066901830e-01 -9.100651280607797489e+00 2.517114548570456520e+02
2.136092503933098019e-01 -9.100651280607797489e+00 2.517085251695456520e+02
6.176496763933096990e-01 -9.100651280607797489e+00 2.517055954820456520e+02
1.021690012993309749e+00 -9.100651280607797489e+00 2.517026657945456520e+02
1.425730468793309669e+00 -9.100651280607797489e+00 2.516997361070456520e+02
1.829770924693309819e+00 -9.100651280607797489e+00 2.516968216782456693e+02
2.233811380493309962e+00 -9.100651280607797489e+00 2.516938919907456693e+02
2.637851717093310011e+00 -9.100651280607797489e+00 2.516909623032456693e+02
3.041892053693310061e+00 -9.100651280607797489e+00 2.516880326157456693e+02
3.445932390293310110e+00 -9.100651280607797489e+00 2.516851029282456693e+02
3.849972965293309901e+00 -9.100651280607797489e+00 2.516821884995456742e+02
4.254013063493309765e+00 -9.100651280607797489e+00 2.516792588120456742e+02
4.658053876993309750e+00 -9.100651280607797489e+00 2.516763291245456742e+02
5.062094213593310243e+00 -9.100651280607797489e+00 2.516733994370456742e+02
5.466134550193309849e+00 -9.100651280607797489e+00 2.516704697495456742e+02
5.870174886793310343e+00 -9.100651280607797489e+00 2.516675553208456506e+02
6.274215223393309948e+00 -9.100651280607797489e+00 2.516646256333456506e+02
6.678255559993309554e+00 -9.100651280607797489e+00 2.516616959458456506e+02
7.082295896593310047e+00 -9.100651280607797489e+00 2.516587662583456506e+02
7.486336710093310032e+00 -9.100651280607797489e+00 2.516558365708456506e+02
7.890377046693309637e+00 -9.100651280607797489e+00 2.516529221421456555e+02
8.294417383293309243e+00 -9.100651280607797489e+00 2.516499924546456555e+02
-5.846996782206690391e+00 -8.696610944007797883e+00 2.517548813706456485e+02
-5.442956445606689897e+00 -8.696610944007797883e+00 2.517519516831456485e+02
-5.038916109006690291e+00 -8.696610944007797883e+00 2.517490219956456485e+02
-4.634875772406689798e+00 -8.696610944007797883e+00 2.517461075669456534e+02
-4.230834958906689813e+00 -8.696610944007797883e+00 2.517431778794456534e+02
-3.826794860706689949e+00 -8.696610944007797883e+00 2.517402481919456534e+02
-3.422754285706690158e+00 -8.696610944007797883e+00 2.517373185044456534e+02
-3.018713949106690109e+00 -8.696610944007797883e+00 2.517343888169456534e+02
-2.614673612506690059e+00 -8.696610944007797883e+00 2.517314743882456582e+02
-2.210633275906690010e+00 -8.696610944007797883e+00 2.517285447007456582e+02
-1.806592820106690311e+00 -8.696610944007797883e+00 2.517256150132456582e+02
-1.402552364206690161e+00 -8.696610944007797883e+00 2.517226853257456582e+02
-9.985119084066902406e-01 -8.696610944007797883e+00 2.517197556382456582e+02
-5.944715718066901911e-01 -8.696610944007797883e+00 2.517168412095456631e+02
-1.904311458066901830e-01 -8.696610944007797883e+00 2.517139115220456631e+02
2.136092503933098019e-01 -8.696610944007797883e+00 2.517109818345456631e+02
6.176496763933096990e-01 -8.696610944007797883e+00 2.517080521470456631e+02
1.021690012993309749e+00 -8.696610944007797883e+00 2.517051224595456631e+02
1.425730468793309669e+00 -8.696610944007797883e+00 2.517022080308456680e+02
1.829770924693309819e+00 -8.696610944007797883e+00 2.516992783433456680e+02
2.233811380493309962e+00 -8.696610944007797883e+00 2.516963486558456680e+02
2.637851717093310011e+00 -8.696610944007797883e+00 2.516934189683456680e+02
3.041892053693310061e+00 -8.696610944007797883e+00 2.516904892808456680e+02
3.445932390293310110e+00 -8.696610944007797883e+00 2.516875748521456728e+02
3.849972965293309901e+00 -8.696610944007797883e+00 2.516846451646456728e+02
4.254013063493309765e+00 -8.696610944007797883e+00 2.516817154771456728e+02
4.658053876993309750e+00 -8.696610944007797883e+00 2.516787857896456728e+02
5.062094213593310243e+00 -8.696610944007797883e+00 2.516758561021456728e+02
5.466134550193309849e+00 -8.696610944007797883e+00 2.516729416734456493e+02
5.870174886793310343e+00 -8.696610944007797883e+00 2.516700119859456493e+02
6.274215223393309948e+00 -8.696610944007797883e+00 2.516670822984456493e+02
6.678255559993309554e+00 -8.696610944007797883e+00 2.516641526109456493e+02
7.082295896593310047e+00 -8.696610944007797883e+00 2.516612229234456493e+02
7.486336710093310032e+00 -8.696610944007797883e+00 2.516583084947456541e+02
7.890377046693309637e+00 -8.696610944007797883e+00 2.516553788072456541e+02
-5.846996782206690391e+00 -8.292570607407796501e+00 2.517573380357456756e+02
-5.442956445606689897e+00 -8.292570607407796501e+00 2.517544083482456756e+02
-5.038916109006690291e+00 -8.292570607407796501e+00 2.517514939195456520e+02
-4.634875772406689798e+00 -8.292570607407796501e+00 2.517485642320456520e+02
-4.230834958906689813e+00 -8.292570607407796501e+00 2.517456345445456520e+02
-3.826794860706689949e+00 -8.292570607407796501e+00 2.517427048570456520e+02
-3.422754285706690158e+00 -8.292570607407796501e+00 2.517397751695456520e+02
-3.018713949106690109e+00 -8.292570607407796501e+00 2.517368607407456693e+02
-2.614673612506690059e+00 -8.292570607407796501e+00 2.517339310532456693e+02
-2.210633275906690010e+00 -8.292570607407796501e+00 2.517310013657456693e+02
-1.806592820106690311e+00 -8.292570607407796501e+00 2.517280716782456693e+02
-1.402552364206690161e+00 -8.292570607407796501e+00 2.517251419907456693e+02
-9.985119084066902406e-01 -8.292570607407796501e+00 2.517222275620456742e+02
-5.944715718066901911e-01 -8.292570607407796501e+00 2.517192978745456742e+02
-1.904311458066901830e-01 -8.292570607407796501e+00 2.517163681870456742e+02
2.136092503933098019e-01 -8.292570607407796501e+00 2.517134384995456742e+02
6.176496763933096990e-01 -8.292570607407796501e+00 2.517105088120456742e+02
1.021690012993309749e+00 -8.292570607407796501e+00 2.517075943833456506e+02
1.425730468793309669e+00 -8.292570607407796501e+00 2.517046646958456506e+02
1.829770924693309819e+00 -8.292570607407796501e+00 2.517017350083456506e+02
2.233811380493309962e+00 -8.292570607407796501e+00 2.516988053208456506e+02
2.637851717093310011e+00 -8.292570607407796501e+00 2.516958756333456506e+02
3.041892053693310061e+00 -8.292570607407796501e+00 2.516929612046456555e+02
3.445932390293310110e+00 -8.292570607407796501e+00 2.516900315171456555e+02
3.849972965293309901e+00 -8.292570607407796501e+00 2.516871018296456555e+02
4.254013063493309765e+00 -8.292570607407796501e+00 2.516841721421456555e+02
4.658053876993309750e+00 -8.292570607407796501e+00 2.516812424546456555e+02
5.062094213593310243e+00 -8.292570607407796501e+00 2.516783280259456603e+02
5.466134550193309849e+00 -8.292570607407796501e+00 2.516753983384456603e+02
5.870174886793310343e+00 -8.292570607407796501e+00 2.516724686509456603e+02
6.274215223393309948e+00 -8.292570607407796501e+00 2.516695389634456603e+02
6.678255559993309554e+00 -8.292570607407796501e+00 2.516666092759456603e+02
7.082295896593310047e+00 -8.292570607407796501e+00 2.516636948472456652e+02
7.486336710093310032e+00 -8.292570607407796501e+00 2.516607651597456652e+02
7.890377046693309637e+00 -8.292570607407796501e+00 2.516578354722456652e+02
8.294417383293309243e+00 -8.292570607407796501e+00 2.516549057847456652e+02
-5.846996782206690391e+00 -7.888530270807796896e+00 2.517597947007456582e+02
-5.442956445606689897e+00 -7.888530270807796896e+00 2.517568802720456631e+02
-5.038916109006690291e+00 -7.888530270807796896e+00 2.517539505845456631e+02
-4.634875772406689798e+00 -7.888530270807796896e+00 2.517510208970456631e+02
-4.230834958906689813e+00 -7.888530270807796896e+00 2.517480912095456631e+02
-3.826794860706689949e+00 -7.888530270807796896e+00 2.517451615220456631e+02
-3.422754285706690158e+00 -7.888530270807796896e+00 2.517422470933456680e+02
-3.018713949106690109e+00 -7.888530270807796896e+00 2.517393174058456680e+02
-2.614673612506690059e+00 -7.888530270807796896e+00 2.517363877183456680e+02
-2.210633275906690010e+00 -7.888530270807796896e+00 2.517334580308456680e+02
-1.806592820106690311e+00 -7.888530270807796896e+00 2.517305283433456680e+02
-1.402552364206690161e+00 -7.888530270807796896e+00 2.517276139146456728e+02
-9.985119084066902406e-01 -7.888530270807796896e+00 2.517246842271456728e+02
-5.944715718066901911e-01 -7.888530270807796896e+00 2.517217545396456728e+02
-1.904311458066901830e-01 -7.888530270807796896e+00 2.517188248521456728e+02
2.136092503933098019e-01 -7.888530270807796896e+00 2.517158951646456728e+02
6.176496763933096990e-01 -7.888530270807796896e+00 2.517129807359456493e+02
1.021690012993309749e+00 -7.888530270807796896e+00 2.517100510484456493e+02
1.425730468793309669e+00 -7.888530270807796896e+00 2.517071213609456493e+02
1.829770924693309819e+00 -7.888530270807796896e+00 2.517041916734456493e+02
2.233811380493309962e+00 -7.888530270807796896e+00 2.517012619859456493e+02
2.637851717093310011e+00 -7.888530270807796896e+00 2.516983475572456541e+02
3.041892053693310061e+00 -7.888530270807796896e+00 2.516954178697456541e+02
3.445932390293310110e+00 -7.888530270807796896e+00 2.516924881822456541e+02
3.849972965293309901e+00 -7.888530270807796896e+00 2.516895584947456541e+02
4.254013063493309765e+00 -7.888530270807796896e+00 2.516866288072456541e+02
4.658053876993309750e+00 -7.888530270807796896e+00 2.516837143784456714e+02
5.062094213593310243e+00 -7.888530270807796896e+00 2.516807846909456714e+02
5.466134550193309849e+00 -7.888530270807796896e+00 2.516778550034456714e+02
5.870174886793310343e+00 -7.888530270807796896e+00 2.516749253159456714e+02
6.274215223393309948e+00 -7.888530270807796896e+00 2.516719956284456714e+02
6.678255559993309554e+00 -7.888530270807796896e+00 2.516690811997456478e+02
7.082295896593310047e+00 -7.888530270807796896e+00 2.516661515122456478e+02
7.486336710093310032e+00 -7.888530270807796896e+00 2.516632218247456478e+02
7.890377046693309637e+00 -7.888530270807796896e+00 2.516602921372456478e+02
-5.038916109006690291e+00 -7.484489934207797290e+00 2.517564072495456742e+02
-4.634875772406689798e+00 -7.484489934207797290e+00 2.517534775620456742e+02
-4.230834958906689813e+00 -7.484489934207797290e+00 2.517505631333456506e+02
-3.826794860706689949e+00 -7.484489934207797290e+00 2.517476334458456506e+02
-3.422754285706690158e+00 -7.484489934207797290e+00 2.517447037583456506e+02
-3.018713949106690109e+00 -7.484489934207797290e+00 2.517417740708456506e+02
-2.614673612506690059e+00 -7.484489934207797290e+00 2.517388443833456506e+02
-2.210633275906690010e+00 -7.484489934207797290e+00 2.517359299546456555e+02
-1.806592820106690311e+00 -7.484489934207797290e+00 2.517330002671456555e+02
-1.402552364206690161e+00 -7.484489934207797290e+00 2.517300705796456555e+02
-9.985119084066902406e-01 -7.484489934207797290e+00 2.517271408921456555e+02
-5.944715718066901911e-01 -7.484489934207797290e+00 2.517242112046456555e+02
-1.904311458066901830e-01 -7.484489934207797290e+00 2.517212815171456555e+02
2.136092503933098019e-01 -7.484489934207797290e+00 2.517183670884456603e+02
6.176496763933096990e-01 -7.484489934207797290e+00 2.517154374009456603e+02
1.021690012993309749e+00 -7.484489934207797290e+00 2.517125077134456603e+02
1.425730468793309669e+00 -7.484489934207797290e+00 2.517095780259456603e+02
1.829770924693309819e+00 -7.484489934207797290e+00 2.517066483384456603e+02
2.233811380493309962e+00 -7.484489934207797290e+00 2.517037339097456652e+02
2.637851717093310011e+00 -7.484489934207797290e+00 2.517008042222456652e+02
3.041892053693310061e+00 -7.484489934207797290e+00 2.516978745347456652e+02
3.445932390293310110e+00 -7.484489934207797290e+00 2.516949448472456652e+02
3.849972965293309901e+00 -7.484489934207797290e+00 2.516920151597456652e+02
4.254013063493309765e+00 -7.484489934207797290e+00 2.516891007310456700e+02
4.658053876993309750e+00 -7.484489934207797290e+00 2.516861710435456700e+02
5.062094213593310243e+00 -7.484489934207797290e+00 2.516832413560456700e+02
5.466134550193309849e+00 -7.484489934207797290e+00 2.516803116685456700e+02
5.870174886793310343e+00 -7.484489934207797290e+00 2.516773819810456700e+02
6.274215223393309948e+00 -7.484489934207797290e+00 2.516744675523456749e+02
6.678255559993309554e+00 -7.484489934207797290e+00 2.516715378648456749e+02
7.082295896593310047e+00 -7.484489934207797290e+00 2.516686081773456749e+02
7.486336710093310032e+00 -7.484489934207797290e+00 2.516656784898456749e+02
7.890377046693309637e+00 -7.484489934207797290e+00 2.516627488023456749e+02
-5.038916109006690291e+00 -7.080449120707797306e+00 2.517588639146456728e+02
-4.634875772406689798e+00 -7.080449120707797306e+00 2.517559494859456493e+02
-4.230834958906689813e+00 -7.080449120707797306e+00 2.517530197984456493e+02
-3.826794860706689949e+00 -7.080449120707797306e+00 2.517500901109456493e+02
-3.422754285706690158e+00 -7.080449120707797306e+00 2.517471604234456493e+02
-3.018713949106690109e+00 -7.080449120707797306e+00 2.517442307359456493e+02
-2.614673612506690059e+00 -7.080449120707797306e+00 2.517413163072456541e+02
-2.210633275906690010e+00 -7.080449120707797306e+00 2.517383866197456541e+02
-1.806592820106690311e+00 -7.080449120707797306e+00 2.517354569322456541e+02
-1.402552364206690161e+00 -7.080449120707797306e+00 2.517325272447456541e+02
-9.985119084066902406e-01 -7.080449120707797306e+00 2.517295975572456541e+02
-5.944715718066901911e-01 -7.080449120707797306e+00 2.517266831284456714e+02
-1.904311458066901830e-01 -7.080449120707797306e+00 2.517237534409456714e+02
2.136092503933098019e-01 -7.080449120707797306e+00 2.517208237534456714e+02
6.176496763933096990e-01 -7.080449120707797306e+00 2.517178940659456714e+02
1.021690012993309749e+00 -7.080449120707797306e+00 2.517149643784456714e+02
1.425730468793309669e+00 -7.080449120707797306e+00 2.517120499497456478e+02
1.829770924693309819e+00 -7.080449120707797306e+00 2.517091202622456478e+02
2.233811380493309962e+00 -7.080449120707797306e+00 2.517061905747456478e+02
2.637851717093310011e+00 -7.080449120707797306e+00 2.517032608872456478e+02
3.041892053693310061e+00 -7.080449120707797306e+00 2.517003311997456478e+02
3.445932390293310110e+00 -7.080449120707797306e+00 2.516974167710456527e+02
3.849972965293309901e+00 -7.080449120707797306e+00 2.516944870835456527e+02
4.254013063493309765e+00 -7.080449120707797306e+00 2.516915573960456527e+02
4.658053876993309750e+00 -7.080449120707797306e+00 2.516886277085456527e+02
5.062094213593310243e+00 -7.080449120707797306e+00 2.516856980210456527e+02
5.466134550193309849e+00 -7.080449120707797306e+00 2.516827835923456576e+02
5.870174886793310343e+00 -7.080449120707797306e+00 2.516798539048456576e+02
6.274215223393309948e+00 -7.080449120707797306e+00 2.516769242173456576e+02
6.678255559993309554e+00 -7.080449120707797306e+00 2.516739945298456576e+02
7.082295896593310047e+00 -7.080449120707797306e+00 2.516710648423456576e+02
7.486336710093310032e+00 -7.080449120707797306e+00 2.516681504136456624e+02
7.890377046693309637e+00 -7.080449120707797306e+00 2.516652207261456624e+02
8.294417383293309243e+00 -7.080449120707797306e+00 2.516622910386456624e+02
-5.038916109006690291e+00 -6.676408784107796812e+00 2.517613358384456603e+02
-4.634875772406689798e+00 -6.676408784107796812e+00 2.517584061509456603e+02
-4.230834958906689813e+00 -6.676408784107796812e+00 2.517554764634456603e+02
-3.826794860706689949e+00 -6.676408784107796812e+00 2.517525467759456603e+02
-3.422754285706690158e+00 -6.676408784107796812e+00 2.517496170884456603e+02
-3.018713949106690109e+00 -6.676408784107796812e+00 2.517467026597456652e+02
-2.614673612506690059e+00 -6.676408784107796812e+00 2.517437729722456652e+02
-2.210633275906690010e+00 -6.676408784107796812e+00 2.517408432847456652e+02
-1.806592820106690311e+00 -6.676408784107796812e+00 2.517379135972456652e+02
-1.402552364206690161e+00 -6.676408784107796812e+00 2.517349839097456652e+02
-9.985119084066902406e-01 -6.676408784107796812e+00 2.517320694810456700e+02
-5.944715718066901911e-01 -6.676408784107796812e+00 2.517291397935456700e+02
-1.904311458066901830e-01 -6.676408784107796812e+00 2.517262101060456700e+02
2.136092503933098019e-01 -6.676408784107796812e+00 2.517232804185456700e+02
6.176496763933096990e-01 -6.676408784107796812e+00 2.517203507310456700e+02
1.021690012993309749e+00 -6.676408784107796812e+00 2.517174363023456749e+02
1.425730468793309669e+00 -6.676408784107796812e+00 2.517145066148456749e+02
1.829770924693309819e+00 -6.676408784107796812e+00 2.517115769273456749e+02
2.233811380493309962e+00 -6.676408784107796812e+00 2.517086472398456749e+02
2.637851717093310011e+00 -6.676408784107796812e+00 2.517057175523456749e+02
3.041892053693310061e+00 -6.676408784107796812e+00 2.517028031236456513e+02
3.445932390293310110e+00 -6.676408784107796812e+00 2.516998734361456513e+02
3.849972965293309901e+00 -6.676408784107796812e+00 2.516969437486456513e+02
4.254013063493309765e+00 -6.676408784107796812e+00 2.516940140611456513e+02
4.658053876993309750e+00 -6.676408784107796812e+00 2.516910843736456513e+02
5.062094213593310243e+00 -6.676408784107796812e+00 2.516881699448456686e+02
5.466134550193309849e+00 -6.676408784107796812e+00 2.516852402573456686e+02
5.870174886793310343e+00 -6.676408784107796812e+00 2.516823105698456686e+02
6.274215223393309948e+00 -6.676408784107796812e+00 2.516793808823456686e+02
6.678255559993309554e+00 -6.676408784107796812e+00 2.516764511948456686e+02
7.082295896593310047e+00 -6.676408784107796812e+00 2.516735367661456735e+02
7.486336710093310032e+00 -6.676408784107796812e+00 2.516706070786456735e+02
-5.038916109006690291e+00 -6.272368447507797207e+00 2.517637925034456714e+02
-4.634875772406689798e+00 -6.272368447507797207e+00 2.517608628159456714e+02
-4.230834958906689813e+00 -6.272368447507797207e+00 2.517579331284456714e+02
-3.826794860706689949e+00 -6.272368447507797207e+00 2.517550034409456714e+02
-3.422754285706690158e+00 -6.272368447507797207e+00 2.517520890122456478e+02
-3.018713949106690109e+00 -6.272368447507797207e+00 2.517491593247456478e+02
-2.614673612506690059e+00 -6.272368447507797207e+00 2.517462296372456478e+02
-2.210633275906690010e+00 -6.272368447507797207e+00 2.517432999497456478e+02
-1.806592820106690311e+00 -6.272368447507797207e+00 2.517403702622456478e+02
-1.402552364206690161e+00 -6.272368447507797207e+00 2.517374558335456527e+02
-9.985119084066902406e-01 -6.272368447507797207e+00 2.517345261460456527e+02
-5.944715718066901911e-01 -6.272368447507797207e+00 2.517315964585456527e+02
-1.904311458066901830e-01 -6.272368447507797207e+00 2.517286667710456527e+02
2.136092503933098019e-01 -6.272368447507797207e+00 2.517257370835456527e+02
6.176496763933096990e-01 -6.272368447507797207e+00 2.517228226548456576e+02
1.021690012993309749e+00 -6.272368447507797207e+00 2.517198929673456576e+02
1.425730468793309669e+00 -6.272368447507797207e+00 2.517169632798456576e+02
1.829770924693309819e+00 -6.272368447507797207e+00 2.517140335923456576e+02
2.233811380493309962e+00 -6.272368447507797207e+00 2.517111039048456576e+02
2.637851717093310011e+00 -6.272368447507797207e+00 2.517081894761456624e+02
3.041892053693310061e+00 -6.272368447507797207e+00 2.517052597886456624e+02
3.445932390293310110e+00 -6.272368447507797207e+00 2.517023301011456624e+02
3.849972965293309901e+00 -6.272368447507797207e+00 2.516994004136456624e+02
4.254013063493309765e+00 -6.272368447507797207e+00 2.516964707261456624e+02
4.658053876993309750e+00 -6.272368447507797207e+00 2.516935562974456673e+02
5.062094213593310243e+00 -6.272368447507797207e+00 2.516906266099456673e+02
5.466134550193309849e+00 -6.272368447507797207e+00 2.516876969224456673e+02
5.870174886793310343e+00 -6.272368447507797207e+00 2.516847672349456673e+02
6.274215223393309948e+00 -6.272368447507797207e+00 2.516818375474456673e+02
6.678255559993309554e+00 -6.272368447507797207e+00 2.516789231187456721e+02
7.082295896593310047e+00 -6.272368447507797207e+00 2.516759934312456721e+02
7.486336710093310032e+00 -6.272368447507797207e+00 2.516730637437456721e+02
7.890377046693309637e+00 -6.272368447507797207e+00 2.516701340562456721e+02
-5.038916109006690291e+00 -5.868328110907797601e+00 2.517662491685456700e+02
-4.634875772406689798e+00 -5.868328110907797601e+00 2.517633194810456700e+02
-4.230834958906689813e+00 -5.868328110907797601e+00 2.517603897935456700e+02
-3.826794860706689949e+00 -5.868328110907797601e+00 2.517574753648456749e+02
-3.422754285706690158e+00 -5.868328110907797601e+00 2.517545456773456749e+02
-3.018713949106690109e+00 -5.868328110907797601e+00 2.517516159898456749e+02
-2.614673612506690059e+00 -5.868328110907797601e+00 2.517486863023456749e+02
-2.210633275906690010e+00 -5.868328110907797601e+00 2.517457566148456749e+02
-1.806592820106690311e+00 -5.868328110907797601e+00 2.517428421861456513e+02
-1.402552364206690161e+00 -5.868328110907797601e+00 2.517399124986456513e+02
-9.985119084066902406e-01 -5.868328110907797601e+00 2.517369828111456513e+02
-5.944715718066901911e-01 -5.868328110907797601e+00 2.517340531236456513e+02
-1.904311458066901830e-01 -5.868328110907797601e+00 2.517311234361456513e+02
2.136092503933098019e-01 -5.868328110907797601e+00 2.517282090073456686e+02
6.176496763933096990e-01 -5.868328110907797601e+00 2.517252793198456686e+02
1.021690012993309749e+00 -5.868328110907797601e+00 2.517223496323456686e+02
1.425730468793309669e+00 -5.868328110907797601e+00 2.517194199448456686e+02
1.829770924693309819e+00 -5.868328110907797601e+00 2.517164902573456686e+02
2.233811380493309962e+00 -5.868328110907797601e+00 2.517135758286456735e+02
2.637851717093310011e+00 -5.868328110907797601e+00 2.517106461411456735e+02
3.041892053693310061e+00 -5.868328110907797601e+00 2.517077164536456735e+02
3.445932390293310110e+00 -5.868328110907797601e+00 2.517047867661456735e+02
3.849972965293309901e+00 -5.868328110907797601e+00 2.517018570786456735e+02
4.254013063493309765e+00 -5.868328110907797601e+00 2.516989426499456499e+02
4.658053876993309750e+00 -5.868328110907797601e+00 2.516960129624456499e+02
5.062094213593310243e+00 -5.868328110907797601e+00 2.516930832749456499e+02
5.466134550193309849e+00 -5.868328110907797601e+00 2.516901535874456499e+02
5.870174886793310343e+00 -5.868328110907797601e+00 2.516872238999456499e+02
6.274215223393309948e+00 -5.868328110907797601e+00 2.516843094712456548e+02
6.678255559993309554e+00 -5.868328110907797601e+00 2.516813797837456548e+02
7.082295896593310047e+00 -5.868328110907797601e+00 2.516784500962456548e+02
7.486336710093310032e+00 -5.868328110907797601e+00 2.516755204087456548e+02
7.890377046693309637e+00 -5.868328110907797601e+00 2.516725907212456548e+02
-5.442956445606689897e+00 -5.464287774307797108e+00 2.517716355210456527e+02
-5.038916109006690291e+00 -5.464287774307797108e+00 2.517687058335456527e+02
-4.634875772406689798e+00 -5.464287774307797108e+00 2.517657761460456527e+02
-4.230834958906689813e+00 -5.464287774307797108e+00 2.517628617173456576e+02
-3.826794860706689949e+00 -5.464287774307797108e+00 2.517599320298456576e+02
-3.422754285706690158e+00 -5.464287774307797108e+00 2.517570023423456576e+02
-3.018713949106690109e+00 -5.464287774307797108e+00 2.517540726548456576e+02
-2.614673612506690059e+00 -5.464287774307797108e+00 2.517511429673456576e+02
-2.210633275906690010e+00 -5.464287774307797108e+00 2.517482285386456624e+02
-1.806592820106690311e+00 -5.464287774307797108e+00 2.517452988511456624e+02
-1.402552364206690161e+00 -5.464287774307797108e+00 2.517423691636456624e+02
-9.985119084066902406e-01 -5.464287774307797108e+00 2.517394394761456624e+02
-5.944715718066901911e-01 -5.464287774307797108e+00 2.517365097886456624e+02
-1.904311458066901830e-01 -5.464287774307797108e+00 2.517335953599456673e+02
2.136092503933098019e-01 -5.464287774307797108e+00 2.517306656724456673e+02
6.176496763933096990e-01 -5.464287774307797108e+00 2.517277359849456673e+02
1.021690012993309749e+00 -5.464287774307797108e+00 2.517248062974456673e+02
1.425730468793309669e+00 -5.464287774307797108e+00 2.517218766099456673e+02
1.829770924693309819e+00 -5.464287774307797108e+00 2.517189621812456721e+02
2.233811380493309962e+00 -5.464287774307797108e+00 2.517160324937456721e+02
2.637851717093310011e+00 -5.464287774307797108e+00 2.517131028062456721e+02
3.041892053693310061e+00 -5.464287774307797108e+00 2.517101731187456721e+02
3.445932390293310110e+00 -5.464287774307797108e+00 2.517072434312456721e+02
3.849972965293309901e+00 -5.464287774307797108e+00 2.517043290025456486e+02
4.254013063493309765e+00 -5.464287774307797108e+00 2.517013993150456486e+02
4.658053876993309750e+00 -5.464287774307797108e+00 2.516984696275456486e+02
5.062094213593310243e+00 -5.464287774307797108e+00 2.516955399400456486e+02
5.466134550193309849e+00 -5.464287774307797108e+00 2.516926102525456486e+02
5.870174886793310343e+00 -5.464287774307797108e+00 2.516896958238456534e+02
6.274215223393309948e+00 -5.464287774307797108e+00 2.516867661363456534e+02
6.678255559993309554e+00 -5.464287774307797108e+00 2.516838364488456534e+02
7.082295896593310047e+00 -5.464287774307797108e+00 2.516809067613456534e+02
7.486336710093310032e+00 -5.464287774307797108e+00 2.516779770738456534e+02
-5.442956445606689897e+00 -5.060247437707797502e+00 2.517740921861456513e+02
-5.038916109006690291e+00 -5.060247437707797502e+00 2.517711777573456686e+02
-4.634875772406689798e+00 -5.060247437707797502e+00 2.517682480698456686e+02
-4.230834958906689813e+00 -5.060247437707797502e+00 2.517653183823456686e+02
-3.826794860706689949e+00 -5.060247437707797502e+00 2.517623886948456686e+02
-3.422754285706690158e+00 -5.060247437707797502e+00 2.517594590073456686e+02
-3.018713949106690109e+00 -5.060247437707797502e+00 2.517565445786456735e+02
-2.614673612506690059e+00 -5.060247437707797502e+00 2.517536148911456735e+02
-2.210633275906690010e+00 -5.060247437707797502e+00 2.517506852036456735e+02
-1.806592820106690311e+00 -5.060247437707797502e+00 2.517477555161456735e+02
-1.402552364206690161e+00 -5.060247437707797502e+00 2.517448258286456735e+02
-9.985119084066902406e-01 -5.060247437707797502e+00 2.517419113999456499e+02
-5.944715718066901911e-01 -5.060247437707797502e+00 2.517389817124456499e+02
-1.904311458066901830e-01 -5.060247437707797502e+00 2.517360520249456499e+02
2.136092503933098019e-01 -5.060247437707797502e+00 2.517331223374456499e+02
6.176496763933096990e-01 -5.060247437707797502e+00 2.517301926499456499e+02
1.021690012993309749e+00 -5.060247437707797502e+00 2.517272782212456548e+02
1.425730468793309669e+00 -5.060247437707797502e+00 2.517243485337456548e+02
1.829770924693309819e+00 -5.060247437707797502e+00 2.517214188462456548e+02
2.233811380493309962e+00 -5.060247437707797502e+00 2.517184891587456548e+02
2.637851717093310011e+00 -5.060247437707797502e+00 2.517155594712456548e+02
3.041892053693310061e+00 -5.060247437707797502e+00 2.517126450425456596e+02
3.445932390293310110e+00 -5.060247437707797502e+00 2.517097153550456596e+02
3.849972965293309901e+00 -5.060247437707797502e+00 2.517067856675456596e+02
4.254013063493309765e+00 -5.060247437707797502e+00 2.517038559800456596e+02
4.658053876993309750e+00 -5.060247437707797502e+00 2.517009262925456596e+02
5.062094213593310243e+00 -5.060247437707797502e+00 2.516979966050456596e+02
5.466134550193309849e+00 -5.060247437707797502e+00 2.516950821763456645e+02
5.870174886793310343e+00 -5.060247437707797502e+00 2.516921524888456645e+02
6.274215223393309948e+00 -5.060247437707797502e+00 2.516892228013456645e+02
6.678255559993309554e+00 -5.060247437707797502e+00 2.516862931138456645e+02
7.082295896593310047e+00 -5.060247437707797502e+00 2.516833634263456645e+02
7.486336710093310032e+00 -5.060247437707797502e+00 2.516804489976456694e+02
7.890377046693309637e+00 -5.060247437707797502e+00 2.516775193101456694e+02
-5.442956445606689897e+00 -4.656207101107797008e+00 2.517765641099456673e+02
-5.038916109006690291e+00 -4.656207101107797008e+00 2.517736344224456673e+02
-4.634875772406689798e+00 -4.656207101107797008e+00 2.517707047349456673e+02
-4.230834958906689813e+00 -4.656207101107797008e+00 2.517677750474456673e+02
-3.826794860706689949e+00 -4.656207101107797008e+00 2.517648453599456673e+02
-3.422754285706690158e+00 -4.656207101107797008e+00 2.517619309312456721e+02
-3.018713949106690109e+00 -4.656207101107797008e+00 2.517590012437456721e+02
-2.614673612506690059e+00 -4.656207101107797008e+00 2.517560715562456721e+02
-2.210633275906690010e+00 -4.656207101107797008e+00 2.517531418687456721e+02
-1.806592820106690311e+00 -4.656207101107797008e+00 2.517502121812456721e+02
-1.402552364206690161e+00 -4.656207101107797008e+00 2.517472977525456486e+02
-9.985119084066902406e-01 -4.656207101107797008e+00 2.517443680650456486e+02
-5.944715718066901911e-01 -4.656207101107797008e+00 2.517414383775456486e+02
-1.904311458066901830e-01 -4.656207101107797008e+00 2.517385086900456486e+02
2.136092503933098019e-01 -4.656207101107797008e+00 2.517355790025456486e+02
6.176496763933096990e-01 -4.656207101107797008e+00 2.517326645738456534e+02
1.021690012993309749e+00 -4.656207101107797008e+00 2.517297348863456534e+02
1.425730468793309669e+00 -4.656207101107797008e+00 2.517268051988456534e+02
1.829770924693309819e+00 -4.656207101107797008e+00 2.517238755113456534e+02
2.233811380493309962e+00 -4.656207101107797008e+00 2.517209458238456534e+02
2.637851717093310011e+00 -4.656207101107797008e+00 2.517180313950456707e+02
3.041892053693310061e+00 -4.656207101107797008e+00 2.517151017075456707e+02
3.445932390293310110e+00 -4.656207101107797008e+00 2.517121720200456707e+02
3.849972965293309901e+00 -4.656207101107797008e+00 2.517092423325456707e+02
4.254013063493309765e+00 -4.656207101107797008e+00 2.517063126450456707e+02
4.658053876993309750e+00 -4.656207101107797008e+00 2.517033982163456756e+02
5.062094213593310243e+00 -4.656207101107797008e+00 2.517004685288456756e+02
5.466134550193309849e+00 -4.656207101107797008e+00 2.516975388413456756e+02
5.870174886793310343e+00 -4.656207101107797008e+00 2.516946091538456756e+02
6.274215223393309948e+00 -4.656207101107797008e+00 2.516916794663456756e+02
6.678255559993309554e+00 -4.656207101107797008e+00 2.516887650376456520e+02
7.082295896593310047e+00 -4.656207101107797008e+00 2.516858353501456520e+02
7.486336710093310032e+00 -4.656207101107797008e+00 2.516829056626456520e+02
7.890377046693309637e+00 -4.656207101107797008e+00 2.516799759751456520e+02
-5.038916109006690291e+00 -4.252166287607797024e+00 2.517760910874456499e+02
-4.634875772406689798e+00 -4.252166287607797024e+00 2.517731613999456499e+02
-4.230834958906689813e+00 -4.252166287607797024e+00 2.517702317124456499e+02
-3.826794860706689949e+00 -4.252166287607797024e+00 2.517673172837456548e+02
-3.422754285706690158e+00 -4.252166287607797024e+00 2.517643875962456548e+02
-3.018713949106690109e+00 -4.252166287607797024e+00 2.517614579087456548e+02
-2.614673612506690059e+00 -4.252166287607797024e+00 2.517585282212456548e+02
-2.210633275906690010e+00 -4.252166287607797024e+00 2.517555985337456548e+02
-1.806592820106690311e+00 -4.252166287607797024e+00 2.517526841050456596e+02
-1.402552364206690161e+00 -4.252166287607797024e+00 2.517497544175456596e+02
-9.985119084066902406e-01 -4.252166287607797024e+00 2.517468247300456596e+02
-5.944715718066901911e-01 -4.252166287607797024e+00 2.517438950425456596e+02
-1.904311458066901830e-01 -4.252166287607797024e+00 2.517409653550456596e+02
2.136092503933098019e-01 -4.252166287607797024e+00 2.517380509263456645e+02
6.176496763933096990e-01 -4.252166287607797024e+00 2.517351212388456645e+02
1.021690012993309749e+00 -4.252166287607797024e+00 2.517321915513456645e+02
1.425730468793309669e+00 -4.252166287607797024e+00 2.517292618638456645e+02
1.829770924693309819e+00 -4.252166287607797024e+00 2.517263321763456645e+02
2.233811380493309962e+00 -4.252166287607797024e+00 2.517234177476456694e+02
2.637851717093310011e+00 -4.252166287607797024e+00 2.517204880601456694e+02
3.041892053693310061e+00 -4.252166287607797024e+00 2.517175583726456694e+02
3.445932390293310110e+00 -4.252166287607797024e+00 2.517146286851456694e+02
3.849972965293309901e+00 -4.252166287607797024e+00 2.517116989976456694e+02
4.254013063493309765e+00 -4.252166287607797024e+00 2.517087845689456742e+02
4.658053876993309750e+00 -4.252166287607797024e+00 2.517058548814456742e+02
5.062094213593310243e+00 -4.252166287607797024e+00 2.517029251939456742e+02
5.466134550193309849e+00 -4.252166287607797024e+00 2.516999955064456742e+02
5.870174886793310343e+00 -4.252166287607797024e+00 2.516970658189456742e+02
6.274215223393309948e+00 -4.252166287607797024e+00 2.516941513902456506e+02
6.678255559993309554e+00 -4.252166287607797024e+00 2.516912217027456506e+02
7.082295896593310047e+00 -4.252166287607797024e+00 2.516882920152456506e+02
7.486336710093310032e+00 -4.252166287607797024e+00 2.516853623277456506e+02
-5.442956445606689897e+00 -3.848126189407796716e+00 2.517814774400456486e+02
-5.038916109006690291e+00 -3.848126189407796716e+00 2.517785477525456486e+02
-4.634875772406689798e+00 -3.848126189407796716e+00 2.517756180650456486e+02
-4.230834958906689813e+00 -3.848126189407796716e+00 2.517727036363456534e+02
-3.826794860706689949e+00 -3.848126189407796716e+00 2.517697739488456534e+02
-3.422754285706690158e+00 -3.848126189407796716e+00 2.517668442613456534e+02
-3.018713949106690109e+00 -3.848126189407796716e+00 2.517639145738456534e+02
-2.614673612506690059e+00 -3.848126189407796716e+00 2.517609848863456534e+02
-2.210633275906690010e+00 -3.848126189407796716e+00 2.517580704575456707e+02
-1.806592820106690311e+00 -3.848126189407796716e+00 2.517551407700456707e+02
-1.402552364206690161e+00 -3.848126189407796716e+00 2.517522110825456707e+02
-9.985119084066902406e-01 -3.848126189407796716e+00 2.517492813950456707e+02
-5.944715718066901911e-01 -3.848126189407796716e+00 2.517463517075456707e+02
-1.904311458066901830e-01 -3.848126189407796716e+00 2.517434372788456756e+02
2.136092503933098019e-01 -3.848126189407796716e+00 2.517405075913456756e+02
6.176496763933096990e-01 -3.848126189407796716e+00 2.517375779038456756e+02
1.021690012993309749e+00 -3.848126189407796716e+00 2.517346482163456756e+02
1.425730468793309669e+00 -3.848126189407796716e+00 2.517317185288456756e+02
1.829770924693309819e+00 -3.848126189407796716e+00 2.517288041001456520e+02
2.233811380493309962e+00 -3.848126189407796716e+00 2.517258744126456520e+02
2.637851717093310011e+00 -3.848126189407796716e+00 2.517229447251456520e+02
3.041892053693310061e+00 -3.848126189407796716e+00 2.517200150376456520e+02
3.445932390293310110e+00 -3.848126189407796716e+00 2.517170853501456520e+02
3.849972965293309901e+00 -3.848126189407796716e+00 2.517141709214456569e+02
4.254013063493309765e+00 -3.848126189407796716e+00 2.517112412339456569e+02
4.658053876993309750e+00 -3.848126189407796716e+00 2.517083115464456569e+02
5.062094213593310243e+00 -3.848126189407796716e+00 2.517053818589456569e+02
5.466134550193309849e+00 -3.848126189407796716e+00 2.517024521714456569e+02
5.870174886793310343e+00 -3.848126189407796716e+00 2.516995377427456617e+02
6.274215223393309948e+00 -3.848126189407796716e+00 2.516966080552456617e+02
6.678255559993309554e+00 -3.848126189407796716e+00 2.516936783677456617e+02
7.082295896593310047e+00 -3.848126189407796716e+00 2.516907486802456617e+02
7.486336710093310032e+00 -3.848126189407796716e+00 2.516878189927456617e+02
-5.442956445606689897e+00 -3.444085614407796925e+00 2.517839341050456596e+02
-5.038916109006690291e+00 -3.444085614407796925e+00 2.517810044175456596e+02
-4.634875772406689798e+00 -3.444085614407796925e+00 2.517780899888456645e+02
-4.230834958906689813e+00 -3.444085614407796925e+00 2.517751603013456645e+02
-3.826794860706689949e+00 -3.444085614407796925e+00 2.517722306138456645e+02
-3.422754285706690158e+00 -3.444085614407796925e+00 2.517693009263456645e+02
-3.018713949106690109e+00 -3.444085614407796925e+00 2.517663712388456645e+02
-2.614673612506690059e+00 -3.444085614407796925e+00 2.517634568101456694e+02
-2.210633275906690010e+00 -3.444085614407796925e+00 2.517605271226456694e+02
-1.806592820106690311e+00 -3.444085614407796925e+00 2.517575974351456694e+02
-1.402552364206690161e+00 -3.444085614407796925e+00 2.517546677476456694e+02
-9.985119084066902406e-01 -3.444085614407796925e+00 2.517517380601456694e+02
-5.944715718066901911e-01 -3.444085614407796925e+00 2.517488236314456742e+02
-1.904311458066901830e-01 -3.444085614407796925e+00 2.517458939439456742e+02
2.136092503933098019e-01 -3.444085614407796925e+00 2.517429642564456742e+02
6.176496763933096990e-01 -3.444085614407796925e+00 2.517400345689456742e+02
1.021690012993309749e+00 -3.444085614407796925e+00 2.517371048814456742e+02
1.425730468793309669e+00 -3.444085614407796925e+00 2.517341904527456506e+02
1.829770924693309819e+00 -3.444085614407796925e+00 2.517312607652456506e+02
2.233811380493309962e+00 -3.444085614407796925e+00 2.517283310777456506e+02
2.637851717093310011e+00 -3.444085614407796925e+00 2.517254013902456506e+02
3.041892053693310061e+00 -3.444085614407796925e+00 2.517224717027456506e+02
3.445932390293310110e+00 -3.444085614407796925e+00 2.517195572740456555e+02
3.849972965293309901e+00 -3.444085614407796925e+00 2.517166275865456555e+02
4.254013063493309765e+00 -3.444085614407796925e+00 2.517136978990456555e+02
4.658053876993309750e+00 -3.444085614407796925e+00 2.517107682115456555e+02
5.062094213593310243e+00 -3.444085614407796925e+00 2.517078385240456555e+02
5.466134550193309849e+00 -3.444085614407796925e+00 2.517049240952456728e+02
5.870174886793310343e+00 -3.444085614407796925e+00 2.517019944077456728e+02
6.274215223393309948e+00 -3.444085614407796925e+00 2.516990647202456728e+02
6.678255559993309554e+00 -3.444085614407796925e+00 2.516961350327456728e+02
7.082295896593310047e+00 -3.444085614407796925e+00 2.516932053452456728e+02
7.486336710093310032e+00 -3.444085614407796925e+00 2.516902909165456492e+02
-5.442956445606689897e+00 -3.040045277807796875e+00 2.517864060288456756e+02
-5.038916109006690291e+00 -3.040045277807796875e+00 2.517834763413456756e+02
-4.634875772406689798e+00 -3.040045277807796875e+00 2.517805466538456756e+02
-4.230834958906689813e+00 -3.040045277807796875e+00 2.517776169663456756e+02
-3.826794860706689949e+00 -3.040045277807796875e+00 2.517746872788456756e+02
-3.422754285706690158e+00 -3.040045277807796875e+00 2.517717728501456520e+02
-3.018713949106690109e+00 -3.040045277807796875e+00 2.517688431626456520e+02
-2.614673612506690059e+00 -3.040045277807796875e+00 2.517659134751456520e+02
-2.210633275906690010e+00 -3.040045277807796875e+00 2.517629837876456520e+02
-1.806592820106690311e+00 -3.040045277807796875e+00 2.517600541001456520e+02
-1.402552364206690161e+00 -3.040045277807796875e+00 2.517571396714456569e+02
-9.985119084066902406e-01 -3.040045277807796875e+00 2.517542099839456569e+02
-5.944715718066901911e-01 -3.040045277807796875e+00 2.517512802964456569e+02
-1.904311458066901830e-01 -3.040045277807796875e+00 2.517483506089456569e+02
