-133.942810	3.470426	-7.649857	157	164	169
-133.505035	3.469781	-7.549633	158	162	174
-132.663727	3.468494	-7.518763	151	161	166
-132.266037	3.467851	-7.619611	155	163	166
-131.445801	3.466563	-7.696775	155	160	159
-131.019379	3.465920	-7.651986	155	155	161
-130.364243	3.464955	-7.503346	151	160	164
-129.949646	3.464312	-7.518569	150	153	157
-129.111404	3.463025	-7.501629	147	151	157
-128.708969	3.462381	-7.581370	154	157	168
-127.852859	3.461096	-7.469053	154	164	166
-127.448303	3.460451	-7.538326	156	156	160
-126.644432	3.459161	-7.707555	157	158	167
-126.244278	3.458515	-7.803209	155	159	163
-125.380760	3.457232	-7.648236	148	153	163
-124.945984	3.456591	-7.552681	152	158	162
-124.122284	3.455302	-7.615847	155	164	169
-123.710152	3.454658	-7.646297	149	160	165
-98.433441	3.414147	-12.793162	12	12	13
-89.340317	3.399517	-14.831870	41	40	45
-87.603020	3.396977	-14.378817	42	43	42
-87.201736	3.396284	-14.626443	40	41	44
-86.793816	3.395601	-14.804877	42	43	45
-82.782669	3.389358	-15.009071	37	38	44
-82.359390	3.388702	-15.019583	43	45	47
-81.504036	3.387413	-14.926478	39	40	44
-81.093468	3.386726	-15.103737	37	39	44
-80.236610	3.385441	-14.988330	43	42	43
-79.799843	3.384820	-14.813722	37	39	42
-78.954659	3.383507	-14.849556	41	42	50
-78.532440	3.382849	-14.873447	41	42	48
-77.686218	3.381538	-14.896828	43	44	48
-77.480621	3.381193	-14.991052	42	43	48
-76.626251	3.379905	-14.893867	47	47	53
-76.196678	3.379270	-14.805934	43	43	50
-71.101250	3.371477	-14.612473	54	57	60
-57.159081	3.349534	-16.123295	111	112	126
-55.495567	3.346322	-18.263077	146	146	151
-54.868263	3.345097	-19.118237	151	148	160
-52.966579	3.341525	-21.236048	149	149	156
-52.331051	3.340251	-22.207512	147	148	155
-49.973202	3.335797	-24.920132	143	143	155
-48.240223	3.332539	-26.857590	146	147	156
-47.149029	3.330435	-28.255453	143	143	152
-44.948235	3.326277	-30.784065	145	145	157
-44.061066	3.324605	-31.793816	142	145	152
-43.838474	3.324179	-32.065105	142	142	151
-42.050591	3.320818	-34.067383	143	148	167
-41.387344	3.319794	-34.075138	157	162	175
-136.098953	3.264947	-7.974005	148	155	158
-135.663635	3.264344	-7.889875	152	156	165
-123.100105	3.245155	-7.735143	151	159	159
-98.448029	3.203163	-12.913767	12	12	12
-98.248749	3.202776	-13.016242	11	12	13
-90.384422	3.189385	-14.662098	33	33	35
-90.172844	3.189057	-14.665855	39	40	40
-88.698494	3.186713	-14.764587	29	30	30
-88.479622	3.186435	-14.690408	29	29	30
-75.551460	3.166596	-14.648057	43	47	53
-70.468285	3.158781	-14.649920	56	56	67
-57.360870	3.137879	-15.602290	108	107	115
-56.124435	3.134388	-17.612581	144	147	158
-53.601601	3.128283	-20.426722	144	146	153
-48.892380	3.116422	-26.268682	145	144	152
-46.053188	3.109679	-29.275856	144	147	155
-45.612503	3.108565	-29.828226	144	147	156
-42.499401	3.100827	-33.559856	141	147	153
-132.619354	3.051785	-7.287640	154	155	163
-132.417847	3.051430	-7.323893	151	156	159
-132.224945	3.051032	-7.403920	152	155	162
-131.632050	3.049905	-7.573972	151	160	160
-131.198090	3.049347	-7.489960	152	158	162
-130.552780	3.048484	-7.391453	150	156	157
-129.923843	3.047538	-7.376704	145	152	154
-129.311295	3.046508	-7.447764	150	159	155
-128.693314	3.045505	-7.491090	152	152	157
-128.056458	3.044601	-7.434309	151	156	163
-127.432838	3.043628	-7.447731	151	155	159
-126.805855	3.042672	-7.443051	154	157	162
-126.194115	3.041634	-7.521505	154	162	163
-125.567551	3.040676	-7.519536	156	161	162
-124.923546	3.039815	-7.420504	157	164	169
-124.291168	3.038891	-7.384910	152	162	167
-123.872665	3.038258	-7.378177	152	161	165
-123.087395	3.036695	-7.658971	158	159	167
-98.324829	2.991038	-13.667944	11	12	11
-98.105927	2.990784	-13.603929	12	12	13
-91.250603	2.978688	-14.842156	30	29	36
-90.808220	2.978249	-14.655839	29	30	36
-90.175148	2.977241	-14.684356	31	31	36
-89.552879	2.976105	-14.826876	29	31	36
-88.921417	2.975074	-14.875743	29	32	32
-88.478294	2.974657	-14.670667	29	30	28
-87.833885	2.973790	-14.576447	28	30	31
-87.419998	2.973015	-14.685684	27	29	31
-87.215843	2.972592	-14.772175	29	31	30
-86.591393	2.971468	-14.901644	30	30	31
-85.971893	2.970275	-15.092309	31	34	32
-85.347473	2.969139	-15.231844	33	32	35
-85.138535	2.968770	-15.270002	33	32	34
-84.713280	2.968130	-15.259788	32	33	33
-84.493881	2.967904	-15.173599	32	34	33
-84.050415	2.967521	-14.941640	33	30	34
-83.418800	2.966482	-14.996755	31	32	33
-82.792740	2.965360	-15.123426	31	31	33
-82.372253	2.964655	-15.170844	32	31	33
-81.723701	2.963862	-15.013460	32	31	33
-81.096901	2.962743	-15.136675	32	31	34
-80.683578	2.961923	-15.282135	31	32	33
-80.470802	2.961607	-15.274013	31	33	37
-80.253342	2.961365	-15.202360	31	32	37
-79.808769	2.961041	-14.923532	34	32	36
-79.168190	2.960141	-14.858912	34	35	38
-78.542114	2.959002	-14.998749	35	36	38
-77.907661	2.958000	-15.022008	37	39	39
-77.488068	2.957272	-15.088006	38	38	41
-76.843025	2.956455	-14.953321	38	39	42
-76.200401	2.955602	-14.849779	40	38	41
-75.556496	2.954780	-14.720898	37	40	42
-74.918045	2.953861	-14.674129	40	41	44
-74.295303	2.952635	-14.886052	38	40	41
-73.660942	2.951631	-14.910265	39	42	57
-73.228050	2.951168	-14.753961	42	41	46
-72.595688	2.950125	-14.810909	45	47	59
-71.966042	2.949020	-14.920212	52	54	66
-71.328804	2.948078	-14.892805	61	62	80
-70.690651	2.947159	-14.845951	56	57	63
-70.059258	2.946083	-14.930278	50	52	59
-69.423332	2.945113	-14.926714	54	53	65
-68.791489	2.944039	-15.008475	54	55	66
-68.158142	2.942999	-15.062681	56	57	70
-67.730675	2.942444	-14.984097	60	61	70
-67.084763	2.941751	-14.751221	60	63	71
-66.455215	2.940608	-14.890773	63	61	77
-65.821602	2.939573	-14.939961	79	77	99
-65.188591	2.938516	-15.007780	78	75	94
-64.548592	2.937679	-14.894865	79	80	86
-63.915642	2.936616	-14.967297	84	79	103
-63.278175	2.935705	-14.915309	74	70	77
-62.855289	2.935025	-14.939876	66	69	85
-62.218704	2.934088	-14.909138	70	70	79
-61.580772	2.933210	-14.831495	57	58	66
-60.945225	2.932241	-14.826674	60	60	71
-60.312344	2.931156	-14.916470	61	62	85
-59.677654	2.930143	-14.947285	62	59	78
-59.040615	2.929244	-14.886846	68	64	85
-58.405121	2.928273	-14.884135	48	48	56
-57.774559	2.927025	-15.104300	55	57	66
-57.359722	2.925843	-15.530709	80	82	84
-57.154922	2.925074	-15.886481	97	95	109
-56.744301	2.923532	-16.598774	138	137	146
-56.330345	2.922121	-17.206074	144	144	155
-56.122063	2.921474	-17.462284	142	144	155
-55.702000	2.920379	-17.813999	144	145	154
-55.492020	2.919809	-18.008236	144	147	155
-55.073570	2.918501	-18.529299	147	150	158
-54.864349	2.917814	-18.814909	149	149	160
-54.654716	2.917139	-19.091547	151	150	158
-54.233299	2.915911	-19.546412	150	150	154
-53.599548	2.914063	-20.231438	146	149	157
-52.963531	2.912244	-20.890936	148	144	155
-52.539238	2.910928	-21.410387	145	147	154
-52.115814	2.909343	-22.142324	147	147	155
-51.690411	2.907844	-22.803579	145	148	157
-51.262402	2.906587	-23.273392	146	145	156
-50.618912	2.904645	-24.020088	143	145	152
-50.188492	2.903410	-24.468954	140	145	150
-49.972988	2.902784	-24.700548	141	145	153
-49.541245	2.901553	-25.144945	143	144	152
-49.325249	2.900835	-25.447567	143	146	153
-49.109135	2.900005	-25.837254	145	146	155
-48.675713	2.898411	-26.563105	140	143	154
-48.240860	2.897328	-26.888359	145	146	156
-48.023201	2.896788	-27.050117	146	147	157
-47.587254	2.895563	-27.485094	145	147	151
-46.931725	2.893711	-28.146505	142	147	152
-46.274021	2.891783	-28.865421	143	148	155
-45.834076	2.890419	-29.404202	145	144	151
-45.613571	2.889705	-29.697641	146	143	153
-45.393028	2.889042	-29.951847	145	146	156
-44.729561	2.886990	-30.760342	140	144	155
-44.507912	2.886309	-31.026690	142	146	152
-44.285877	2.885610	-31.307058	142	144	149
-43.840683	2.884169	-31.900011	139	140	150
-43.173195	2.882289	-32.569160	141	140	149
-42.724438	2.880748	-33.236153	143	145	153
-42.499969	2.880017	-33.538395	142	146	155
-42.277290	2.879492	-33.681747	144	146	160
-42.055756	2.879089	-33.731262	148	152	166
-135.609314	2.847416	-7.617728	142	150	156
-135.347717	2.847472	-7.359823	138	141	151
-134.728790	2.846462	-7.395594	154	165	168
-133.875977	2.845315	-7.306737	156	161	174
-133.460602	2.844662	-7.316732	152	161	167
-133.033813	2.844093	-7.269565	154	159	166
-130.938446	2.840968	-7.224320	148	153	159
-130.331863	2.839863	-7.324395	148	152	157
-129.908768	2.839269	-7.294398	147	154	155
-126.357368	2.833881	-7.269865	155	163	166
-125.112656	2.831909	-7.308350	161	164	159
-123.850403	2.830084	-7.249033	156	160	163
-122.633484	2.827873	-7.446958	149	158	163
-98.643707	2.778561	-14.585589	12	12	12
-98.181671	2.778438	-14.255495	12	11	14
-85.987152	2.758008	-15.261990	31	34	37
-83.231163	2.753738	-15.293496	31	30	36
-82.811241	2.752996	-15.349618	31	30	36
-82.386772	2.752348	-15.349284	30	29	36
-57.566860	2.714504	-15.283110	56	56	60
-54.231995	2.702079	-19.426506	148	149	156
-53.598286	2.699918	-20.100679	146	149	158
-52.962341	2.697798	-20.749483	146	147	156
-52.326145	2.695369	-21.573362	148	146	153
-47.587803	2.677961	-27.320660	144	144	153
-46.932682	2.675893	-27.923361	143	145	152
-44.952541	2.668631	-30.318007	138	142	156
-134.696350	2.638360	-7.232198	146	150	165
-131.787659	2.633780	-7.295565	154	160	169
-128.842453	2.629573	-7.168905	149	158	155
-128.640015	2.629190	-7.201486	148	159	154
-127.821609	2.627749	-7.287015	150	159	159
-127.408936	2.627064	-7.311706	149	159	160
-126.137978	2.625360	-7.207212	155	159	162
-125.092720	2.623795	-7.194159	153	162	170
-124.473007	2.622774	-7.227608	159	161	168
-123.024010	2.620422	-7.290380	157	162	168
-87.261154	2.547872	-15.264620	31	30	34
-86.639046	2.546552	-15.428907	33	31	43
-83.657715	2.542263	-15.313917	34	36	42
-81.748047	2.539345	-15.316278	33	34	39
-79.843369	2.536282	-15.385644	36	34	43
-78.987633	2.535195	-15.288761	37	39	46
-78.569313	2.534364	-15.374695	40	39	53
-77.929192	2.533503	-15.323264	41	41	54
-77.503754	2.532890	-15.307081	47	45	62
-76.873840	2.531705	-15.406513	45	45	61
-74.532784	2.528390	-15.292965	44	44	59
-74.321465	2.528037	-15.306484	44	45	58
-71.349754	2.523586	-15.269976	73	75	95
-70.717590	2.522442	-15.349445	68	69	90
-70.081573	2.521455	-15.356812	52	51	60
-69.444725	2.520506	-15.347133	50	51	61
-68.809135	2.519500	-15.363262	56	54	68
-68.176018	2.518374	-15.433890	55	56	67
-67.533707	2.517692	-15.302076	54	53	62
-66.473434	2.516068	-15.305073	54	52	56
-65.836586	2.515131	-15.289540	52	53	58
-64.139175	2.512600	-15.263469	64	61	67
-63.928654	2.512185	-15.305391	65	61	67
-63.296040	2.510989	-15.407615	55	55	62
-62.660645	2.509959	-15.434669	59	56	61
-60.110714	2.506458	-15.262120	83	84	103
-59.688316	2.505676	-15.323088	78	82	100
-59.052650	2.504668	-15.340038	81	85	93
-58.417343	2.503623	-15.373837	57	57	71
-51.688206	2.477416	-22.438745	146	148	157
-48.675903	2.464509	-26.122559	144	147	154
-48.023945	2.461979	-26.802746	146	146	158
-46.276161	2.455446	-28.516426	145	147	156
-43.623207	2.444190	-31.711439	140	140	150
-43.177620	2.442347	-32.227032	143	142	151
-42.279915	2.438044	-33.527016	145	150	162
-42.058064	2.437530	-33.605011	151	155	171
-41.838039	2.437322	-33.548386	155	158	171
-134.446869	2.430200	-7.027153	156	152	157
-133.841888	2.428997	-7.130043	152	162	166
-133.639221	2.428607	-7.159648	156	159	170
-132.799042	2.427408	-7.130877	151	158	163
-132.371674	2.426899	-7.079426	154	160	161
-131.345291	2.425106	-7.163677	150	154	159
-131.126862	2.424912	-7.113220	150	156	159
-130.291458	2.423656	-7.107536	146	157	158
-129.873016	2.423038	-7.100653	149	151	154
-128.799133	2.421855	-6.936413	152	154	163
-128.591568	2.421526	-6.941220	149	154	158
-127.793564	2.419785	-7.133223	151	157	159
-127.376480	2.419149	-7.133440	148	157	162
-126.513985	2.418259	-6.979722	152	160	160
-126.311134	2.417866	-7.010381	153	163	161
-125.479752	2.416562	-7.024499	160	158	166
-125.061707	2.415942	-7.018597	153	160	166
-124.013252	2.414440	-6.984606	152	159	159
-123.799149	2.414202	-6.952798	154	157	163
-122.981750	2.412702	-7.045942	151	159	157
-122.597603	2.411602	-7.233834	143	155	157
-105.665054	2.443156	13.649617	17	17	19
-105.464241	2.442900	13.667856	16	17	19
-89.600395	2.339226	-15.309135	34	37	54
-89.379738	2.339134	-15.220515	38	38	57
-88.748322	2.338019	-15.276420	35	36	42
-88.328690	2.337237	-15.328715	33	35	32
-87.284073	2.335140	-15.513789	34	32	50
-87.077888	2.334637	-15.582611	33	34	48
-86.439499	2.333706	-15.568089	41	42	61
-86.009384	2.333221	-15.506086	43	45	57
-84.942703	2.331763	-15.446117	43	44	53
-84.731529	2.331405	-15.459381	43	42	55
-83.875786	2.330323	-15.379268	40	42	49
-83.461311	2.329353	-15.502720	38	38	41
-82.399452	2.327750	-15.498204	35	35	39
-82.183937	2.327535	-15.457088	35	35	37
-81.543098	2.326704	-15.404560	35	35	40
-81.119698	2.326020	-15.418891	37	34	40
-80.072273	2.323910	-15.606862	37	34	41
-79.855179	2.323760	-15.541428	38	35	42
-78.995926	2.322842	-15.399220	37	38	47
-78.573189	2.322132	-15.423530	42	41	51
-77.509140	2.320632	-15.380179	50	50	71
-77.300873	2.320154	-15.438921	53	53	67
-76.668251	2.319022	-15.500721	47	46	52
-76.237648	2.318626	-15.406154	45	44	49
-75.168602	2.317356	-15.276406	45	46	50
-74.959351	2.316909	-15.323096	46	44	52
-74.119301	2.315238	-15.466324	43	42	45
-73.691628	2.314739	-15.411011	43	45	50
-72.622345	2.313521	-15.261963	51	49	57
-71.780472	2.311909	-15.382274	64	64	84
-71.359665	2.311089	-15.447981	71	70	85
-70.304810	2.309157	-15.566916	57	53	54
-70.091553	2.308888	-15.546587	47	46	47
-69.241745	2.307648	-15.527492	43	43	47
-68.815826	2.307087	-15.495636	49	50	58
-67.758896	2.305235	-15.584316	49	48	53
-67.542648	2.305154	-15.493993	47	47	51
-66.901962	2.304445	-15.397320	47	47	52
-66.483223	2.303448	-15.528266	47	47	52
-65.415810	2.302274	-15.364095	49	49	53
-65.203972	2.301934	-15.370636	46	50	56
-64.357315	2.300518	-15.417297	54	54	61
-63.936218	2.299639	-15.503713	54	56	61
-62.879253	2.297723	-15.615923	50	50	54
-62.665535	2.297523	-15.570241	47	46	48
-62.022598	2.297098	-15.368627	56	52	73
-61.600613	2.296264	-15.438664	63	60	73
-60.541142	2.294552	-15.474964	63	60	79
-60.329060	2.294226	-15.476130	65	64	76
-59.482098	2.292781	-15.533039	63	65	67
-59.057453	2.292177	-15.517919	58	59	64
-57.993870	2.290922	-15.385405	51	50	55
-57.781414	2.290649	-15.366926	50	51	50
-56.949791	2.287124	-16.190105	118	122	132
-56.741802	2.286185	-16.417074	134	134	143
-56.533520	2.285256	-16.640175	137	143	151
-55.487476	2.280830	-17.672808	148	147	156
-55.277805	2.279920	-17.887978	148	149	158
-54.650829	2.276582	-18.756721	150	151	156
-54.441555	2.275414	-19.066275	150	148	157
-54.231247	2.274391	-19.322094	147	148	155
-53.172157	2.270198	-20.262808	149	150	159
-52.959244	2.269497	-20.399965	151	150	158
-52.111610	2.265042	-21.553312	144	148	155
-50.617954	2.256982	-23.661812	143	149	153
-50.403240	2.255920	-23.929386	141	147	153
-49.325256	2.251173	-25.061266	147	145	156
-48.241795	2.245769	-26.429800	145	147	155
-48.024342	2.244900	-26.625549	148	146	159
-47.152714	2.241524	-27.372244	144	146	152
-46.934177	2.240510	-27.620703	142	143	152
-45.836868	2.234907	-29.053820	145	149	154
-45.175846	2.231826	-29.809835	141	143	150
-44.733826	2.229728	-30.329189	140	142	150
-44.290340	2.227485	-30.900414	140	143	147
-44.068672	2.226508	-31.133327	138	142	148
-43.180313	2.222743	-32.012741	143	143	151
-42.731823	2.220169	-32.701900	141	145	153
-89.858803	2.125963	-15.785250	36	37	46
-73.051231	2.101905	-15.336173	41	42	46
-72.622467	2.101511	-15.256590	42	43	44
-57.363441	2.077111	-15.640018	57	59	61
-55.904629	2.070066	-17.134323	149	150	160
-53.808823	2.058513	-19.723766	146	148	154
-53.597099	2.057555	-19.920650	147	147	153
-52.322392	2.051926	-21.063238	148	149	156
-51.685429	2.047928	-22.000799	147	148	155
-51.259220	2.045283	-22.618816	143	145	156
-49.972038	2.038439	-24.131317	141	143	151
-49.541012	2.036164	-24.632788	146	145	155
-49.325142	2.035018	-24.885744	146	146	155
-48.676105	2.031415	-25.695335	144	144	154
-46.277748	2.019374	-28.293671	146	148	153
-44.513512	2.009579	-30.495186	140	142	149
-43.848694	2.006292	-31.199707	141	140	149
-134.375290	2.014943	-6.666626	141	145	148
-128.746262	2.006484	-6.649806	147	152	161
-128.110123	2.005741	-6.590534	155	162	164
-127.088966	2.003787	-6.700161	154	160	161
-125.207718	2.001066	-6.665923	158	164	165
-124.988930	2.000951	-6.607929	155	163	164
-123.751213	1.998827	-6.675279	148	156	158
-123.126381	1.997879	-6.675765	150	159	159
-91.139702	1.907301	-18.002098	27	25	29
-90.718445	1.906437	-18.062893	27	28	38
-90.450432	1.908123	-17.501032	29	30	43
-90.153442	1.910905	-16.632629	32	33	45
-89.871063	1.913175	-15.907802	34	35	47
-86.408600	1.910546	-15.205706	51	51	56
-85.982254	1.909985	-15.182966	55	54	64
-85.342651	1.909151	-15.146810	48	48	55
-84.702538	1.908345	-15.103065	48	47	54
-84.068275	1.907290	-15.128472	46	46	52
-83.432785	1.906287	-15.139428	42	43	48
-82.789223	1.905648	-15.049321	42	41	47
-82.360886	1.905197	-14.996265	39	41	46
-81.731895	1.903900	-15.088904	40	41	47
-81.096558	1.902893	-15.101146	40	42	45
-79.195679	1.899603	-15.211716	45	43	47
-78.550606	1.899089	-15.087450	44	42	45
-77.916412	1.898020	-15.116673	43	44	49
-77.493744	1.897299	-15.138626	48	46	54
-76.859711	1.896214	-15.172084	46	47	51
-76.228577	1.894962	-15.251744	44	45	48
-75.591843	1.894019	-15.246102	43	44	49
-74.953850	1.893152	-15.219569	44	44	50
-73.043922	1.890330	-15.200932	46	46	51
-71.983864	1.888704	-15.206655	48	49	52
-65.622551	1.879058	-15.210756	51	49	56
-65.198059	1.878457	-15.199585	52	54	61
-62.442978	1.874172	-15.230353	49	49	53
-62.230091	1.873950	-15.203293	48	49	52
-58.203468	1.867690	-15.247408	51	50	55
-57.779373	1.867069	-15.241821	54	56	58
-56.112000	1.858707	-16.810341	147	147	155
-52.956734	1.841670	-20.104700	151	152	159
-51.684715	1.833181	-21.868155	146	150	156
-51.258724	1.830188	-22.499250	144	146	154
-51.045120	1.828777	-22.791426	145	147	154
-50.617111	1.825920	-23.385017	144	146	153
-49.971569	1.822912	-23.930777	144	143	149
-49.540791	1.820327	-24.449993	147	149	157
-49.325119	1.818895	-24.747072	147	148	156
-48.892776	1.816351	-25.254677	144	148	155
-48.459530	1.813240	-25.914581	143	142	153
-48.025082	1.810833	-26.384556	144	147	158
-47.371777	1.807362	-27.051350	145	142	154
-46.935287	1.805208	-27.452736	144	148	156
-46.716782	1.804162	-27.644844	146	148	157
-46.278164	1.801171	-28.269968	146	148	155
-45.837914	1.797889	-28.973015	147	147	157
-45.617691	1.796512	-29.253288	146	148	157
-45.397278	1.795183	-29.520765	144	147	154
-44.956341	1.792866	-29.963844	140	143	151
-44.514637	1.790590	-30.395809	140	142	151
-44.293098	1.789293	-30.654198	140	141	153
-43.849800	1.786901	-31.116604	142	140	148
-43.628456	1.785939	-31.285130	141	140	149
-43.184586	1.783782	-31.683994	138	140	151
-42.961487	1.782424	-31.958334	139	144	150
-42.512581	1.779140	-32.657982	143	144	154
-42.288040	1.777618	-32.975651	144	146	159
-42.065418	1.776707	-33.129810	147	152	169
-41.627750	1.776942	-32.888840	155	161	174
-134.365753	1.807070	-6.615954	126	133	143
-134.168091	1.806548	-6.668930	142	151	163
-133.982422	1.805794	-6.781636	146	154	164
-133.570251	1.805072	-6.805073	156	159	165
-133.122467	1.805048	-6.650299	157	162	166
-132.899109	1.805027	-6.575094	157	162	166
-132.276443	1.804038	-6.586826	150	157	160
-131.676529	1.802594	-6.714637	153	156	158
-131.460968	1.802422	-6.677996	154	158	159
-131.030289	1.802074	-6.606339	152	163	160
-130.660141	1.800504	-6.846429	155	158	166
-130.457565	1.800070	-6.876862	155	156	166
-129.815430	1.799468	-6.789419	149	155	158
-129.192612	1.798475	-6.802084	142	149	156
-128.736084	1.798668	-6.592367	143	148	157
-128.082031	1.798333	-6.437319	150	155	163
-127.490608	1.796689	-6.615700	152	161	167
-126.871758	1.795616	-6.648516	153	164	169
-126.675812	1.795038	-6.715610	155	165	168
-126.282578	1.793906	-6.843531	153	162	162
-125.637672	1.793387	-6.735391	160	158	168
-125.409668	1.793499	-6.627115	155	158	167
-124.959091	1.793611	-6.438844	155	163	162
-124.357033	1.792171	-6.564787	155	157	160
-123.737831	1.791105	-6.596130	155	155	161
-123.115540	1.790105	-6.610401	149	162	160
-122.512550	1.788668	-6.735390	149	157	161
-89.244637	1.699337	-16.021414	25	26	25
-88.802162	1.699447	-15.836587	25	26	26
-88.367233	1.699242	-15.729378	23	22	24
-87.675179	1.700728	-15.128104	29	29	28
-87.227715	1.701136	-14.870745	33	33	32
-86.575729	1.700908	-14.691027	53	54	62
-85.937683	1.700053	-14.665248	66	68	74
-85.304512	1.698970	-14.695397	65	67	73
-84.450851	1.697981	-14.624081	64	66	70
-83.817146	1.696924	-14.647816	62	64	68
-83.604759	1.696629	-14.641774	61	64	68
-82.320465	1.695385	-14.476711	59	62	67
-81.488724	1.693282	-14.677885	61	62	65
-81.064636	1.692659	-14.673787	60	62	67
-80.440155	1.691083	-14.824042	60	62	66
-79.808891	1.689865	-14.887017	60	61	69
-79.164680	1.689380	-14.771049	63	60	67
-78.098160	1.688194	-14.670222	61	62	71
-77.464828	1.687098	-14.703376	66	65	74
-76.616539	1.685869	-14.690948	64	66	68
-76.202034	1.684643	-14.833635	65	66	73
-75.566986	1.683636	-14.845013	66	66	72
-74.932137	1.682614	-14.860044	63	65	70
-74.304352	1.681107	-14.992907	63	66	71
-73.675453	1.679651	-15.113148	63	64	70
-73.022919	1.679873	-14.826357	66	66	72
-72.590576	1.679860	-14.674277	64	67	73
-71.962212	1.678367	-14.803613	67	69	74
-71.340645	1.676318	-15.067366	68	70	75
-70.714096	1.674604	-15.249629	66	70	76
-70.072845	1.674054	-15.150391	65	65	71
-69.431877	1.673505	-15.050725	64	63	70
-68.792450	1.672850	-14.976940	65	67	74
-68.151367	1.672366	-14.862113	67	67	77
-67.731201	1.671396	-14.941835	69	69	76
-67.095985	1.670387	-14.953652	68	69	77
-66.463997	1.669057	-15.042766	76	77	79
-65.821831	1.668743	-14.887061	70	68	75
-65.181694	1.668264	-14.771210	69	71	77
-64.555626	1.666273	-15.019662	73	75	77
-63.924770	1.664749	-15.155402	75	75	82
-63.287212	1.663980	-15.109272	69	70	76
-62.858414	1.663942	-14.964620	68	67	78
-62.215595	1.663906	-14.742582	67	70	76
-61.586349	1.662127	-14.939373	73	72	79
-60.957336	1.660235	-15.163164	73	73	76
-60.321335	1.659290	-15.159492	70	74	79
-59.680111	1.659174	-14.957086	68	69	75
-59.043674	1.658360	-14.922236	68	70	76
-58.406822	1.657640	-14.864620	71	72	75
-57.774876	1.656026	-15.021435	84	86	89
-57.357838	1.654055	-15.340084	97	99	111
-56.733334	1.650625	-15.930759	142	147	152
-56.109158	1.646721	-16.634151	145	147	156
-55.482338	1.642964	-17.301828	150	152	157
-55.066730	1.639562	-17.960657	151	153	158
-54.857635	1.638084	-18.236738	151	152	159
-54.647243	1.636899	-18.442776	152	151	161
-54.226501	1.634333	-18.901381	149	152	156
-54.016964	1.632679	-19.219076	149	148	158
-53.807076	1.631040	-19.533281	150	150	156
-53.595890	1.629738	-19.766706	148	150	153
-52.956570	1.627544	-20.058414	153	152	160
-52.744606	1.626271	-20.284889	149	149	161
-52.321362	1.623122	-20.881144	145	148	155
-51.896858	1.620020	-21.465509	144	146	153
-51.684372	1.618367	-21.782036	143	149	157
-51.471695	1.616646	-22.114479	144	149	155
-49.971302	1.607363	-23.781300	145	145	152
-48.676498	1.598363	-25.454679	146	147	153
-47.590107	1.591024	-26.808210	142	148	156
-41.409317	1.556580	-32.772797	156	162	175
-130.008804	1.592028	-6.707597	147	154	156
-129.793930	1.591864	-6.673686	148	156	154
-128.953735	1.590766	-6.637951	154	152	158
-126.257675	1.586395	-6.704040	154	161	165
-122.492233	1.581140	-6.615225	148	154	159
-121.874855	1.580009	-6.658124	144	150	156
-121.428383	1.580152	-6.484492	144	150	151
-89.294609	1.484482	-16.545532	21	23	24
-89.039200	1.486227	-16.092314	24	25	25
-87.883560	1.489236	-15.081263	23	24	24
-87.167114	1.492337	-14.191710	31	32	33
-86.941322	1.492737	-14.034192	39	39	44
-86.511032	1.492463	-13.954466	67	71	74
-85.881035	1.491259	-14.008759	84	86	88
-85.673424	1.490730	-14.054850	86	89	91
-85.250671	1.490067	-14.060475	85	87	91
-85.035690	1.489929	-14.020924	87	87	91
-84.820038	1.489829	-13.973037	85	89	91
-84.186066	1.488832	-13.981906	85	92	91
-83.549019	1.488007	-13.953282	84	86	90
-82.910202	1.487289	-13.901369	89	88	88
-82.273903	1.486435	-13.879247	86	86	91
-81.651573	1.484756	-14.036943	84	85	89
-81.022408	1.483464	-14.110395	85	86	89
-80.177139	1.482117	-14.126104	82	87	88
-79.757317	1.481265	-14.172756	85	86	88
-79.335861	1.480512	-14.197905	87	87	87
-78.693771	1.480024	-14.095920	85	86	93
-78.059280	1.479051	-14.099740	85	88	90
-77.426437	1.477966	-14.127756	89	92	94
-77.207123	1.478177	-14.012452	91	94	94
-76.778671	1.477915	-13.930927	93	93	95
-76.368927	1.476342	-14.134359	90	92	94
-76.163277	1.475600	-14.226332	88	93	95
-75.103363	1.474139	-14.197544	91	92	94
-74.896332	1.473478	-14.271761	89	94	93
-74.055275	1.471779	-14.363887	91	91	92
-73.635902	1.470828	-14.431856	89	90	94
-72.773422	1.470825	-14.155855	91	91	94
-72.559486	1.470701	-14.113798	91	91	96
-71.720680	1.468799	-14.249577	95	95	99
-71.304649	1.467541	-14.384136	94	95	97
-70.256973	1.464979	-14.593567	91	93	95
-70.042831	1.464878	-14.546256	91	92	93
-69.191208	1.464050	-14.449513	90	92	96
-68.764778	1.463711	-14.384955	89	95	98
-67.702019	1.462584	-14.284204	94	95	99
-66.858887	1.460962	-14.359127	91	96	96
-66.435333	1.460359	-14.351746	96	98	99
-65.369720	1.459649	-14.161116	94	94	94
-65.158142	1.459339	-14.159352	93	98	99
-64.323509	1.456641	-14.465951	95	99	100
-63.901306	1.455862	-14.496482	97	98	99
-62.625214	1.454804	-14.312520	93	94	97
-61.984909	1.454669	-14.135988	91	96	98
-61.568604	1.453030	-14.351497	95	98	104
-60.515469	1.450660	-14.518293	92	97	97
-60.303196	1.450445	-14.495892	95	99	98
-59.453079	1.449813	-14.357991	92	93	98
-59.032135	1.448768	-14.445400	92	93	96
-57.353683	1.443042	-15.125980	122	127	135
-56.729729	1.439270	-15.728756	144	147	153
-56.106594	1.434833	-16.473396	147	148	154
-48.025848	1.377512	-26.083042	145	151	157
-44.958496	1.355657	-29.751404	140	142	149
-87.606598	1.280540	-14.363018	26	25	26
-87.346855	1.282899	-13.832860	30	30	33
-86.663040	1.284742	-13.279544	66	64	76
-86.237846	1.284262	-13.248901	91	92	97
-86.031433	1.283667	-13.303920	96	98	103
-84.981339	1.281713	-13.376388	101	101	106
-84.766792	1.281591	-13.337803	99	102	109
-83.922356	1.280284	-13.345113	100	103	110
-83.494469	1.279983	-13.279344	100	102	108
-82.652939	1.278500	-13.321461	99	102	109
-82.227760	1.278039	-13.287149	101	105	110
-81.399193	1.275694	-13.499388	102	102	108
-80.977844	1.274973	-13.516339	98	102	108
-80.331375	1.274875	-13.347975	100	104	109
-79.911179	1.274083	-13.378861	101	103	108
-79.494576	1.273036	-13.460196	97	103	108
-79.291801	1.272117	-13.578526	101	104	106
-78.455856	1.270164	-13.712886	105	105	108
-78.028549	1.269862	-13.647412	99	110	110
-76.950157	1.269927	-13.322532	105	106	111
-76.528786	1.269213	-13.338095	108	108	117
-76.120697	1.267451	-13.559736	106	111	114
-75.489616	1.266270	-13.604539	107	108	116
-75.061798	1.266060	-13.521189	107	106	114
-74.437965	1.264268	-13.685888	106	108	117
-73.800575	1.263603	-13.629478	105	109	113
-73.162415	1.263022	-13.556669	107	111	113
-72.525848	1.262318	-13.508080	107	110	118
-71.893318	1.261253	-13.530242	110	114	118
-71.262878	1.259982	-13.592607	110	112	117
-70.640594	1.257891	-13.815556	108	111	117
-70.008263	1.256753	-13.851743	109	111	110
-69.370636	1.256159	-13.781551	107	112	113
-68.948204	1.255494	-13.787556	106	113	117
-68.304932	1.255554	-13.589570	111	116	120
-67.672462	1.254454	-13.618533	110	113	118
-67.042305	1.253074	-13.702044	108	112	117
-66.404747	1.252567	-13.615133	112	117	120
-65.770378	1.251691	-13.600266	111	115	119
-65.133095	1.251205	-13.509272	112	115	120
-64.508522	1.249027	-13.748347	111	114	120
-63.874649	1.248069	-13.749547	118	119	122
-63.450333	1.247684	-13.700839	114	115	120
-62.818115	1.246488	-13.748231	109	114	115
-62.178417	1.246463	-13.567851	112	113	122
-61.550266	1.244603	-13.744517	115	116	125
-60.922874	1.242522	-13.964038	113	113	119
-60.283619	1.242511	-13.780964	109	114	119
-59.646236	1.242244	-13.647701	109	110	117
-59.019684	1.239828	-13.932112	109	111	113
-58.386826	1.238613	-13.983104	115	118	121
-58.178802	1.237545	-14.128693	125	119	126
-57.971458	1.236290	-14.310603	127	128	139
-55.063049	1.214435	-17.681740	150	153	159
-54.645374	1.210762	-18.268913	151	150	161
-54.223835	1.208114	-18.657375	147	149	158
-53.803799	1.204550	-19.222794	146	149	154
-53.169502	1.200202	-19.877415	151	151	157
-52.956650	1.199229	-20.003410	153	154	160
-52.744541	1.197821	-20.213291	151	151	158
-51.895771	1.191138	-21.255932	145	148	159
-51.683800	1.188905	-21.625069	149	148	161
-51.044827	1.182936	-22.590738	148	150	162
-50.616524	1.179677	-23.095123	150	151	157
-50.186543	1.177230	-23.442324	147	146	154
-49.756432	1.173971	-23.946093	148	150	153
-49.109570	1.168730	-24.769186	146	147	154
-48.460140	1.165124	-25.276251	143	145	153
-47.808823	1.159163	-26.236937	147	149	156
-47.154789	1.153386	-27.161175	144	143	154
-46.936493	1.152025	-27.360374	144	143	151
-46.718014	1.150674	-27.557507	144	143	151
-46.060047	1.145144	-28.433130	148	149	155
-45.620857	1.142232	-28.867418	146	148	154
-44.739491	1.136095	-29.795301	140	140	146
-44.518044	1.134217	-30.093197	140	141	148
-43.628693	1.126361	-31.350224	142	140	147
-43.185524	1.123984	-31.680080	140	144	150
-42.740593	1.121125	-32.102463	142	145	154
-42.292934	1.117507	-32.670425	147	150	158
-42.070564	1.116414	-32.816742	149	154	166
-41.192867	1.116452	-32.555210	159	165	176
-132.641052	1.182046	-6.313944	149	163	168
-132.428009	1.181865	-6.289514	155	163	164
-131.595016	1.180624	-6.288286	154	162	163
-131.156555	1.180609	-6.175135	145	156	157
-130.387512	1.177594	-6.503434	153	158	158
-129.964417	1.177153	-6.469438	152	155	161
-129.129715	1.175952	-6.460588	146	145	161
-128.675308	1.176408	-6.260390	151	157	157
-127.806572	1.176201	-6.067439	153	159	157
-127.461723	1.173515	-6.449639	150	158	159
-126.621834	1.172471	-6.411781	155	156	163
-126.197449	1.172082	-6.368319	158	160	161
-125.343063	1.171479	-6.248915	156	161	163
-124.919243	1.171083	-6.206845	148	155	157
-124.125893	1.168655	-6.425306	148	160	160
-123.702797	1.168235	-6.387535	144	157	160
-122.869461	1.167008	-6.383758	152	157	163
-122.660370	1.166724	-6.378459	145	152	160
-121.798836	1.166381	-6.211504	148	151	156
-121.383789	1.165723	-6.217854	143	148	148
-89.406250	1.052542	-17.717546	20	20	22
-87.057884	1.075986	-12.966601	38	40	47
-86.402870	1.076397	-12.721267	101	102	124
-85.992386	1.075039	-12.852180	115	115	136
-85.154030	1.073400	-12.919678	120	124	137
-84.726448	1.073125	-12.855210	117	122	134
-83.882423	1.071855	-12.856089	118	123	139
-83.453735	1.071675	-12.774741	123	127	140
-82.618240	1.069824	-12.880207	120	125	145
-82.192383	1.069461	-12.831729	124	126	143
-81.977005	1.069456	-12.775763	123	126	145
-81.561501	1.068361	-12.858943	122	125	141
-81.152962	1.066747	-13.035572	122	126	145
-80.290398	1.066846	-12.790379	125	130	143
-79.868233	1.066232	-12.787075	126	127	145
-79.453377	1.065057	-12.884506	122	127	143
-77.778145	1.061492	-13.070444	124	129	146
-77.355896	1.060866	-13.069157	128	129	150
-76.498024	1.060757	-12.861857	127	135	148
-76.085945	1.059274	-13.014492	129	135	145
-75.457481	1.057914	-13.088184	129	133	150
-75.028122	1.057930	-12.971894	127	130	146
-74.190422	1.056078	-13.077089	130	132	146
-73.764481	1.055808	-13.012264	127	133	145
-72.916779	1.054898	-12.948678	128	133	147
-72.497581	1.053991	-12.997901	130	135	151
-71.653824	1.052701	-13.002324	133	135	149
-71.228111	1.052459	-12.932615	132	137	150
-70.400375	1.049440	-13.245996	132	134	148
-69.980003	1.048603	-13.282568	132	136	146
-69.344315	1.047920	-13.234973	130	132	147
-68.922417	1.047254	-13.241019	130	136	149
-68.067764	1.047243	-13.017234	135	137	148
-67.649315	1.046174	-13.095145	130	136	152
-66.809341	1.044380	-13.189546	130	138	150
-66.381561	1.044505	-13.054521	132	139	155
-65.537086	1.043318	-13.040773	133	135	150
-65.113998	1.042851	-13.011359	134	136	148
-64.276711	1.040602	-13.186413	133	138	147
-64.065277	1.040348	-13.175377	135	136	146
-63.217541	1.039674	-13.070339	135	138	151
-62.798962	1.038483	-13.169685	135	137	150
-61.951427	1.037838	-13.059615	132	138	150
-61.534576	1.036283	-13.223435	138	137	152
-61.125507	1.033202	-13.658406	132	138	147
-60.480511	1.034493	-13.260653	129	135	146
-60.268261	1.034421	-13.217190	130	134	149
-59.422298	1.033572	-13.143468	130	133	143
-58.800041	1.030170	-13.578656	126	130	133
-58.173008	1.027627	-13.861249	140	135	145
-57.966415	1.026127	-14.070904	143	142	151
-57.140221	1.019522	-15.016561	146	150	156
-56.724762	1.016501	-15.439198	144	148	159
-56.103283	1.010956	-16.252224	146	148	158
-55.895233	1.009224	-16.502422	150	149	156
-55.476780	1.006309	-16.905651	149	150	160
-54.433113	0.996675	-18.327499	150	149	155
-52.319893	0.980520	-20.616173	147	148	154
-51.257889	0.970020	-22.185974	148	149	160
-49.971249	0.960514	-23.521248	150	147	154
-48.676777	0.951355	-24.793261	147	148	154
-47.591560	0.940325	-26.450310	146	150	154
-44.074497	0.910948	-30.697989	138	139	146
-43.852051	0.908849	-31.009003	139	136	146
-42.518570	0.899651	-32.277637	144	145	156
-133.044174	0.975180	-6.243794	156	163	167
-128.406128	0.970160	-5.933537	148	150	153
-127.644852	0.966692	-6.311604	150	158	158
-121.568207	0.959056	-6.077050	140	150	159
-97.959305	0.851286	-17.837000	12	12	12
-89.886841	0.836519	-18.275400	21	19	23
-89.131973	0.842856	-17.064165	20	20	22
-88.862129	0.846196	-16.456856	20	20	24
-88.586197	0.849971	-15.777541	21	20	24
-88.298256	0.854573	-14.961143	21	19	24
-86.821716	0.866420	-12.680973	69	70	88
-85.970184	0.865690	-12.592915	131	137	152
-85.343437	0.864325	-12.662434	134	140	156
-84.702751	0.863941	-12.569383	137	140	155
-84.069176	0.863062	-12.558387	136	142	158
-82.801453	0.861358	-12.527443	139	147	159
-81.740837	0.860277	-12.445642	141	148	163
-79.223595	0.855459	-12.616936	135	139	156
-77.761093	0.852053	-12.814844	143	149	166
-77.339172	0.851424	-12.814599	147	148	168
-76.693298	0.851675	-12.617312	144	152	169
-76.269035	0.851284	-12.577866	146	156	171
-75.649300	0.849122	-12.778375	149	160	171
-75.007614	0.849049	-12.634561	144	153	170
-74.381104	0.847501	-12.733840	148	154	167
-73.742371	0.847178	-12.631304	147	154	166
-73.108192	0.846410	-12.602206	151	159	170
-72.479614	0.845048	-12.670763	149	154	171
-71.848732	0.843920	-12.700753	150	157	169
-71.204872	0.844265	-12.488700	151	159	172
-70.789360	0.842939	-12.602956	153	156	166
-68.480232	0.838234	-12.806441	150	159	171
-68.264709	0.838528	-12.706416	154	158	169
-67.634895	0.837222	-12.765673	151	164	169
-66.582703	0.835352	-12.813900	154	158	179
-66.368683	0.835494	-12.739024	151	164	177
-65.734268	0.834839	-12.691400	151	154	173
-65.102768	0.833753	-12.714434	158	158	172
-64.681793	0.833021	-12.731096	155	158	175
-64.050156	0.831943	-12.752840	151	162	170
-63.412960	0.831821	-12.618164	157	158	174
-62.785088	0.830086	-12.747465	155	157	172
-62.154289	0.828835	-12.797382	155	159	178
-61.521023	0.828048	-12.771597	161	162	175
-60.046558	0.825583	-12.813858	153	157	172
-59.622147	0.825597	-12.708725	154	155	173
-59.003311	0.821352	-13.247350	151	154	157
-57.961956	0.816038	-13.856965	145	146	153
-56.309223	0.801082	-15.882665	146	149	157
-54.850384	0.787895	-17.668499	151	150	158
-53.378822	0.774995	-19.404564	146	150	158
-49.325191	0.739812	-24.129801	144	145	153
-48.027042	0.729252	-25.528267	147	147	158
-46.281120	0.711738	-27.946306	144	145	152
-45.623219	0.706931	-28.566620	147	146	150
-44.520576	0.697315	-29.859362	136	140	151
-133.378189	0.770562	-5.829745	147	157	164
-132.804382	0.768032	-6.081397	153	164	166
-132.382217	0.767604	-6.051203	153	163	164
-131.546310	0.766480	-6.032784	154	159	163
-126.351021	0.758528	-6.064009	152	157	157
-126.148170	0.758038	-6.092247	151	155	155
-125.302505	0.757271	-6.017969	151	155	163
-125.092903	0.757017	-6.009168	155	159	159
-123.433769	0.754364	-6.036310	149	160	161
-123.016098	0.753804	-6.026824	149	154	163
-122.607292	0.752922	-6.067797	148	156	160
-121.361908	0.750964	-6.083109	137	148	148
-120.759880	0.749210	-6.211898	137	142	144
-98.455147	0.634683	-18.430021	10	10	11
-98.233398	0.634811	-18.361057	11	10	12
-89.397247	0.626627	-17.611303	20	20	22
-70.167404	0.629967	-12.799865	159	161	178
-69.524025	0.630451	-12.582914	156	164	178
-60.679028	0.615813	-12.801353	161	166	178
-58.579494	0.610309	-13.158246	151	151	157
-58.163330	0.608016	-13.409634	142	149	154
-57.957275	0.606221	-13.633327	145	146	156
-57.548717	0.601337	-14.275979	145	146	156
-57.137150	0.597018	-14.832981	147	146	158
-56.720898	0.593916	-15.205980	146	145	154
-56.513794	0.591916	-15.460271	144	146	157
-56.098850	0.587913	-15.968994	146	150	158
-55.472820	0.582607	-16.626350	147	151	157
-55.055687	0.578527	-17.146238	147	152	160
-54.847668	0.576082	-17.467237	151	150	157
-54.638905	0.573832	-17.758690	146	147	158
-54.218140	0.570483	-18.167868	144	148	153
-54.007866	0.568605	-18.403030	147	151	154
-53.587723	0.564259	-18.962227	147	149	157
-52.954849	0.558121	-19.743101	148	151	154
-52.532433	0.553510	-20.341522	146	149	155
-52.320259	0.551583	-20.583748	145	148	158
-52.108032	0.549515	-20.847054	146	149	157
-51.683407	0.544880	-21.448595	147	149	156
-51.042465	0.539805	-22.067837	145	150	156
-50.613796	0.536878	-22.411819	149	147	155
-50.399616	0.534872	-22.665352	152	150	157
-49.970722	0.530519	-23.223742	146	150	162
-49.324806	0.525416	-23.846062	147	148	154
-48.677040	0.520595	-24.425585	146	148	155
-48.244270	0.515751	-25.056898	148	147	156
-48.027374	0.512522	-25.493687	147	149	158
-47.810074	0.509450	-25.906790	144	149	157
-47.592499	0.506954	-26.233206	146	148	154
-47.374763	0.505030	-26.473660	144	147	153
-46.938717	0.501455	-26.913403	143	147	154
-46.501011	0.496482	-27.562874	144	146	154
-46.281681	0.493991	-27.888142	143	145	153
-46.062408	0.492008	-28.137077	145	146	153
-45.624165	0.489227	-28.456987	145	144	151
-45.184845	0.485994	-28.844530	138	139	147
-44.964096	0.483638	-29.149282	138	139	149
-44.742813	0.481076	-29.484724	138	139	148
-44.521492	0.478747	-29.785316	138	139	148
-44.300304	0.476742	-30.037148	139	138	146
-43.636898	0.471783	-30.634016	135	138	147
-43.192936	0.468041	-31.096924	138	138	146
-42.969685	0.465637	-31.408287	140	140	146
-42.745865	0.463086	-31.741642	140	142	147
-42.521591	0.460465	-32.085384	141	144	152
-42.297310	0.458010	-32.404221	142	146	158
-42.074139	0.456250	-32.618755	146	150	164
-41.415112	0.456158	-32.484875	156	164	175
-40.976818	0.456444	-32.343742	152	158	177
-40.755898	0.455828	-32.386787	151	158	179
-39.874809	0.454448	-32.396870	151	157	178
-39.656254	0.454707	-32.308964	150	157	178
-133.778839	0.564054	-5.750257	123	131	138
-133.579529	0.563451	-5.793183	143	151	160
-132.971390	0.561984	-5.872003	153	165	169
-132.358917	0.560659	-5.930079	153	160	168
-131.724640	0.560087	-5.878065	149	159	166
-131.114990	0.558658	-5.951292	150	160	161
-130.746796	0.556351	-6.197585	155	159	158
-130.536026	0.556135	-6.184016	152	160	166
-129.890076	0.555976	-6.071832	150	158	160
-129.271561	0.554843	-6.101600	148	157	160
-128.602936	0.555524	-5.867128	147	157	156
-128.143967	0.556473	-5.638537	147	150	159
-127.415604	0.551445	-6.191124	153	158	160
-127.181953	0.552078	-6.053715	155	157	159
-126.746819	0.552167	-5.950644	152	161	158
-126.325005	0.551767	-5.918837	152	155	155
-125.503326	0.550146	-5.974770	151	157	161
-125.066933	0.550303	-5.861942	148	163	157
-124.481873	0.547894	-6.077562	149	159	160
-124.279755	0.547357	-6.110577	147	154	158
-123.835503	0.547826	-5.952409	146	156	160
-123.206238	0.547108	-5.921921	152	155	155
-122.586700	0.546012	-5.946388	147	154	156
-121.975258	0.544593	-6.017834	144	144	153
-121.356499	0.543459	-6.047885	144	149	150
-121.165298	0.542476	-6.145659	141	143	147
-120.754295	0.541653	-6.175327	136	139	151
-120.122917	0.541020	-6.132534	133	139	143
-98.726784	0.417856	-18.925779	11	11	11
-98.495644	0.418571	-18.777519	11	11	11
-98.046852	0.419203	-18.595564	12	11	13
-86.149513	0.447018	-12.222971	138	136	155
-85.946854	0.446058	-12.315177	138	137	159
-85.319206	0.444737	-12.369485	139	145	163
-84.680542	0.444317	-12.295357	141	146	166
-83.617813	0.443516	-12.186257	141	149	162
-83.409134	0.443029	-12.210988	142	147	162
-82.990021	0.442203	-12.239388	142	151	166
-81.932098	0.441028	-12.183685	146	152	168
-81.501495	0.441241	-12.064148	148	155	167
-80.250923	0.438122	-12.240540	152	155	172
-80.037193	0.438098	-12.199480	152	156	171
-79.821510	0.438264	-12.131208	152	154	172
-79.189293	0.437355	-12.126930	155	161	176
-77.302185	0.433647	-12.253215	152	159	174
-76.882332	0.432861	-12.275870	152	160	172
-76.247849	0.432185	-12.238461	155	159	174
-75.617828	0.431028	-12.269392	153	159	182
-74.989853	0.429629	-12.334452	155	161	174
-74.360764	0.428340	-12.384064	153	160	175
-73.723518	0.428006	-12.298060	155	161	174
-73.095291	0.426603	-12.363746	155	162	176
-72.465706	0.425348	-12.408368	159	165	178
-71.835510	0.424158	-12.443925	160	167	178
-70.971680	0.425701	-12.047907	159	162	175
-70.568512	0.422638	-12.392946	159	165	177
-70.157883	0.420516	-12.604557	159	164	175
-69.515701	0.420978	-12.406107	158	168	175
-68.882362	0.420225	-12.379802	162	168	176
-68.250595	0.419246	-12.385236	158	164	178
-67.612892	0.419201	-12.258796	160	165	174
-66.997849	0.415535	-12.644119	157	164	177
-66.358757	0.415727	-12.484228	158	167	184
-65.725121	0.415052	-12.446742	159	165	171
-65.092384	0.414237	-12.429180	163	166	184
-64.669930	0.413818	-12.399855	166	169	186
-64.035034	0.413446	-12.319746	160	170	182
-63.400524	0.413048	-12.243345	162	165	182
-62.772022	0.411439	-12.337929	164	166	182
-62.144150	0.409632	-12.460155	161	163	179
-61.510319	0.409118	-12.400252	162	169	179
-60.883827	0.406876	-12.583774	161	167	178
-60.248161	0.406834	-12.457216	159	167	181
-59.611919	0.407052	-12.294248	159	167	179
-58.993874	0.402234	-12.840288	150	159	160
-57.952564	0.396630	-13.408312	148	149	157
-57.341564	0.388167	-14.466207	148	151	158
-53.585991	0.351685	-18.793385	147	152	157
-51.041901	0.325516	-21.928391	143	147	157
-49.324764	0.310312	-23.700191	148	149	153
-46.939487	0.284955	-26.754538	141	146	154
-43.859974	0.255160	-30.285942	132	135	143
-130.502167	0.349610	-6.005608	151	158	160
-120.524971	0.334502	-6.046517	135	137	142
-86.784859	0.237122	-12.252452	76	82	100
-86.556549	0.238288	-12.055215	110	115	136
-85.933487	0.236588	-12.156875	137	139	158
-84.458954	0.234372	-12.160816	139	147	162
-83.608162	0.233857	-12.062901	143	146	166
-82.982040	0.232382	-12.134571	145	149	166
-77.506477	0.224124	-12.152590	150	160	176
-76.661026	0.223209	-12.108158	153	155	173
-76.240112	0.222550	-12.112715	153	155	174
-75.190392	0.220594	-12.165107	155	160	175
-73.716522	0.218352	-12.172558	153	165	178
-71.402817	0.214503	-12.227304	156	164	175
-70.559006	0.213448	-12.201529	161	165	180
-68.873528	0.211061	-12.186835	160	167	178
-62.977867	0.202311	-12.187731	168	173	184
-59.195683	0.194533	-12.471980	158	165	178
-58.570568	0.191438	-12.756172	154	158	160
-56.093014	0.166003	-15.608570	146	148	152
-55.469311	0.159237	-16.374214	147	152	155
-52.953079	0.131529	-19.516975	149	147	153
-51.682709	0.116230	-21.275457	147	148	156
-49.970589	0.100331	-23.026686	148	151	156
-40.757633	0.015796	-32.316448	142	147	184
-131.020233	0.147066	-5.458683	154	156	164
-120.090424	0.127051	-5.932845	133	140	143
-85.296127	0.025606	-12.090054	137	145	159
-78.144249	0.013887	-12.230581	151	157	171
-77.927551	0.014276	-12.143195	148	159	177
-74.973831	0.010563	-12.062400	154	161	176
-74.343521	0.009444	-12.085366	157	159	177
-72.875587	0.006413	-12.191346	156	166	181
-72.453819	0.005866	-12.181843	158	162	178
-71.819603	0.005282	-12.138192	159	162	178
-70.130936	0.003432	-12.058367	158	164	174
-69.502838	0.001929	-12.129116	159	166	176
-68.030205	-0.000470	-12.156283	159	166	174
-67.607323	-0.000778	-12.117180	162	164	178
-64.873169	-0.005396	-12.187986	161	166	180
-64.452156	-0.006038	-12.190252	160	170	178
-64.029976	-0.006423	-12.160794	160	163	174
-62.764149	-0.007658	-12.082328	162	169	182
-61.715782	-0.010256	-12.211360	165	163	185
-61.505634	-0.010671	-12.224105	162	168	182
-60.241837	-0.012378	-12.204125	162	168	176
-59.822098	-0.013394	-12.252803	164	169	179
-59.401752	-0.014248	-12.281466	157	167	181
-59.192375	-0.014934	-12.327816	156	165	178
-57.541656	-0.030128	-13.898777	150	149	157
-57.129410	-0.034848	-14.405138	149	146	158
-55.468544	-0.052745	-16.307310	148	148	153
-55.259014	-0.054542	-16.490513	146	146	154
-54.214920	-0.067192	-17.858646	148	147	157
-52.951607	-0.081162	-19.349415	146	149	153
-51.682220	-0.097828	-21.171177	147	151	157
-51.468964	-0.099882	-21.385311	148	152	161
-50.826801	-0.104477	-21.834452	148	151	159
-50.184700	-0.111558	-22.589708	147	150	156
-49.755745	-0.117050	-23.188128	148	149	155
-49.325176	-0.121088	-23.607109	144	147	153
-48.893764	-0.124961	-24.005680	145	146	152
-47.811344	-0.139159	-25.557495	143	146	155
-47.376793	-0.142594	-25.901424	143	143	150
-46.940800	-0.148229	-26.516180	144	147	151
-45.847027	-0.160117	-27.781425	142	143	147
-45.627884	-0.162010	-27.974709	139	138	148
-45.188328	-0.166646	-28.465689	135	137	147
-44.746624	-0.172536	-29.110817	132	135	142
-43.193481	-0.191208	-31.128014	126	125	130
-42.298950	-0.202422	-32.346519	113	115	142
-42.077480	-0.203492	-32.437973	121	119	162
-40.980164	-0.203096	-32.189209	129	135	185
-40.759041	-0.203905	-32.248638	129	138	182
-40.537098	-0.205083	-32.353252	132	137	186
-39.876598	-0.206000	-32.345875	131	132	188
-39.657703	-0.205765	-32.276981	134	131	182
-132.075836	-0.059559	-5.539476	153	160	167
-131.011581	-0.060021	-5.410746	156	159	162
-130.379196	-0.060549	-5.363667	154	153	157
-129.977936	-0.061775	-5.437324	152	157	161
-129.795044	-0.063157	-5.566642	152	158	161
-128.789856	-0.066178	-5.745286	145	149	160
-128.562531	-0.065631	-5.642741	145	152	161
-127.928429	-0.066083	-5.586571	148	154	158
-126.055649	-0.068729	-5.573079	150	151	162
-125.458298	-0.070841	-5.716125	149	155	160
-125.019196	-0.070378	-5.586977	148	157	158
-124.005310	-0.073082	-5.727425	157	161	164
-123.782013	-0.072666	-5.640747	153	158	164
-122.964218	-0.074529	-5.717093	146	152	161
-122.542183	-0.074840	-5.680833	149	151	159
-121.311699	-0.077476	-5.776242	134	142	148
-120.473732	-0.078382	-5.737844	137	133	141
-120.053009	-0.078745	-5.707954	137	140	144
-85.909187	-0.182128	-11.868064	131	142	160
-84.867668	-0.184805	-12.000511	138	150	164
-84.656822	-0.185092	-11.997725	140	149	163
-83.799660	-0.184824	-11.819680	140	151	163
-83.589798	-0.185203	-11.827702	140	148	160
-82.327675	-0.187172	-11.840232	147	149	168
-80.647987	-0.190156	-11.898956	144	152	168
-80.012184	-0.190603	-11.841978	149	158	169
-79.807640	-0.191604	-11.923229	149	158	171
-78.137917	-0.195871	-12.132845	152	157	177
-77.072350	-0.195846	-11.947193	152	153	175
-76.649139	-0.196190	-11.914603	150	159	175
-76.229515	-0.196994	-11.936142	152	155	172
-75.174896	-0.198269	-11.903523	156	155	176
-74.966331	-0.198844	-11.934562	156	161	180
-74.123520	-0.199975	-11.921574	157	165	175
-73.704628	-0.200898	-11.956993	159	162	177
-72.447472	-0.203651	-12.061382	158	163	178
-71.601700	-0.204332	-11.995479	157	163	177
-71.392082	-0.204785	-12.012208	159	165	177
-70.332520	-0.205176	-11.876048	157	160	175
-70.122147	-0.205499	-11.877541	157	161	173
-69.285675	-0.207664	-11.985703	158	164	176
-68.862358	-0.207868	-11.936881	163	164	177
-67.811646	-0.209718	-11.971684	159	159	179
-67.600250	-0.209853	-11.951118	159	163	176
-66.759216	-0.211251	-11.969460	152	163	175
-66.339890	-0.212197	-12.007442	165	165	179
-65.712013	-0.213875	-12.094791	158	164	175
-63.393387	-0.216551	-12.008287	159	166	188
-61.923031	-0.219475	-12.096050	160	167	180
-61.501396	-0.219912	-12.074534	163	167	184
-60.869434	-0.220683	-12.055777	161	167	179
-59.398903	-0.223729	-12.157641	160	166	179
-59.189152	-0.224291	-12.186986	158	164	173
-58.357609	-0.229356	-12.633043	156	153	157
-58.151669	-0.231449	-12.840886	153	153	158
-57.947304	-0.234216	-13.127398	152	153	160
-56.712334	-0.249548	-14.697224	144	148	153
-56.091942	-0.257466	-15.510976	149	149	158
-55.677177	-0.262819	-16.061930	148	150	157
-54.839489	-0.270738	-16.838478	145	147	156
-54.631390	-0.273765	-17.154541	143	147	155
-53.794781	-0.285107	-18.329041	146	149	156
-53.582462	-0.286226	-18.422665	148	148	153
-52.105881	-0.305878	-20.453085	147	147	157
-51.894085	-0.308967	-20.775682	150	148	156
-50.612411	-0.320664	-21.915203	146	152	157
-50.398407	-0.323056	-22.156422	149	152	158
-49.540707	-0.334494	-23.338539	146	147	153
