-77.209259	1.889052	-17.238981	48	46	58
-76.996559	1.888707	-17.245090	50	46	59
-76.570000	1.888081	-17.239830	48	47	58
-75.927155	1.887315	-17.184069	49	47	54
-73.163589	1.882728	-17.292435	46	43	50
-72.524139	1.881770	-17.289700	47	44	52
-72.310532	1.881481	-17.280479	49	45	55
-71.884911	1.880799	-17.290625	50	47	55
-71.243599	1.879972	-17.251923	49	44	52
-70.394142	1.878481	-17.306969	52	47	56
-69.973145	1.877457	-17.410719	52	49	56
-69.760773	1.877079	-17.426018	52	51	58
-69.548470	1.876694	-17.443136	52	52	57
-69.122078	1.876056	-17.441130	51	48	53
-68.262466	1.875325	-17.287718	51	47	54
-67.834061	1.874866	-17.236874	51	47	57
-67.404144	1.874541	-17.149340	50	48	54
-66.983452	1.873448	-17.271996	53	50	58
-66.347878	1.872168	-17.357346	55	51	60
-66.131927	1.872100	-17.287565	54	50	58
-65.062149	1.870922	-17.169086	55	50	60
-63.787933	1.868615	-17.270580	51	51	59
-63.577183	1.868056	-17.335007	53	49	58
-63.366596	1.867473	-17.405891	56	53	58
-63.155071	1.866984	-17.451298	51	49	62
-62.728939	1.866332	-17.453329	54	53	60
-62.513954	1.866220	-17.395763	53	54	62
-60.165989	1.863250	-17.238817	62	55	65
-59.953789	1.862821	-17.267664	60	55	66
-59.742191	1.862305	-17.320183	57	57	68
-59.317818	1.861423	-17.384756	64	54	73
-58.889851	1.861062	-17.307579	57	56	68
-58.463493	1.860474	-17.292055	57	56	61
-58.040794	1.859293	-17.437447	55	48	55
-57.828133	1.858905	-17.455173	56	47	53
-57.614323	1.858711	-17.420427	55	48	53
-57.190708	1.857622	-17.540682	58	56	54
-56.783470	1.853404	-18.508406	81	77	88
-55.942902	1.849241	-19.284952	147	145	154
-55.730259	1.848638	-19.360649	152	149	156
-55.099625	1.845003	-20.080797	150	151	161
-54.890072	1.843517	-20.394785	153	150	163
-54.679993	1.842087	-20.693714	152	149	163
-54.469975	1.840564	-21.017410	151	148	162
-52.770916	1.831096	-22.870262	149	147	156
-52.130836	1.827215	-23.652712	150	148	158
-50.414711	1.815426	-26.122433	146	145	155
-49.765320	1.811959	-26.789955	151	149	159
-49.114399	1.807727	-27.662128	147	145	155
-47.804871	1.799014	-29.470646	145	142	151
-47.367039	1.798098	-29.538710	145	143	152
-47.148056	1.797605	-29.582201	146	142	148
-46.710007	1.796669	-29.655338	147	144	150
-46.490219	1.795511	-29.877121	147	144	151
-44.934498	1.781662	-32.965515	147	144	152
-44.713703	1.781203	-32.999115	143	142	149
-44.267929	1.778539	-33.533562	141	137	144
-42.471352	1.766946	-35.917759	145	141	152
-41.798359	1.764050	-36.422295	151	146	163
-41.131207	1.762906	-36.458134	161	154	174
-40.470924	1.763294	-36.085503	165	159	179
-40.022728	1.761759	-36.315632	167	157	179
-39.798054	1.760908	-36.452824	165	156	180
-39.359226	1.761307	-36.166965	163	155	176
-127.604698	1.789560	-8.349889	180	171	189
-127.190941	1.788832	-8.374523	177	172	185
-126.589859	1.787318	-8.518474	176	173	181
-126.036964	1.784753	-8.929469	173	167	177
-123.911308	1.782291	-8.751847	176	166	179
-122.981964	1.783101	-8.226171	173	162	178
-122.780365	1.782616	-8.268879	177	170	179
-122.364037	1.781943	-8.279432	172	161	175
-122.178413	1.781093	-8.414903	171	164	174
-97.791428	1.710721	-16.383118	25	24	35
-88.048347	1.693879	-16.888901	22	21	25
-87.608383	1.693863	-16.734919	21	21	22
-87.375420	1.694448	-16.512377	23	21	23
-86.761055	1.692372	-16.784967	25	23	27
-86.350426	1.691017	-16.959595	31	29	43
-85.699097	1.690631	-16.817732	55	53	60
-85.064262	1.689470	-16.865749	60	61	61
-84.440048	1.687781	-17.043072	59	55	59
-83.795952	1.687061	-16.983042	57	53	59
-83.365440	1.686643	-16.927923	54	54	58
-83.154091	1.686237	-16.948544	56	56	58
-82.733292	1.685324	-17.014456	56	54	59
-82.523415	1.684838	-17.054630	56	53	59
-82.097603	1.684179	-17.058546	56	50	60
-81.879539	1.684122	-16.993790	55	49	58
-81.444130	1.683981	-16.870974	52	50	56
-80.810928	1.682706	-16.946815	51	51	55
-80.190910	1.680682	-17.205271	51	50	55
-79.546059	1.680031	-17.128487	50	50	58
-79.113907	1.679735	-17.043781	50	49	54
-78.901611	1.679371	-17.054150	52	50	53
-78.470596	1.679021	-16.982729	50	48	56
-78.252510	1.679003	-16.908848	53	50	56
-77.833733	1.677929	-17.013720	49	49	55
-77.208847	1.676092	-17.225925	50	48	57
-76.996201	1.675741	-17.232889	51	47	58
-76.573624	1.674868	-17.288643	50	48	57
-75.932762	1.673999	-17.265202	50	48	54
-75.283821	1.673671	-17.110365	47	45	54
-74.638000	1.673164	-16.999262	50	47	54
-74.209816	1.672676	-16.961559	46	46	51
-73.998436	1.672245	-16.988129	47	44	52
-73.379059	1.669887	-17.326042	46	44	50
-72.957191	1.668925	-17.403099	46	43	49
-72.742836	1.668692	-17.381681	45	43	51
-72.316956	1.668018	-17.388889	49	45	52
-71.673981	1.667325	-17.322945	48	43	52
-71.028244	1.666867	-17.200172	48	45	52
-70.395897	1.665352	-17.333225	49	47	55
-70.188446	1.664566	-17.445402	50	47	55
-69.770958	1.663185	-17.623770	49	46	54
-69.348015	1.662239	-17.696705	50	47	54
-69.132584	1.662104	-17.651627	50	46	52
-68.697014	1.662260	-17.458263	47	46	49
-68.481079	1.662186	-17.398325	47	46	52
-68.053314	1.661682	-17.364614	50	48	55
-67.839142	1.661459	-17.340727	51	47	56
-67.411369	1.660967	-17.304237	49	45	54
-66.779160	1.659323	-17.468071	52	48	57
-66.138344	1.658498	-17.434027	53	48	59
-65.500694	1.657356	-17.476751	52	48	57
-65.068520	1.657347	-17.323793	54	48	59
-64.852425	1.657356	-17.244102	50	47	56
-64.426704	1.656679	-17.252224	49	50	58
-64.216064	1.656088	-17.317085	52	47	59
-63.793907	1.654988	-17.427023	48	47	55
-63.582478	1.654469	-17.474367	51	46	56
-63.160145	1.653352	-17.588158	47	47	54
-62.517101	1.652836	-17.480080	46	45	52
-61.875713	1.652144	-17.414354	50	49	56
-61.238216	1.650939	-17.471909	51	49	59
-60.813438	1.650091	-17.521034	53	52	61
-60.599312	1.649917	-17.485470	52	49	57
-60.171322	1.649547	-17.419930	56	50	58
-59.959156	1.649086	-17.453260	53	51	57
-59.536850	1.647824	-17.601633	51	47	56
-59.324924	1.647302	-17.649721	54	49	58
-58.896851	1.646954	-17.578732	54	51	58
-58.682026	1.646927	-17.508125	53	51	55
-58.255405	1.646361	-17.489389	51	47	57
-57.616806	1.645272	-17.519173	50	47	49
-56.154816	1.636183	-19.153759	142	143	151
-55.728771	1.635119	-19.253456	154	149	160
-55.098850	1.630986	-20.009247	151	150	160
-54.679234	1.627787	-20.618662	151	148	159
-53.837772	1.620949	-21.941202	154	148	162
-53.412762	1.618364	-22.402702	150	151	163
-53.198341	1.617658	-22.493429	150	148	160
-52.983799	1.616966	-22.580788	151	147	157
-52.770107	1.615893	-22.759033	150	148	156
-52.557159	1.614429	-23.030546	151	146	156
-52.344185	1.612856	-23.327747	147	146	156
-51.916927	1.609934	-23.868563	149	146	153
-51.703712	1.608041	-24.241720	149	148	157
-51.490421	1.605985	-24.653526	151	148	160
-51.276524	1.604053	-25.035759	152	147	161
-51.061916	1.602343	-25.364845	152	147	157
-50.846596	1.600912	-25.627569	150	144	154
-50.630634	1.599780	-25.818926	148	143	155
-50.197540	1.598095	-26.063852	148	146	154
-49.981133	1.596919	-26.265543	149	149	155
-49.548424	1.593582	-26.903027	152	148	157
-48.678761	1.589082	-27.660048	147	146	157
-46.929695	1.578683	-29.502808	144	142	148
-44.714561	1.560919	-32.927620	143	142	149
-44.492390	1.559740	-33.128063	143	140	146
-44.044495	1.556021	-33.850803	139	135	144
-43.821590	1.554842	-34.050816	141	135	143
-43.599915	1.554254	-34.111095	140	136	143
-43.377907	1.553555	-34.197395	140	136	146
-43.154251	1.552266	-34.423271	141	137	148
-42.928799	1.550405	-34.784615	141	139	147
-42.474976	1.546056	-35.654892	147	140	154
-42.248920	1.544361	-35.976276	148	145	156
-42.024456	1.543256	-36.158237	149	148	162
-41.801395	1.542626	-36.228054	152	148	163
-41.354752	1.541272	-36.389256	157	152	171
-40.691734	1.541167	-36.176453	164	157	178
-40.247662	1.540514	-36.172344	164	155	177
-39.578190	1.538777	-36.344719	163	155	178
-127.378815	1.580792	-8.255952	183	168	181
-126.775040	1.579281	-8.383979	178	167	181
-126.398521	1.577640	-8.612517	177	165	176
-126.219604	1.576589	-8.778880	177	167	181
-123.628151	1.574795	-8.329939	174	167	175
-123.373642	1.575622	-8.072212	172	167	177
-122.931885	1.575595	-7.936393	172	169	182
-122.532372	1.574499	-8.041605	163	161	169
-122.332718	1.573946	-8.095264	168	164	173
-98.236137	1.497958	-16.543673	21	20	37
-97.807472	1.497428	-16.519079	29	26	39
-85.673485	1.479174	-16.514423	55	52	58
-85.259438	1.477910	-16.650629	58	55	60
-85.047432	1.477542	-16.660986	58	55	58
-84.627632	1.476574	-16.732439	55	52	59
-84.421829	1.475862	-16.818039	55	53	59
-84.214012	1.475257	-16.880268	56	53	60
-83.785400	1.474763	-16.847952	58	53	59
-83.570000	1.474580	-16.817936	57	53	58
-83.147537	1.473742	-16.860785	54	51	59
-82.939507	1.473137	-16.922821	55	52	58
-82.521736	1.472017	-17.027252	54	53	59
-82.309448	1.471652	-17.036974	55	53	59
-81.872536	1.471652	-16.896904	56	53	56
-81.649971	1.471903	-16.772020	56	53	58
-81.430130	1.471999	-16.681253	53	52	54
-81.006187	1.471248	-16.705082	51	50	56
-80.802330	1.470375	-16.825628	52	50	57
-80.396317	1.468500	-17.094446	51	51	59
-80.186638	1.467968	-17.140625	54	51	58
-79.537064	1.467664	-16.996956	53	50	57
-79.317726	1.467751	-16.908220	55	53	59
-78.888451	1.467327	-16.860695	55	51	56
-78.674873	1.467049	-16.851528	52	53	56
-78.457115	1.467048	-16.781931	56	52	58
-78.237907	1.467148	-16.690363	55	50	58
-78.025360	1.466807	-16.694847	54	52	58
-77.820435	1.465951	-16.811354	55	52	57
-77.618195	1.464903	-16.969385	54	53	60
-77.198082	1.463858	-17.057226	55	53	60
-76.563835	1.462555	-17.131229	56	52	58
-76.140289	1.461730	-17.171089	52	50	56
-75.923729	1.461662	-17.116081	53	52	56
-75.484848	1.461962	-16.911537	53	49	56
-75.266235	1.462062	-16.820116	52	49	57
-75.050240	1.461974	-16.769575	53	51	58
-74.624748	1.461315	-16.773506	53	50	58
-74.412239	1.460968	-16.779263	53	51	57
-74.199966	1.460602	-16.789135	53	50	56
-73.989578	1.460088	-16.830992	52	49	56
-73.782700	1.459296	-16.933390	51	50	55
-73.375130	1.457193	-17.250305	51	47	54
-73.167229	1.456454	-17.340937	50	48	54
-72.739975	1.455894	-17.323105	51	48	57
-72.525932	1.455650	-17.306511	51	49	57
-72.312904	1.455322	-17.307941	51	49	57
-71.885544	1.454779	-17.286551	52	50	56
-71.669518	1.454710	-17.232052	52	49	57
-71.236328	1.454686	-17.098244	51	49	59
-70.807556	1.454293	-17.044481	52	49	58
-70.387680	1.453102	-17.163321	51	49	58
-70.181190	1.452182	-17.292959	51	50	59
-69.975021	1.451220	-17.431469	52	50	59
-69.768600	1.450269	-17.567711	52	49	57
-69.560837	1.449433	-17.679138	52	50	58
-69.135857	1.448641	-17.711342	53	49	57
-68.918327	1.448735	-17.621590	52	50	59
-68.481689	1.449106	-17.402676	53	51	58
-68.265465	1.449098	-17.335117	54	49	58
-67.837555	1.448635	-17.296436	55	51	62
-67.624863	1.448276	-17.304775	55	54	63
-67.413109	1.447817	-17.334629	54	52	61
-66.989937	1.446853	-17.403961	56	51	60
-66.778351	1.446367	-17.439650	53	50	60
-66.351303	1.445814	-17.420570	56	55	65
-66.135826	1.445760	-17.362928	57	55	65
-65.712135	1.444832	-17.424540	56	54	62
-65.500877	1.444294	-17.471254	54	53	63
-65.286400	1.444132	-17.437006	54	50	62
-65.069984	1.444208	-17.351454	55	52	62
-64.855225	1.444093	-17.307119	54	52	60
-64.642410	1.443744	-17.313194	53	51	60
-64.219368	1.442716	-17.396322	57	52	62
-64.006561	1.442359	-17.404121	52	51	60
-63.581276	1.441601	-17.429239	55	51	60
-63.370991	1.440904	-17.510120	55	51	61
-63.160301	1.440251	-17.581484	52	51	59
-62.733513	1.439673	-17.567736	51	46	56
-62.518326	1.439639	-17.505877	48	47	54
-62.088554	1.439513	-17.395098	52	49	60
-61.875103	1.439249	-17.382824	53	52	59
-61.662701	1.438829	-17.404152	55	53	63
-61.450020	1.438449	-17.416809	53	52	63
-61.238113	1.437946	-17.456005	55	54	61
-61.026237	1.437432	-17.497349	57	54	61
-60.600323	1.436741	-17.507877	55	51	61
-60.386395	1.436556	-17.478668	55	52	63
-59.960682	1.435832	-17.496248	55	53	63
-59.749249	1.435217	-17.559410	55	52	60
-58.900150	1.433284	-17.698704	57	53	60
-58.684784	1.433386	-17.607935	56	52	61
-58.470154	1.433359	-17.544817	56	52	60
-58.256104	1.433228	-17.504044	54	50	63
-57.828941	1.432795	-17.459412	54	51	58
-57.616142	1.432416	-17.471733	53	50	57
-57.193703	1.430935	-17.651657	50	50	48
-56.984543	1.429685	-17.850599	55	54	57
-56.777218	1.427952	-18.153028	75	77	92
-56.570446	1.426011	-18.499870	115	114	124
-56.363277	1.424083	-18.843651	136	132	145
-56.153378	1.422775	-19.054922	145	144	154
-55.941299	1.421988	-19.154337	148	146	155
-55.728287	1.421430	-19.204792	150	147	159
-55.517017	1.420369	-19.362955	152	147	163
-55.307289	1.418818	-19.625767	151	148	162
-55.098148	1.417016	-19.942211	153	146	162
-54.888435	1.415295	-20.241455	154	150	161
-54.678207	1.413645	-20.525112	152	150	161
-54.467735	1.411983	-20.811363	152	148	161
-54.257313	1.410210	-21.121298	153	149	161
-54.046440	1.408489	-21.419981	150	149	161
-53.835381	1.406730	-21.726648	151	151	162
-53.623413	1.405203	-21.983772	151	150	161
-53.196735	1.402975	-22.321144	151	150	161
-52.769871	1.400536	-22.703478	152	148	159
-52.557301	1.398773	-23.010675	154	148	159
-52.344162	1.397144	-23.289026	151	147	154
-52.130299	1.395755	-23.516008	150	146	152
-51.916737	1.394074	-23.805317	151	146	152
-51.703415	1.392081	-24.161192	149	148	156
-51.489937	1.389968	-24.542534	150	147	160
-51.275906	1.387978	-24.897291	153	148	161
-51.061352	1.386118	-25.224575	154	147	159
-50.846088	1.384567	-25.485500	151	147	157
-50.630150	1.383381	-25.668800	150	144	157
-50.197174	1.381610	-25.907003	152	149	157
-49.764374	1.378973	-26.329449	153	151	158
-49.547894	1.377302	-26.615614	152	152	159
-49.331284	1.375347	-26.962362	153	150	161
-49.114338	1.373395	-27.308319	150	148	160
-48.896950	1.371762	-27.586060	146	148	157
-47.805824	1.362871	-29.128630	147	144	151
-47.368244	1.361692	-29.239389	145	142	150
-47.148998	1.360368	-29.450893	146	142	147
-46.929913	1.359634	-29.536900	146	142	150
-46.710686	1.358817	-29.640390	145	143	153
-46.491352	1.357995	-29.745127	146	145	154
-46.050327	1.354347	-30.380102	150	149	156
-44.936268	1.341268	-32.806660	143	141	151
-44.715794	1.340927	-32.808674	141	142	150
-44.493942	1.339801	-32.977219	142	139	147
-44.270260	1.337775	-33.336670	140	135	144
-44.045460	1.335357	-33.779274	137	133	144
-43.822250	1.333919	-34.013760	139	135	145
-43.600811	1.333402	-34.052742	140	137	144
-43.156223	1.331693	-34.273945	140	138	147
-42.930775	1.329630	-34.640888	141	139	149
-42.476852	1.324769	-35.529911	146	143	154
-42.251076	1.322996	-35.834858	146	147	157
-42.026779	1.321839	-36.009338	147	149	161
-41.803715	1.321150	-36.084488	152	148	160
-41.357151	1.319701	-36.249714	158	153	170
-41.134258	1.319131	-36.299427	161	155	181
-40.692089	1.319062	-36.172421	164	155	176
-40.470509	1.318864	-36.143547	162	156	174
-40.247932	1.318390	-36.173157	163	158	177
-39.806301	1.318360	-36.037983	162	156	177
-127.385231	1.371816	-8.286841	181	168	181
-127.177559	1.371463	-8.294716	181	167	180
-126.777100	1.370360	-8.391448	177	166	179
-126.584320	1.369607	-8.480789	176	166	177
-126.399193	1.368646	-8.612423	176	166	177
-126.217224	1.367596	-8.762100	175	166	177
-124.034752	1.366919	-8.260590	173	165	179
-123.827782	1.366546	-8.272555	172	165	179
-123.597672	1.366817	-8.153528	176	159	181
-122.899467	1.367875	-7.747469	175	169	178
-122.306908	1.365971	-7.942781	169	160	169
-97.636009	1.282554	-16.879593	29	28	28
-85.829567	1.270141	-15.853127	64	61	71
-85.629761	1.269076	-16.000647	69	66	75
-85.217018	1.267700	-16.146320	72	68	75
-85.006226	1.267271	-16.168079	73	70	77
-84.587837	1.266214	-16.250664	72	71	75
-84.381844	1.265487	-16.331120	73	71	76
-83.964706	1.264336	-16.432192	72	67	74
-83.751297	1.264056	-16.424355	72	68	75
-83.326668	1.263361	-16.435396	69	68	77
-83.118515	1.262750	-16.492943	69	67	77
-82.911751	1.262047	-16.568573	70	68	75
-82.492615	1.260988	-16.651237	70	67	78
-82.280052	1.260649	-16.655138	72	68	77
-82.064964	1.260474	-16.626549	72	68	76
-81.399147	1.261328	-16.268923	71	67	74
-80.776398	1.259336	-16.472694	69	64	74
-80.576645	1.258128	-16.647751	70	63	73
-80.159904	1.256869	-16.769817	69	67	75
-79.945908	1.256626	-16.754723	69	69	73
-79.512497	1.256524	-16.648689	72	65	74
-79.292183	1.256737	-16.543959	70	69	75
-78.431656	1.256145	-16.408739	68	65	74
-78.213615	1.256219	-16.331444	68	66	72
-77.795929	1.255006	-16.444162	68	66	69
-77.594139	1.253863	-16.606247	69	66	74
-77.387207	1.253098	-16.693777	67	63	72
-77.173859	1.252816	-16.686241	68	66	74
-76.746872	1.252278	-16.666271	68	66	76
-76.537186	1.251713	-16.714565	68	64	75
-76.112305	1.251009	-16.727228	66	63	71
-75.895378	1.251015	-16.663137	65	62	70
-75.235909	1.251781	-16.324585	68	65	72
-74.807053	1.251438	-16.266388	67	64	72
-74.597443	1.250867	-16.315832	67	63	71
-74.180351	1.249529	-16.453011	66	60	72
-73.972122	1.248824	-16.528587	67	61	70
-73.765991	1.247930	-16.641182	67	64	71
-73.358665	1.245677	-16.957575	65	60	70
-72.937889	1.244578	-17.047577	65	61	69
-72.722862	1.244444	-17.011152	64	61	69
-72.293350	1.244136	-16.946234	64	62	69
-71.655426	1.243095	-16.962156	65	60	71
-71.231537	1.242264	-16.999449	62	62	68
-70.580666	1.242503	-16.764992	62	62	71
-70.368362	1.242130	-16.775320	61	60	68
-69.955734	1.240155	-17.036598	62	60	69
-69.750954	1.238989	-17.202005	62	59	68
-69.544632	1.237967	-17.339270	62	60	68
-69.123810	1.236754	-17.451414	63	59	69
-68.480820	1.236183	-17.375113	64	61	70
-66.981255	1.234876	-17.192881	62	57	68
-66.768318	1.234547	-17.194578	63	60	67
-66.338875	1.234331	-17.111946	65	62	69
-65.699181	1.233475	-17.091654	65	61	69
-65.489647	1.232712	-17.177980	64	60	68
-64.213196	1.230590	-17.217495	62	58	67
-63.998569	1.230500	-17.172596	63	59	67
-63.569870	1.230261	-17.094460	62	61	66
-63.359753	1.229525	-17.175472	65	59	66
-63.151245	1.228536	-17.305794	63	60	66
-62.514194	1.227255	-17.368198	59	59	62
-62.081959	1.227604	-17.175772	59	58	65
-61.441017	1.226994	-17.107744	61	59	65
-61.229176	1.226488	-17.144001	65	60	68
-61.018444	1.225781	-17.219170	66	59	65
-60.595688	1.224564	-17.331470	61	58	62
-60.382442	1.224284	-17.323608	62	59	65
-59.956532	1.223619	-17.328417	61	60	65
-59.744770	1.223055	-17.375921	62	60	67
-59.322620	1.221619	-17.530392	61	59	65
-59.110016	1.221194	-17.550762	65	57	66
-58.466751	1.221090	-17.384485	63	59	64
-58.252312	1.221084	-17.323532	59	58	66
-57.823807	1.221030	-17.209991	63	58	68
-57.611057	1.220663	-17.219139	64	59	65
-54.465820	1.198130	-20.652351	154	147	161
-52.557175	1.183275	-22.963417	154	151	159
-51.916687	1.178184	-23.759575	150	148	156
-51.489281	1.174175	-24.408665	152	149	157
-47.149799	1.142550	-29.248941	145	144	149
-46.491165	1.138315	-29.874662	147	145	154
-43.380238	1.112059	-34.035591	141	139	148
-41.805141	1.099482	-36.004227	151	149	161
-40.914829	1.097394	-36.148972	165	155	179
-40.471664	1.097020	-36.092693	166	157	176
-39.806538	1.096291	-36.040516	163	155	176
-39.368206	1.097143	-35.749420	163	158	177
-122.679306	1.159373	-7.678748	170	165	178
-122.287415	1.157946	-7.826735	168	157	173
-97.871040	1.068917	-17.067280	23	24	33
-85.790726	1.060285	-15.398684	83	81	89
-85.582207	1.059725	-15.442366	91	86	95
-84.951958	1.058335	-15.520806	93	93	96
-84.536194	1.057108	-15.627262	94	92	97
-84.330254	1.056360	-15.704707	96	91	96
-83.700775	1.054877	-15.799803	91	90	95
-83.278442	1.054062	-15.831774	92	91	97
-82.440765	1.051929	-15.986614	93	89	98
-82.015976	1.051271	-15.990370	94	89	94
-80.932625	1.051206	-15.715702	93	86	94
-80.111679	1.047761	-16.105940	95	88	93
-79.683182	1.047381	-16.059826	91	89	94
-79.469009	1.047188	-16.037258	92	91	94
-78.822876	1.046906	-15.916316	94	88	93
-78.399483	1.046144	-15.938795	95	91	95
-77.561241	1.043906	-16.111916	93	90	93
-77.141235	1.042839	-16.188967	95	90	96
-76.925156	1.042815	-16.136162	94	88	96
-76.287743	1.041834	-16.140686	92	88	90
-75.854874	1.041876	-16.018974	92	89	93
-74.772820	1.042071	-15.699049	93	88	92
-74.563423	1.041481	-15.747579	92	88	91
-73.533440	1.036836	-16.294147	90	87	90
-72.690338	1.034829	-16.425205	88	83	91
-72.259689	1.034727	-16.329411	89	85	90
-71.412994	1.033053	-16.400846	82	79	86
-71.014771	1.029519	-16.918417	62	61	70
-70.345459	1.031930	-16.316822	89	84	88
-69.927788	1.030447	-16.467960	87	82	89
-69.092232	1.027401	-16.783939	86	81	88
-68.664902	1.026964	-16.748150	81	77	86
-68.460823	1.025593	-16.935833	74	71	79
-67.386063	1.025311	-16.701708	87	85	87
-66.533478	1.024237	-16.665953	88	81	86
-65.466614	1.023088	-16.586630	87	79	87
-65.043312	1.022146	-16.640961	82	80	86
-64.831993	1.021620	-16.677803	83	81	87
-64.197838	1.020042	-16.788368	85	78	85
-63.765728	1.020433	-16.605511	84	79	83
-62.924793	1.017518	-16.897036	80	78	84
-62.500900	1.016577	-16.950966	81	76	83
-61.638821	1.017249	-16.604950	81	76	85
-61.212864	1.016724	-16.584887	82	78	83
-60.584465	1.013864	-16.922960	82	78	83
-60.158661	1.013257	-16.917490	82	77	81
-59.945572	1.012994	-16.907547	81	78	81
-59.309929	1.011418	-17.017429	80	75	81
-58.883587	1.010922	-16.992195	80	75	80
-58.030273	1.010131	-16.906321	82	78	83
-57.603340	1.009843	-16.844311	86	82	89
-57.184010	1.007504	-17.145805	92	90	97
-56.975426	1.005969	-17.361258	101	99	109
-56.767551	1.004169	-17.623539	121	116	128
-56.561131	1.001863	-17.975203	138	136	142
-56.148891	0.996743	-18.768547	149	145	159
-55.939373	0.995086	-19.005297	149	146	160
-55.728321	0.993857	-19.166033	149	147	158
-55.517406	0.992530	-19.344294	146	147	160
-55.306995	0.990964	-19.564634	151	149	161
-55.096478	0.989361	-19.791512	152	150	160
-54.674221	0.986369	-20.207260	152	151	162
-54.253922	0.982238	-20.824135	151	148	161
-54.043243	0.980206	-21.126471	149	147	159
-53.831257	0.978623	-21.349443	146	148	156
-53.405117	0.976185	-21.666500	146	150	159
-53.192329	0.974710	-21.870209	152	151	160
-52.980343	0.972710	-22.166710	151	150	160
-52.768574	0.970432	-22.512098	150	149	160
-52.556339	0.968229	-22.844347	154	151	160
-52.129917	0.964452	-23.397274	149	148	158
-51.702915	0.960319	-24.012836	149	147	157
-50.844349	0.952977	-25.079752	150	146	160
-50.628986	0.951218	-25.332762	150	145	158
-50.196831	0.948582	-25.683210	145	148	159
-49.980511	0.947251	-25.860655	150	148	160
-49.763950	0.946025	-26.019386	150	150	158
-49.547054	0.945153	-26.115789	148	151	157
-47.806950	0.928429	-28.603256	147	142	152
-47.588371	0.927514	-28.706659	147	142	150
-47.150764	0.925327	-28.976641	143	143	153
-46.711658	0.921490	-29.536705	148	142	152
-46.271694	0.917946	-30.045095	148	148	157
-46.051556	0.916426	-30.254707	149	148	157
-45.383335	0.905915	-31.930279	147	146	156
-45.161572	0.904142	-32.184223	143	143	154
-44.719315	0.902063	-32.433716	145	143	154
-44.496998	0.900329	-32.680603	141	139	153
-44.048912	0.895173	-33.470776	138	135	144
-43.825275	0.893170	-33.764687	138	137	141
-43.603020	0.892094	-33.895592	139	140	146
-42.933643	0.887966	-34.446327	140	140	149
-42.480885	0.882681	-35.257965	145	144	155
-42.253929	0.880045	-35.662529	144	144	156
-42.028183	0.878077	-35.949711	148	145	161
-41.583317	0.877054	-36.012493	155	151	162
-41.360565	0.876439	-36.062023	155	151	166
-41.138824	0.876211	-36.043705	159	153	173
-40.474174	0.875677	-35.962173	169	158	176
-40.030411	0.875067	-35.952511	162	156	179
-39.808960	0.874892	-35.924866	163	157	177
-39.589489	0.875303	-35.794582	164	158	176
-39.147636	0.875183	-35.699005	162	158	177
-123.776573	0.950653	-7.975812	174	164	179
-123.555847	0.950734	-7.909092	178	165	179
-123.106010	0.951185	-7.726866	167	160	174
-122.477089	0.950333	-7.712710	169	165	173
-97.914001	0.853669	-17.439444	18	16	17
-97.314789	0.850532	-17.802988	18	17	15
-86.379227	0.852428	-14.843821	50	49	60
-86.182999	0.851022	-15.024225	70	68	83
-85.762886	0.850104	-15.071362	98	95	110
-85.544983	0.850192	-15.004178	103	101	113
-85.111748	0.850202	-14.897568	110	104	117
-84.489418	0.848258	-15.062027	109	106	113
-83.864670	0.846457	-15.202759	108	104	116
-83.229797	0.845384	-15.222890	107	104	117
-83.021278	0.844792	-15.268455	109	106	116
-82.171738	0.843583	-15.258554	106	105	115
-81.961525	0.843112	-15.283956	107	105	116
-81.749100	0.842813	-15.280953	109	105	116
-81.310570	0.843301	-15.095427	109	102	118
-80.886879	0.842627	-15.102057	109	103	114
-80.686272	0.841381	-15.255585	107	104	114
-80.059181	0.839653	-15.383891	108	104	117
-79.631035	0.839327	-15.332925	110	100	119
-78.781853	0.838093	-15.327235	113	110	109
-78.365692	0.836742	-15.445563	112	108	113
-77.524574	0.834768	-15.561878	111	107	117
-77.104599	0.833713	-15.631222	109	109	115
-76.460541	0.833422	-15.522249	108	108	116
-76.030983	0.833263	-15.443809	109	105	116
-75.813942	0.833406	-15.368079	113	103	116
-75.597908	0.833458	-15.307153	110	105	117
-74.740860	0.833028	-15.169059	113	107	119
-74.120224	0.830489	-15.430630	109	108	116
-73.499260	0.827904	-15.699369	112	107	114
-72.649597	0.826672	-15.693188	108	103	112
-72.220131	0.826569	-15.605793	112	105	113
-71.581436	0.825829	-15.570974	108	106	111
-70.314018	0.823199	-15.690415	109	101	113
-69.898438	0.821463	-15.871307	105	103	115
-69.691818	0.820434	-15.988066	107	104	113
-69.267624	0.819713	-16.002262	109	101	112
-67.358307	0.816491	-16.062057	109	104	108
-66.721626	0.815439	-16.078333	109	103	111
-66.506981	0.815437	-16.026497	109	101	110
-65.437889	0.814917	-15.851647	108	103	111
-65.016396	0.813778	-15.934280	107	102	107
-64.806709	0.813030	-16.004738	107	101	109
-64.388184	0.811360	-16.174156	110	100	109
-64.175583	0.811061	-16.171200	108	100	108
-63.745174	0.811355	-16.019133	106	101	110
-63.108360	0.810328	-16.031275	104	100	109
-62.479282	0.807856	-16.279898	106	99	105
-61.834492	0.808311	-16.049690	107	100	106
-61.406792	0.808256	-15.954834	104	101	105
-61.194496	0.807925	-15.957116	104	100	107
-60.777199	0.805717	-16.214172	105	101	106
-60.568398	0.804605	-16.343937	104	98	105
-60.142822	0.804079	-16.326134	104	96	102
-59.928928	0.804071	-16.275539	104	97	99
-59.504719	0.803246	-16.306561	101	99	100
-59.292641	0.802822	-16.323814	99	96	101
-58.866718	0.802406	-16.288151	103	98	99
-58.233086	0.800420	-16.456701	102	94	103
-57.595219	0.799502	-16.450834	115	109	117
-57.385620	0.798318	-16.592154	117	113	120
-56.972168	0.794070	-17.181200	129	127	136
-56.765427	0.791814	-17.496958	135	133	141
-56.559113	0.789323	-17.851061	145	140	147
-56.353413	0.786516	-18.256666	150	145	158
-56.146687	0.783921	-18.627478	150	145	157
-55.727680	0.780332	-19.108292	150	147	158
-55.517395	0.778695	-19.322830	148	146	160
-55.307148	0.776966	-19.552385	151	149	161
-55.096310	0.775379	-19.758711	152	149	162
-54.884701	0.774024	-19.927250	153	150	163
-54.462406	0.770702	-20.363787	150	145	159
-54.041866	0.766173	-20.996599	149	145	157
-53.829781	0.764559	-21.207045	148	147	155
-53.403385	0.762175	-21.490400	147	146	158
-53.190884	0.760491	-21.712141	150	147	157
-52.979073	0.758291	-22.017757	150	150	159
-52.767296	0.755894	-22.355186	151	150	158
-52.554993	0.753620	-22.672625	154	149	160
-52.129326	0.749165	-23.292170	150	148	158
-51.916252	0.746781	-23.627293	148	147	157
-51.702446	0.744715	-23.910694	150	146	155
-51.487968	0.742977	-24.140612	151	146	157
-51.058327	0.739521	-24.597170	150	147	158
-50.843498	0.737456	-24.880123	151	145	157
-50.628403	0.735383	-25.164225	151	145	157
-50.412720	0.733698	-25.385431	150	147	156
-50.196514	0.732437	-25.537571	148	147	156
-49.980087	0.731291	-25.671009	149	147	157
-49.546803	0.729088	-25.923290	148	147	155
-49.329823	0.728373	-25.986755	149	148	155
-48.025784	0.711465	-28.413698	150	146	153
-47.807438	0.711117	-28.417168	148	145	150
-47.370483	0.709577	-28.561014	146	146	151
-47.151646	0.708154	-28.738852	142	142	153
-46.932411	0.706240	-28.996216	145	142	155
-46.712727	0.703958	-29.313150	148	144	152
-46.493000	0.702104	-29.560690	147	143	153
-46.053268	0.698959	-29.964319	149	147	157
-45.831364	0.695359	-30.494564	149	148	157
-45.606735	0.689412	-31.404947	148	147	157
-44.941071	0.683068	-32.272873	143	140	153
-44.497726	0.680207	-32.629532	143	141	148
-43.605244	0.672232	-33.706936	140	140	145
-43.158897	0.669050	-34.115021	140	138	148
-42.485226	0.662969	-34.938129	146	143	153
-42.258739	0.660284	-35.318897	146	143	155
-41.362110	0.654875	-35.978977	158	153	170
-41.140804	0.654813	-35.935383	162	154	176
-40.699467	0.655117	-35.779034	167	157	176
-39.371422	0.654154	-35.613266	163	159	178
-123.329826	0.742422	-7.808185	170	163	177
-123.105225	0.742683	-7.718572	168	162	175
-122.888756	0.742651	-7.674881	167	161	175
-122.658432	0.743128	-7.551605	169	161	174
-98.146446	0.639736	-17.601231	15	13	16
-97.550522	0.636232	-17.994474	16	17	16
-85.525887	0.639713	-14.776542	115	112	129
-84.458961	0.638685	-14.692006	130	125	154
-84.043266	0.637409	-14.790615	130	129	151
-83.831360	0.637088	-14.791399	133	127	151
-83.407394	0.636459	-14.790996	130	127	153
-83.195869	0.636107	-14.796514	131	126	151
-82.772560	0.635424	-14.804280	131	127	149
-82.558647	0.635269	-14.779680	134	128	151
-82.131813	0.634881	-14.742240	133	127	150
-81.921440	0.634435	-14.762259	135	125	154
-81.710030	0.634074	-14.769135	135	128	150
-81.276787	0.634244	-14.646425	127	126	149
-80.650276	0.632500	-14.768291	134	132	149
-80.236786	0.630949	-14.908665	134	128	152
-79.591049	0.630882	-14.774050	133	128	150
-78.955612	0.629904	-14.778787	135	127	145
-78.336571	0.627378	-15.019658	138	131	147
-77.704094	0.626080	-15.073072	130	130	149
-77.283112	0.625142	-15.119827	134	131	151
-77.073044	0.624628	-15.150005	133	129	151
-76.644226	0.624459	-15.079241	134	127	151
-76.430267	0.624335	-15.049951	135	129	153
-76.001564	0.624177	-14.977673	135	124	150
-75.786057	0.624223	-14.922481	132	123	149
-75.571365	0.624190	-14.879368	132	126	150
-75.358162	0.624005	-14.859253	135	130	153
-74.931030	0.623721	-14.806339	134	129	152
-74.718109	0.623513	-14.789791	138	129	153
-74.092926	0.621411	-14.965798	134	127	151
-73.470619	0.618926	-15.199892	135	130	148
-72.830696	0.618402	-15.135200	134	127	149
-72.399605	0.618593	-15.009849	131	127	144
-72.187103	0.618339	-15.000497	130	126	143
-71.765938	0.617369	-15.051967	128	128	145
-71.558098	0.616545	-15.129261	130	130	145
-71.134933	0.615799	-15.146553	131	126	146
-70.918327	0.616056	-15.059405	133	126	144
-70.495392	0.615288	-15.079943	134	127	144
-70.287544	0.614435	-15.161718	134	124	142
-70.081062	0.613392	-15.272217	130	124	144
-69.875305	0.612240	-15.399260	129	125	143
-69.240379	0.611082	-15.431022	130	125	140
-68.588089	0.612347	-15.094702	130	123	142
-67.941711	0.612902	-14.866414	127	122	139
-67.535248	0.609711	-15.254993	130	122	138
-66.910683	0.606983	-15.525211	129	124	139
-66.697746	0.606781	-15.507858	129	121	140
-66.267685	0.607050	-15.370997	129	122	142
-66.051300	0.607419	-15.266973	128	121	139
-65.624802	0.607177	-15.207798	129	124	140
-65.413551	0.606732	-15.227468	127	123	139
-64.781830	0.605024	-15.342609	126	119	135
-64.152916	0.602754	-15.542953	125	119	138
-63.726746	0.602456	-15.492268	128	122	138
-62.878109	0.601196	-15.491455	127	119	134
-62.456451	0.600032	-15.571964	129	120	133
-61.816879	0.599721	-15.475300	128	120	138
-61.392235	0.599172	-15.462666	123	120	136
-61.180157	0.598846	-15.464210	125	119	136
-60.551407	0.596126	-15.732267	121	117	132
-60.125572	0.595816	-15.683339	123	116	130
-59.911423	0.595974	-15.611657	124	119	130
-59.276104	0.594707	-15.659794	122	113	130
-58.851246	0.594197	-15.641148	120	116	123
-58.012512	0.589988	-16.085955	126	120	129
-57.589188	0.588903	-16.154263	138	131	144
-57.381187	0.587193	-16.364698	139	139	148
-56.766068	0.578646	-17.511646	142	141	151
-56.352428	0.573550	-18.185005	147	143	159
-55.936279	0.568904	-18.790224	150	143	159
-55.306564	0.563278	-19.494841	149	147	161
-54.673203	0.558368	-20.091051	152	147	162
-53.828033	0.550775	-21.043114	151	146	158
-53.190113	0.546028	-21.613743	151	146	157
-52.553246	0.539444	-22.460785	152	149	162
-52.128036	0.534500	-23.108715	149	150	159
-51.272034	0.526343	-24.143068	150	147	155
-50.196228	0.516376	-25.400238	150	148	157
-47.807880	0.493645	-28.282135	147	145	153
-47.370853	0.491341	-28.530670	150	146	152
-46.713497	0.486062	-29.176798	148	145	153
-46.054497	0.481106	-29.774260	147	145	155
-45.162796	0.464343	-32.094315	145	143	154
-44.720661	0.462057	-32.338966	145	140	149
-44.276337	0.458460	-32.780087	141	138	146
-43.608608	0.453295	-33.406845	139	137	144
-42.487446	0.442449	-34.786144	147	143	153
-41.590309	0.435874	-35.573391	153	148	164
-41.142559	0.433425	-35.841282	162	156	177
-40.480232	0.433774	-35.640339	168	159	177
-40.036160	0.432947	-35.665203	164	156	177
-39.814114	0.432537	-35.677109	165	157	177
-39.374020	0.433095	-35.494503	162	158	179
-85.063354	0.430448	-14.317348	140	136	158
-84.853889	0.429944	-14.344330	142	139	160
-84.444153	0.428158	-14.509098	142	139	160
-83.389450	0.426198	-14.564019	141	139	167
-83.177269	0.425911	-14.559986	144	138	168
-82.536270	0.425449	-14.491252	147	139	163
-82.110847	0.424981	-14.468175	147	141	165
-81.899918	0.424587	-14.479390	148	141	162
-81.258080	0.424236	-14.395000	144	144	163
-80.834663	0.423597	-14.396254	148	140	165
-79.569550	0.421185	-14.470562	147	143	169
-78.516907	0.418983	-14.559753	153	144	169
-77.896523	0.416490	-14.779705	151	148	161
-77.680603	0.416590	-14.720844	152	148	166
-77.256920	0.415951	-14.722136	154	147	170
-77.048294	0.415291	-14.771094	154	147	171
-76.623512	0.414765	-14.756291	153	145	171
-76.409973	0.414628	-14.731027	155	146	174
-75.983299	0.414318	-14.685640	153	147	171
-75.770332	0.414126	-14.668148	153	149	172
-74.490974	0.413201	-14.531198	159	151	177
-73.452484	0.409161	-14.880833	158	152	173
-72.808998	0.409173	-14.745189	156	152	172
-71.750671	0.407473	-14.762863	156	152	176
-71.541939	0.406747	-14.821113	157	152	175
-71.123871	0.405353	-14.929158	156	154	174
-70.912766	0.404926	-14.945072	156	151	172
-70.485367	0.404779	-14.876655	158	153	174
-69.858215	0.402620	-15.048421	153	151	171
-69.225494	0.401203	-15.115104	157	150	177
-68.573608	0.402644	-14.777588	154	146	171
-67.937706	0.401758	-14.769302	147	141	172
-67.518524	0.400414	-14.870193	154	144	170
-67.310921	0.399411	-14.967411	158	147	170
-66.893478	0.397728	-15.116245	157	150	174
-66.681602	0.397393	-15.119040	154	149	175
-66.253189	0.397514	-15.012791	158	149	175
-66.038376	0.397694	-14.942866	154	146	170
-65.824837	0.397664	-14.902705	153	151	176
-65.398705	0.397457	-14.842872	155	149	173
-65.185287	0.397425	-14.802941	161	149	173
-64.973885	0.397032	-14.813980	154	149	172
-64.346558	0.394530	-15.033674	156	144	173
-63.712864	0.393165	-15.092884	155	148	176
-63.076157	0.392393	-15.068549	150	150	178
-62.439564	0.391613	-15.045190	149	146	171
-62.013996	0.391365	-14.991279	154	145	170
-61.802792	0.390892	-15.013513	153	150	176
-61.381603	0.389649	-15.099904	154	147	174
-61.170383	0.389161	-15.124288	151	144	171
-60.748852	0.387946	-15.206676	152	147	166
-60.537815	0.387391	-15.240396	147	144	168
-60.111538	0.387347	-15.157825	148	146	166
-59.474785	0.386639	-15.124431	150	138	162
-58.840729	0.385180	-15.196774	141	138	157
-58.630291	0.384409	-15.260825	139	133	146
-58.215233	0.381016	-15.649601	138	139	146
-57.795807	0.378788	-15.874329	147	142	153
-57.176350	0.371818	-16.721449	148	143	155
-56.973412	0.368043	-17.207848	146	144	159
-56.559578	0.362924	-17.838545	146	141	153
-56.143757	0.358102	-18.427263	145	140	152
-55.724350	0.354294	-18.873287	151	145	158
-55.514229	0.352427	-19.090963	151	147	158
-55.094643	0.348110	-19.608137	146	144	155
-54.461044	0.342802	-20.219624	149	147	158
-54.249645	0.340931	-20.437630	151	148	158
-54.038181	0.338982	-20.666557	152	149	160
-53.614216	0.335295	-21.094589	151	150	162
-52.976604	0.329833	-21.726664	150	146	158
-52.763885	0.327857	-21.959105	151	147	156
-52.551414	0.325535	-22.240028	150	148	158
-51.913399	0.317691	-23.205822	150	147	157
-51.699535	0.315587	-23.455938	152	146	156
-51.485115	0.313786	-23.663504	151	148	156
-51.270470	0.312008	-23.867767	148	148	155
-50.841469	0.307389	-24.425238	149	147	156
-50.626972	0.304541	-24.779469	149	145	156
-50.411938	0.301970	-25.094797	150	148	155
-50.195850	0.300603	-25.241259	151	151	155
-49.979134	0.300103	-25.266083	150	149	157
-49.762691	0.299003	-25.375109	147	146	159
-49.546070	0.298069	-25.460798	147	143	156
-47.808182	0.275211	-28.299995	147	145	153
-47.589790	0.274355	-28.374517	148	146	152
-47.370930	0.272002	-28.658434	149	145	153
-47.152008	0.270301	-28.851089	150	144	155
-46.933022	0.268892	-29.002716	149	145	155
-46.494102	0.265139	-29.436934	147	144	157
-46.274292	0.263205	-29.662025	147	144	155
-46.054565	0.261716	-29.824854	147	145	154
-45.163261	0.244350	-32.071198	146	144	153
-44.942303	0.243187	-32.188164	145	141	149
-44.721577	0.242342	-32.260532	145	140	149
-44.500149	0.240947	-32.409721	144	140	148
-44.056911	0.238200	-32.702179	140	138	144
-43.611847	0.234562	-33.118889	139	136	143
-43.387383	0.231654	-33.479492	137	136	145
-43.162487	0.228693	-33.847294	137	137	147
-42.938465	0.226486	-34.109715	140	139	147
-42.713181	0.223686	-34.454952	143	139	148
-42.487576	0.220893	-34.799168	145	143	153
-42.261402	0.217971	-35.161236	144	144	156
-42.036861	0.216093	-35.377453	143	144	157
-41.814281	0.215316	-35.439915	148	146	162
-41.590801	0.214128	-35.559856	154	147	164
-41.366592	0.212648	-35.720406	158	152	168
-41.144341	0.212138	-35.745537	161	156	176
-40.923504	0.212270	-35.681061	165	160	179
-40.703636	0.212794	-35.561905	168	160	179
-40.482754	0.212840	-35.509422	167	160	177
-40.261311	0.212638	-35.491631	165	158	179
-39.817837	0.211981	-35.491264	163	155	176
-39.596634	0.211854	-35.463055	163	154	179
-39.158669	0.213161	-35.188736	161	156	173
-85.891205	0.221766	-14.091621	126	124	153
-85.688751	0.220655	-14.197802	139	135	156
-85.267265	0.219861	-14.220034	144	140	161
-85.055565	0.219546	-14.220079	144	140	164
-84.641312	0.218102	-14.328808	148	141	160
-84.436996	0.217122	-14.417672	145	140	160
-84.015800	0.216276	-14.446638	147	144	162
-83.800552	0.216277	-14.404704	146	143	162
-83.587326	0.216096	-14.386968	147	141	162
-83.165466	0.215311	-14.407802	146	145	169
-82.952499	0.215109	-14.392936	149	145	168
-82.526825	0.214683	-14.365980	149	146	164
-82.314751	0.214400	-14.361845	147	144	167
-81.891251	0.213773	-14.361794	150	148	169
-81.680153	0.213395	-14.370215	148	143	167
-81.467247	0.213195	-14.355099	152	145	168
-81.251709	0.213255	-14.305285	151	145	163
-81.037155	0.213223	-14.267818	148	143	166
-80.826591	0.212796	-14.282889	154	144	168
-80.620003	0.211969	-14.351100	150	144	168
-80.411934	0.211284	-14.400393	152	146	173
-80.201294	0.210857	-14.415464	157	148	170
-79.775215	0.210493	-14.380300	149	146	168
-79.560440	0.210495	-14.338360	152	144	169
-79.128883	0.210724	-14.224498	151	149	166
-78.916016	0.210538	-14.207415	151	150	168
-78.706566	0.209990	-14.238591	157	149	172
-78.502426	0.208866	-14.346165	157	150	170
-78.299286	0.207623	-14.469603	157	144	170
-77.238930	0.206224	-14.446858	157	156	171
-77.031425	0.205429	-14.510790	158	153	171
-76.397415	0.204334	-14.531109	163	150	174
-75.971840	0.203941	-14.499813	161	152	180
-75.337280	0.202911	-14.511527	162	157	179
-74.905266	0.203320	-14.373974	167	155	179
-74.693260	0.203044	-14.368914	164	158	182
-74.273468	0.201966	-14.428584	165	156	186
-74.063820	0.201390	-14.463318	164	154	182
-73.443077	0.198575	-14.711655	168	158	180
-73.231636	0.198207	-14.718800	166	161	178
-72.368813	0.199038	-14.442165	162	153	183
-72.158554	0.198525	-14.468534	162	155	179
-71.534378	0.196042	-14.672679	165	159	182
-71.324211	0.195494	-14.703652	163	158	183
-70.901619	0.194712	-14.723975	159	156	174
-70.687752	0.194694	-14.684806	158	156	178
-70.051559	0.193864	-14.669935	161	157	182
-69.846169	0.192578	-14.798628	161	156	183
-69.432045	0.190466	-14.994912	161	153	185
-69.218102	0.190462	-14.953881	160	157	188
-69.000458	0.191047	-14.834800	160	158	180
-68.782181	0.191753	-14.699899	164	157	179
-67.508942	0.190277	-14.645903	160	153	175
-67.300072	0.189465	-14.711738	166	156	179
-67.092415	0.188429	-14.807102	163	155	183
-66.671860	0.187243	-14.880795	164	156	183
-66.458565	0.187183	-14.847192	168	159	181
-66.031647	0.187143	-14.769511	168	155	178
-65.819260	0.186934	-14.755598	165	159	180
-65.393173	0.186777	-14.693366	163	156	180
-64.757355	0.185931	-14.680708	164	154	185
-64.547997	0.185132	-14.744677	166	159	182
-64.337364	0.184580	-14.776073	166	162	185
-63.914600	0.183773	-14.799772	166	162	182
-63.703697	0.183264	-14.825380	168	162	186
-63.281132	0.182398	-14.856866	162	163	189
-63.069302	0.182080	-14.857267	160	157	189
-62.856987	0.181872	-14.843329	164	160	189
-62.431110	0.181755	-14.775833	162	158	188
-62.217331	0.181907	-14.714418	160	159	178
-61.793583	0.181331	-14.707462	164	157	184
-61.584137	0.180449	-14.782388	167	159	183
-61.164051	0.178931	-14.899677	164	162	181
-60.953011	0.178409	-14.927185	165	159	180
-60.529499	0.177726	-14.934367	164	157	178
-60.316635	0.177684	-14.898441	160	157	184
-60.103352	0.177770	-14.845784	163	162	188
-59.678539	0.177483	-14.800805	160	158	184
-59.468052	0.176789	-14.850881	164	156	179
-59.046143	0.175640	-14.919444	160	156	175
-58.834145	0.175374	-14.913016	157	152	178
-58.623722	0.174613	-14.971965	153	146	159
-58.211086	0.170325	-15.453744	146	147	155
-58.004696	0.168087	-15.707003	146	145	155
-57.585701	0.165540	-15.959383	153	147	158
-57.379768	0.162914	-16.263588	153	147	157
-57.177364	0.158875	-16.753628	151	147	161
-56.974335	0.154893	-17.236160	149	148	163
-56.767864	0.152060	-17.567327	146	145	158
-56.559113	0.150009	-17.795662	148	145	154
-56.350346	0.147872	-18.035215	147	143	154
-56.141975	0.145471	-18.309429	147	142	154
-55.722511	0.141520	-18.745785	153	145	160
-55.512093	0.139712	-18.941776	153	148	157
-55.092319	0.135306	-19.437792	147	147	154
-54.881817	0.133230	-19.669003	145	146	157
-54.670685	0.131363	-19.872675	147	148	160
-54.459217	0.129569	-20.066742	148	145	159
-54.247887	0.127594	-20.284479	152	148	158
-54.036629	0.125458	-20.523476	153	151	161
-53.825298	0.123225	-20.775053	151	149	161
-53.613506	0.121127	-21.008827	149	148	160
-53.401306	0.119145	-21.227365	144	144	159
-53.188396	0.117499	-21.401787	150	146	159
-52.975220	0.115922	-21.567070	152	147	158
-52.762119	0.114170	-21.755219	149	146	156
-52.549694	0.111755	-22.030596	150	146	156
-52.337433	0.108988	-22.352016	151	145	160
-52.125019	0.106081	-22.691692	151	146	161
-51.911751	0.103650	-22.968941	151	147	157
-51.483143	0.100097	-23.351366	150	150	158
-51.268639	0.098234	-23.553823	148	148	158
-50.840206	0.093006	-24.155832	150	149	158
-50.625977	0.089795	-24.535103	151	147	157
-49.545834	0.082568	-25.272371	147	145	157
-46.054035	0.041333	-29.998735	147	147	154
-45.833508	0.038963	-30.266514	148	148	157
-45.610264	0.033365	-30.956823	149	148	157
-45.387440	0.029089	-31.474051	146	146	154
-45.165241	0.026087	-31.824379	144	146	151
-44.944080	0.024527	-31.985788	146	144	149
-44.280949	0.020980	-32.321915	141	136	148
-44.059563	0.019692	-32.447598	137	135	146
-43.614075	0.015351	-32.930054	136	134	142
-42.488544	-0.000173	-34.746109	143	142	152
-84.428558	0.006294	-14.310981	144	141	156
-84.006775	0.005504	-14.331506	145	144	163
-83.790573	0.005624	-14.277359	146	143	160
-83.575447	0.005644	-14.235652	147	141	162
-83.154564	0.004770	-14.266695	149	146	164
-82.944481	0.004294	-14.286985	152	145	161
-82.521172	0.003655	-14.288564	150	142	161
-82.308655	0.003423	-14.278436	149	147	165
-81.884048	0.002919	-14.263107	151	145	170
-81.673424	0.002495	-14.277050	150	145	168
-80.402710	0.000672	-14.270061	155	151	169
-80.191826	0.000272	-14.280934	154	147	163
-79.768097	-0.000317	-14.276296	154	148	168
-76.386230	-0.005936	-14.352260	166	152	179
-75.960426	-0.006261	-14.314713	163	154	174
-75.751495	-0.006921	-14.357914	166	155	174
-74.687256	-0.007729	-14.263526	166	156	179
-73.849365	-0.010158	-14.410084	165	159	182
-73.435562	-0.012110	-14.575148	166	162	182
-72.366074	-0.012151	-14.385402	163	157	176
-72.154922	-0.012542	-14.395031	165	156	176
-71.526642	-0.014494	-14.521052	163	157	182
-71.104843	-0.015377	-14.552946	163	162	183
-70.893028	-0.015681	-14.551814	162	159	183
-69.835274	-0.017408	-14.571893	161	158	182
-67.294449	-0.021191	-14.574962	166	155	179
-66.026154	-0.023483	-14.626151	171	161	182
-64.965797	-0.024712	-14.584408	170	162	189
-63.697605	-0.027073	-14.644106	170	165	179
-62.427391	-0.029006	-14.650822	168	161	185
-61.368423	-0.030492	-14.640959	170	162	180
-60.099121	-0.032670	-14.677967	167	163	186
-59.254333	-0.034599	-14.761646	165	158	177
-58.829441	-0.034777	-14.706118	163	156	180
-55.089828	-0.077249	-19.256943	151	146	158
-52.760483	-0.099421	-21.563890	147	148	157
-52.548344	-0.102129	-21.858829	147	145	154
-51.482143	-0.114359	-23.171158	152	149	158
-49.545815	-0.133347	-25.157547	149	146	156
-46.714153	-0.170843	-29.260712	152	147	155
-44.061153	-0.199503	-32.308002	137	135	145
-42.941803	-0.213877	-33.874744	137	139	146
-41.819221	-0.225736	-35.131195	147	144	165
-41.596325	-0.226799	-35.221416	152	148	164
-40.930698	-0.228171	-35.269211	163	158	180
-40.490501	-0.227353	-35.088264	160	156	175
-40.048634	-0.227454	-35.020115	163	156	175
-39.827705	-0.227525	-34.988644	163	157	173
-39.608044	-0.227066	-34.892086	163	155	172
-39.165546	-0.227560	-34.872337	161	154	173
-84.416924	-0.204106	-14.166039	141	140	159
-83.780899	-0.204938	-14.153713	148	140	162
-83.353081	-0.205092	-14.098246	146	142	171
-83.144424	-0.205717	-14.135110	147	145	171
-82.087730	-0.207444	-14.154631	153	146	166
-81.874863	-0.207622	-14.138869	151	143	172
-81.239532	-0.208513	-14.133446	147	146	168
-80.813896	-0.208869	-14.101851	148	148	164
-79.547295	-0.211100	-14.143936	156	147	173
-78.901810	-0.210763	-13.994203	160	149	168
-78.278084	-0.213034	-14.151154	153	148	171
-77.855286	-0.213713	-14.157551	160	151	178
-77.639862	-0.213548	-14.101454	158	157	174
-77.426811	-0.213676	-14.079832	159	154	178
-77.010292	-0.215148	-14.179443	161	151	174
-76.801552	-0.215831	-14.223095	165	157	175
-76.589981	-0.216153	-14.224189	166	159	176
-76.161285	-0.216063	-14.140218	165	158	175
-75.534462	-0.218073	-14.266383	161	152	178
-75.324249	-0.218581	-14.289337	163	154	177
-74.894562	-0.218326	-14.186032	161	158	184
-74.262619	-0.219669	-14.233778	165	157	183
-74.052475	-0.220193	-14.258662	165	156	181
-73.844063	-0.220969	-14.313051	165	157	181
-73.636841	-0.221926	-14.388787	164	159	181
-73.004471	-0.223267	-14.436230	165	157	181
-72.791199	-0.223345	-14.408696	167	160	182
-72.151268	-0.223537	-14.321280	165	157	178
-71.939812	-0.223879	-14.324825	166	159	183
-70.671318	-0.225981	-14.351656	167	160	184
-70.456375	-0.225748	-14.287704	167	159	180
-70.031654	-0.226123	-14.258425	163	157	184
-69.202408	-0.230396	-14.612800	162	157	188
-68.771378	-0.229673	-14.454967	166	157	185
-68.557198	-0.229533	-14.402021	165	159	184
-68.137154	-0.230767	-14.473382	163	153	183
-67.927330	-0.231431	-14.514548	164	153	180
-67.715546	-0.231729	-14.512892	162	156	177
-66.871071	-0.233448	-14.567882	167	158	183
-66.658737	-0.233639	-14.553628	171	163	185
-66.445450	-0.233634	-14.516525	167	162	182
-65.809769	-0.234450	-14.502302	166	157	185
-65.599487	-0.235062	-14.537418	171	164	183
-65.176285	-0.235733	-14.542816	171	166	185
-64.331917	-0.237544	-14.608578	167	164	190
-63.905277	-0.237419	-14.520891	167	164	190
-62.637505	-0.239889	-14.590535	168	159	185
-62.425781	-0.240198	-14.590186	167	166	185
-62.000553	-0.240334	-14.533101	169	162	188
-61.788055	-0.240423	-14.506967	171	165	189
-61.153553	-0.241497	-14.523056	167	161	185
-60.096874	-0.243568	-14.582552	170	163	185
-59.040127	-0.245702	-14.649380	166	159	186
-58.614464	-0.245526	-14.555920	156	151	164
-57.587120	-0.259402	-15.992201	150	150	162
-57.379429	-0.261614	-16.213612	150	148	163
-56.968220	-0.268096	-16.896414	152	148	157
-56.553616	-0.273653	-17.471056	149	145	157
-56.344967	-0.276005	-17.708549	149	148	154
-55.719090	-0.283787	-18.505564	152	146	157
-55.508747	-0.285763	-18.699055	148	144	153
-55.298668	-0.287979	-18.920546	149	145	155
-55.087975	-0.289978	-19.116722	150	145	160
-54.664459	-0.293064	-19.402687	148	146	157
-54.034286	-0.301673	-20.295046	147	147	159
-53.824387	-0.305039	-20.650185	148	149	165
-53.399891	-0.309102	-21.049562	150	149	159
-53.186314	-0.310342	-21.157053	148	147	157
-52.759632	-0.313481	-21.448622	149	149	156
-52.547775	-0.316530	-21.766624	146	147	154
-52.124432	-0.323895	-22.549850	148	153	162
-51.911102	-0.326459	-22.811243	149	150	163
-51.696934	-0.328387	-22.998522	151	150	160
-51.482361	-0.330053	-23.155344	152	149	160
-50.624893	-0.340436	-24.214798	152	148	158
-49.762798	-0.349548	-25.125822	151	145	156
-49.546417	-0.350942	-25.250792	150	147	157
-47.591114	-0.378430	-28.109587	146	144	153
