-103.359184	-17.229490	16.418278	22	21	23
-102.957680	-17.227074	16.473930	20	22	26
-102.562309	-17.226950	16.485029	22	25	28
-101.937706	-17.214596	16.738138	25	23	26
-101.744583	-17.216236	16.710594	26	23	26
-100.974518	-17.223864	16.579720	21	22	25
-100.581596	-17.224630	16.573492	21	22	25
-99.595039	-17.224848	16.590967	22	23	28
-99.399879	-17.225754	16.577715	23	23	27
-98.598717	-17.221003	16.687397	23	23	23
-93.923264	-18.994118	-17.566620	21	19	22
-93.730949	-19.004820	-17.769756	19	19	21
-93.299805	-19.003336	-17.731510	19	20	23
-88.822533	-19.012524	-17.811129	14	13	14
-85.950920	-19.478207	-26.771322	11	11	13
-85.376663	-19.528172	-27.726845	14	13	15
-83.886147	-19.554571	-28.205605	16	15	23
-78.572380	-19.023905	-17.806366	15	15	15
-77.948265	-19.037020	-18.046755	13	14	17
-77.308502	-19.038561	-18.062576	15	14	15
-74.967934	-19.048853	-18.210526	14	14	16
-74.311539	-19.036287	-17.952639	15	15	16
-73.654686	-19.022640	-17.673759	15	15	17
-73.230812	-19.025738	-17.724478	15	17	17
-72.607124	-19.041740	-18.020832	15	17	20
-71.974709	-19.050282	-18.172426	18	17	19
-71.336884	-19.053968	-18.229849	19	18	21
-70.704369	-19.063131	-18.393505	16	17	19
-70.346970	-19.135162	-19.781334	16	15	15
-70.213928	-19.219328	-21.409241	14	14	15
-69.940231	-19.384672	-24.607025	14	13	16
-69.565796	-19.448568	-25.836901	15	15	22
-67.292747	-19.593603	-28.597176	15	15	18
-66.860657	-19.600611	-28.723488	15	14	18
-66.420753	-19.598040	-28.663975	14	14	16
-61.940430	-19.068573	-18.306288	14	14	16
-61.492973	-19.034742	-17.640963	14	14	15
-60.845024	-19.021029	-17.360960	15	15	15
-60.647652	-19.049839	-17.914904	15	15	15
-60.230099	-19.067711	-18.251991	15	15	16
-59.793644	-19.050068	-17.900555	14	15	17
-59.361298	-19.039328	-17.682932	16	15	17
-59.147793	-19.039114	-17.674107	15	15	16
-58.935200	-19.040804	-17.702192	16	16	18
-58.511101	-19.046722	-17.807518	17	16	18
-57.885834	-19.081850	-18.474449	19	19	18
-57.473171	-19.118118	-19.168108	27	27	38
-54.320690	-19.335964	-23.319904	54	55	62
-49.804813	-19.629753	-28.913269	55	57	66
-49.368385	-19.649729	-29.290710	55	56	63
-48.054504	-19.738365	-30.979326	56	56	63
-47.834591	-19.751808	-31.234938	55	56	62
-47.393852	-19.783365	-31.836721	54	57	63
-46.288681	-19.840626	-32.921967	56	56	63
-46.067860	-19.842932	-32.961769	56	55	61
-109.693848	-17.429558	16.219316	19	22	23
-109.072571	-17.419949	16.417250	19	19	22
-106.898544	-17.419910	16.465157	21	20	23
-100.205544	-17.428743	16.440868	23	23	26
-100.011070	-17.429956	16.421776	23	24	27
-99.415726	-17.428772	16.457441	23	23	28
-98.153992	-18.525026	-4.557403	31	31	33
-94.124290	-19.200897	-17.443083	17	18	22
-93.081573	-19.214472	-17.681028	19	19	21
-88.436165	-19.249294	-18.248632	12	13	14
-87.403885	-19.396875	-21.058992	12	12	16
-87.261620	-19.439888	-21.881512	12	13	16
-87.117554	-19.482311	-22.692682	14	15	16
-86.982033	-19.530273	-23.610361	15	14	14
-86.118767	-19.664989	-26.177464	15	11	14
-85.935814	-19.686533	-26.587017	15	11	14
-85.148308	-19.740223	-27.600481	14	13	19
-84.725304	-19.749401	-27.767473	17	15	17
-84.084038	-19.759184	-27.941347	13	14	13
-83.426498	-19.758556	-27.915047	15	12	11
-78.182571	-19.265747	-18.341930	16	14	14
-77.759964	-19.270002	-18.414433	15	15	17
-73.668167	-19.247698	-17.897518	15	16	16
-72.411499	-19.272011	-18.336952	15	16	17
-71.777092	-19.279215	-18.461458	17	17	20
-71.344604	-19.274818	-18.367678	19	17	21
-70.524490	-19.311264	-19.049429	15	16	15
-70.369377	-19.372265	-20.216957	14	14	14
-69.147507	-19.684143	-26.176844	15	13	14
-68.949608	-19.706312	-26.598078	15	13	14
-68.142662	-19.781887	-28.031197	16	13	16
-67.931061	-19.790171	-28.185629	14	13	14
-67.063309	-19.798780	-28.332062	16	15	18
-58.096676	-19.288029	-18.333778	16	18	18
-56.229965	-19.449247	-21.387810	53	54	59
-55.594589	-19.480591	-21.975624	53	56	61
-54.323269	-19.560484	-23.481581	56	55	62
-54.109875	-19.571251	-23.683607	55	54	64
-53.896778	-19.584007	-23.923836	57	55	61
-53.043900	-19.643858	-25.054148	57	56	63
-52.185669	-19.698114	-26.076958	56	57	63
-51.970627	-19.712524	-26.348873	55	57	65
-51.755196	-19.726114	-26.605066	57	56	65
-51.107262	-19.765656	-27.349983	56	59	66
-50.890854	-19.779310	-27.607388	55	58	64
-50.457630	-19.810146	-28.189878	57	57	67
-48.932117	-19.907558	-30.026571	54	54	62
-48.713203	-19.923159	-30.321259	55	54	62
-48.493977	-19.936451	-30.571634	54	55	61
-112.229935	-17.614729	16.389702	20	20	21
-111.633667	-17.613691	16.422192	20	20	22
-108.479790	-17.616686	16.432840	20	22	23
-107.887405	-17.616859	16.442207	22	21	24
-102.372505	-17.623173	16.440308	23	22	26
-101.582596	-17.623219	16.456373	23	21	25
-98.714058	-18.704195	-4.038278	29	29	30
-98.072708	-18.695745	-3.863852	32	32	34
-94.169151	-19.436375	-17.864168	17	18	22
-88.260139	-19.484648	-18.655560	12	12	13
-88.086304	-19.508030	-19.096464	13	11	13
-87.252167	-19.649517	-21.769142	15	14	19
-86.808853	-19.772612	-24.100454	14	14	15
-86.649635	-19.807636	-24.763075	14	14	17
-86.465721	-19.828005	-25.146475	14	14	13
-85.529633	-19.923029	-26.933430	15	12	12
-85.328194	-19.933729	-27.132566	14	13	14
-84.697464	-19.949608	-27.421000	18	17	22
-73.278824	-19.495821	-18.547062	15	16	17
-73.067490	-19.498356	-18.590736	16	16	17
-69.732010	-19.826820	-24.765453	17	16	19
-69.532478	-19.845984	-25.125566	17	15	18
-68.534035	-19.946976	-27.024656	14	14	14
-68.331345	-19.964973	-27.362585	16	15	17
-67.704872	-19.999172	-27.999475	16	14	16
-66.832642	-20.001839	-28.031496	14	13	15
-66.395851	-20.002350	-28.031858	16	14	17
-65.507919	-19.983868	-27.661396	15	13	15
-65.282257	-19.973873	-27.466503	14	13	14
-61.495747	-19.464941	-17.707411	14	14	16
-56.862740	-19.629448	-20.736443	53	54	58
-56.443012	-19.657467	-21.260284	54	53	63
-56.231998	-19.669268	-21.480160	54	54	61
-55.386936	-19.720076	-22.428213	53	55	64
-55.176304	-19.736807	-22.741879	56	57	65
-53.472832	-19.837715	-24.624294	56	56	63
-51.541462	-19.968874	-27.077034	57	58	65
-49.588264	-20.093414	-29.403481	55	56	65
-49.369896	-20.105320	-29.625214	55	55	65
-48.713711	-20.151440	-30.488186	54	55	61
-48.494373	-20.162535	-30.694448	54	55	62
-48.055107	-20.183870	-31.090752	54	54	62
-47.835117	-20.198612	-31.366381	55	54	62
-47.394089	-20.235250	-32.053654	55	56	60
-47.173183	-20.251081	-32.349991	55	57	64
-46.952255	-20.261961	-32.552116	56	57	63
-46.289936	-20.274441	-32.775265	55	55	61
-112.273148	-17.825809	16.121897	20	21	21
-111.650230	-17.815947	16.320911	21	20	22
-111.055122	-17.815300	16.345695	21	21	22
-110.283043	-17.821730	16.240885	20	21	24
-109.712440	-17.829567	16.105291	20	21	19
-109.099571	-17.822762	16.246475	19	19	22
-108.492676	-17.817911	16.350695	20	20	24
-107.895866	-17.816545	16.389044	22	20	23
-107.303200	-17.816626	16.400070	22	22	22
-106.716484	-17.818853	16.370504	19	21	22
-106.131241	-17.821650	16.330200	20	21	24
-105.560753	-17.829967	16.185570	20	20	23
-104.942421	-17.820484	16.377327	20	21	23
-104.184479	-17.832806	16.161205	21	22	23
-103.603867	-17.837580	16.083534	20	22	25
-103.012733	-17.838345	16.081617	22	23	27
-102.383011	-17.823938	16.366375	21	22	24
-101.790306	-17.823904	16.379570	21	21	26
-101.193878	-17.822353	16.421375	21	21	25
-100.985924	-17.818134	16.505270	21	21	24
-100.595810	-17.820080	16.476873	21	22	23
-100.028877	-17.830534	16.291899	23	24	27
-99.435600	-17.830256	16.309692	25	24	28
-98.819740	-17.820446	16.507544	23	23	25
-98.452835	-18.886871	-3.577257	29	29	31
-98.238014	-18.883476	-3.508744	31	31	33
-93.133072	-19.667444	-18.171566	18	18	21
-88.661713	-19.682714	-18.364685	13	13	13
-88.456421	-19.687881	-18.457672	12	13	13
-88.089409	-19.723711	-19.124992	13	11	13
-87.729019	-19.764204	-19.880306	13	11	13
-87.562050	-19.792593	-20.411631	13	13	14
-87.406799	-19.828260	-21.080364	14	13	19
-86.928810	-19.930237	-22.991610	17	16	19
-86.782852	-19.973114	-23.796352	16	15	16
-85.886185	-20.090513	-25.989342	12	12	15
-85.093781	-20.141302	-26.929495	13	12	14
-84.669884	-20.149643	-27.077654	15	14	16
-84.032852	-20.161718	-27.291700	16	16	21
-83.596176	-20.161985	-27.287498	17	16	19
-74.087585	-19.666702	-17.754698	14	15	15
-73.506798	-19.722004	-18.784353	16	15	16
-72.429344	-19.715754	-18.643780	15	17	16
-71.783249	-19.712027	-18.559904	17	17	19
-71.347725	-19.704590	-18.410578	17	16	17
-70.091881	-19.963690	-23.265739	15	15	18
-69.912376	-20.003531	-24.012581	17	16	18
-69.518555	-20.047192	-24.826855	18	16	22
-68.920219	-20.107412	-25.948835	14	14	16
-68.515518	-20.142918	-26.609238	15	14	14
-68.312103	-20.159985	-26.926495	16	13	15
-67.688446	-20.197149	-27.613504	19	15	19
-67.035728	-20.200266	-27.658422	16	15	16
-66.383316	-20.203928	-27.713604	16	13	16
-65.724724	-20.199436	-27.615068	15	13	16
-65.500351	-20.191223	-27.455553	14	14	15
-65.275620	-20.182293	-27.282560	14	14	14
-60.439323	-19.698051	-18.056637	14	15	16
-60.217331	-19.681864	-17.746927	15	15	16
-58.738453	-19.715231	-18.344320	17	17	17
-57.893307	-19.738440	-18.763725	18	19	18
-57.688789	-19.761461	-19.193155	21	23	21
-56.865700	-19.851326	-20.868889	52	52	57
-56.022274	-19.899820	-21.764721	55	54	62
-55.810879	-19.911961	-21.989002	55	56	63
-54.328899	-20.011831	-23.839333	56	58	63
-52.618313	-20.117996	-25.803402	53	54	65
-52.189999	-20.154757	-26.486935	55	56	62
-51.759380	-20.184977	-27.047188	56	56	66
-51.327072	-20.210625	-27.521305	56	59	63
-51.110493	-20.222811	-27.746304	54	57	63
-50.676617	-20.246531	-28.184031	56	59	64
-50.459522	-20.260113	-28.435343	54	58	63
-50.242424	-20.276525	-28.739990	54	55	62
-50.025093	-20.293743	-29.059774	54	57	64
-49.807266	-20.308195	-29.327471	54	57	64
-49.370625	-20.332834	-29.782480	56	56	65
-49.152115	-20.348835	-30.079323	55	55	64
-98.836296	-18.024055	16.380213	22	23	25
-98.616722	-19.073872	-3.214294	28	28	30
-98.195587	-19.070686	-3.146019	31	30	32
-94.235924	-19.896921	-18.488369	16	16	19
-93.776657	-19.881327	-18.187630	19	18	22
-93.155258	-19.892445	-18.382233	19	17	19
-89.102737	-19.903378	-18.501692	13	11	14
-87.063004	-20.096075	-22.056549	19	18	20
-86.757942	-20.173988	-23.504765	16	14	18
-86.417198	-20.231522	-24.571728	14	14	15
-86.044731	-20.270454	-25.290804	18	11	16
-85.859589	-20.290941	-25.669395	15	13	15
-85.473984	-20.322842	-26.256910	15	14	17
-85.069267	-20.343128	-26.627184	15	15	20
-84.646584	-20.352140	-26.786613	15	15	18
-82.403320	-20.310061	-25.954147	13	11	12
-81.896004	-20.259607	-25.001633	12	11	12
-78.617096	-19.910889	-18.422892	14	15	15
-77.573189	-19.932077	-18.796654	15	15	17
-73.910141	-19.912762	-18.359516	14	14	15
-73.518631	-19.946518	-18.981564	14	15	15
-73.081169	-19.938154	-18.816254	14	15	17
-70.736404	-19.949724	-18.983299	13	13	13
-70.556152	-19.985413	-19.645796	13	13	13
-70.392944	-20.039862	-20.658903	14	14	15
-69.897385	-20.203203	-23.698006	17	16	19
-69.704124	-20.228874	-24.173212	18	16	20
-69.505829	-20.249451	-24.553202	18	17	21
-69.108704	-20.291250	-25.325283	15	14	15
-68.908569	-20.310993	-25.689663	14	13	15
-67.669052	-20.391098	-27.159271	18	16	19
-67.017448	-20.394812	-27.215000	17	16	18
-66.368988	-20.402853	-27.351559	16	14	16
-61.295277	-19.913589	-18.111479	14	15	14
-58.525410	-19.929613	-18.352783	15	15	18
-57.489868	-20.013128	-19.890284	24	24	28
-55.602741	-20.149664	-22.399874	54	54	63
-55.391697	-20.164808	-22.678192	56	56	63
-54.755871	-20.206354	-23.440516	53	56	61
-54.331371	-20.236448	-23.993502	55	58	64
-54.118328	-20.249926	-24.240665	54	56	62
-53.690449	-20.272228	-24.648104	57	57	65
-53.261429	-20.292871	-25.024525	55	55	66
-53.047031	-20.305092	-25.248175	56	57	64
-52.619286	-20.338741	-25.867447	54	55	65
-52.405476	-20.358488	-26.231634	55	56	66
-51.976425	-20.395664	-26.916737	56	57	64
-47.615158	-20.667318	-31.897156	54	55	62
-98.586510	-19.266438	-2.956787	26	26	28
-98.162071	-19.261600	-2.858559	30	30	31
-94.532692	-20.152544	-19.266350	17	17	18
-93.792976	-20.103241	-18.338968	19	18	22
-88.096985	-20.155975	-19.197075	12	12	11
-87.722488	-20.188795	-19.796526	13	11	13
-87.552666	-20.215965	-20.295681	14	13	14
-87.389427	-20.247412	-20.874067	15	14	16
-87.220879	-20.275976	-21.399044	16	15	23
-86.889740	-20.337713	-22.534359	18	18	18
-86.569221	-20.407440	-23.817719	16	16	14
-86.021248	-20.472458	-25.009262	16	14	22
-85.247002	-20.534399	-26.139204	15	12	16
-84.191963	-20.557692	-26.548370	18	18	18
-83.535820	-20.556585	-26.514351	15	13	17
-82.865593	-20.545633	-26.297922	14	12	14
-82.147987	-20.500751	-25.452780	13	11	13
-81.643410	-20.451099	-24.523813	12	11	11
-81.124870	-20.390005	-23.382851	12	9	11
-80.861870	-20.356125	-22.750648	11	10	10
-80.607399	-20.328053	-22.226038	10	9	9
-79.072029	-20.144779	-18.803774	12	11	14
-78.845291	-20.135195	-18.621769	13	13	16
-77.994331	-20.139822	-18.689819	17	15	18
-73.739861	-20.166603	-19.097527	14	15	14
-73.085457	-20.155796	-18.884104	14	15	16
-72.438194	-20.151331	-18.788137	14	14	16
-72.008232	-20.149717	-18.749413	15	15	16
-71.359039	-20.142815	-18.608315	16	16	19
-70.750015	-20.177622	-19.239695	16	15	16
-70.567101	-20.210949	-19.852476	15	14	15
-70.393845	-20.255243	-20.668360	15	14	17
-70.059288	-20.359499	-22.590239	18	17	19
-68.897530	-20.515020	-25.443441	15	14	15
-68.282753	-20.559696	-26.257263	17	16	20
-67.648766	-20.583513	-26.684828	19	18	20
-66.782021	-20.590006	-26.787056	16	15	15
-65.249542	-20.580503	-26.579659	14	13	16
-64.800079	-20.560553	-26.201281	15	14	15
-58.739845	-20.144104	-18.371866	15	15	17
-58.526196	-20.144285	-18.370836	15	16	19
-57.901669	-20.184895	-19.109209	20	20	21
-57.491417	-20.230616	-19.946625	26	26	30
-57.286369	-20.255287	-20.398796	31	33	42
-56.870270	-20.291758	-21.064945	49	52	58
-56.660515	-20.306559	-21.334448	52	52	60
-56.449921	-20.319685	-21.572941	52	55	63
-49.590408	-20.771156	-29.783749	54	56	63
-49.371925	-20.784994	-30.035261	54	55	64
-48.495564	-20.841251	-31.057936	53	55	61
-48.275845	-20.852121	-31.254520	53	55	61
-48.055927	-20.864222	-31.473837	54	55	62
-47.173733	-20.922028	-32.525043	55	54	63
-46.952866	-20.930279	-32.673141	54	55	60
-112.305130	-18.427273	15.932195	19	18	22
-111.906326	-18.426250	15.959063	20	20	22
-111.509041	-18.425734	15.976658	19	22	25
-110.729202	-18.429815	15.917684	18	19	23
-110.154854	-18.436647	15.804130	20	21	21
-109.334450	-18.426376	16.009161	21	21	22
-109.127396	-18.423061	16.074144	20	21	23
-108.340210	-18.424498	16.063862	21	21	22
-107.952591	-18.427410	16.018360	23	22	23
-107.168312	-18.429964	15.987498	20	22	23
-106.767403	-18.427975	16.032141	21	21	23
-105.984604	-18.431101	15.990782	21	20	24
-105.390770	-18.430901	16.006559	20	21	22
-104.577217	-18.422140	16.183739	20	21	24
-104.193993	-18.426868	16.104864	20	20	23
-103.422829	-18.434626	15.978352	22	24	25
-103.033737	-18.437174	15.939549	23	22	26
-102.234276	-18.433727	16.019047	21	24	24
-101.842575	-18.435232	15.999425	21	22	23
-101.054321	-18.436272	15.996410	22	23	27
-100.641762	-18.429090	16.136486	22	23	27
-99.870110	-18.437044	16.006390	23	22	24
-99.288658	-18.441980	15.927717	22	24	25
-94.268761	-20.341148	-18.790106	18	16	20
-93.817329	-20.329500	-18.567375	19	18	22
-93.183716	-20.334637	-18.648638	18	18	19
-89.103714	-20.331131	-18.501230	14	13	15
-88.894707	-20.334242	-18.554016	14	14	14
-88.490875	-20.348949	-18.815437	13	13	13
-87.213036	-20.486147	-21.304838	15	15	20
-86.712112	-20.577383	-22.967400	16	16	17
-86.545601	-20.608765	-23.539385	15	15	16
-84.598885	-20.755564	-26.191181	18	19	22
-84.385620	-20.758738	-26.245039	18	19	20
-83.951897	-20.760319	-26.265177	17	16	20
-83.732048	-20.759077	-26.237953	18	16	21
-83.511536	-20.757364	-26.202044	18	15	21
-81.633385	-20.660320	-24.384544	11	11	14
-79.300682	-20.369431	-19.003738	11	11	13
-78.635391	-20.352116	-18.672726	14	14	17
-77.353279	-20.354698	-18.693958	18	17	18
-73.092537	-20.376179	-19.000977	14	16	15
-72.234520	-20.375288	-18.967163	14	14	16
-71.808289	-20.377594	-19.000755	16	16	16
-70.958809	-20.385504	-19.128500	19	18	23
-70.043526	-20.557489	-22.263105	20	19	20
-69.475288	-20.647383	-23.899670	18	15	16
-68.061852	-20.772936	-26.172813	19	19	29
-67.849342	-20.779352	-26.286123	23	20	29
-67.634064	-20.782444	-26.338417	25	21	27
-66.766098	-20.786505	-26.395172	18	17	19
-66.339287	-20.798237	-26.601583	17	16	19
-65.684265	-20.796303	-26.552795	15	15	18
-65.235031	-20.777000	-26.189724	16	15	20
-61.087090	-20.349482	-18.266926	14	14	15
-60.871605	-20.346151	-18.201477	15	14	16
-55.606968	-20.592472	-22.610394	55	52	63
-54.971809	-20.635492	-23.386194	53	54	62
-53.908604	-20.708961	-24.711548	55	57	62
-52.622097	-20.785181	-26.082787	54	58	67
-52.193123	-20.820597	-26.723375	55	57	65
-51.763077	-20.857214	-27.385948	57	56	66
-51.547291	-20.873446	-27.679163	56	55	65
-50.897060	-20.911636	-28.366100	55	55	63
-50.462524	-20.937778	-28.836552	54	56	65
-48.934780	-21.040110	-30.681627	53	54	61
-47.835964	-21.106558	-31.877510	56	56	64
-111.926987	-18.630342	15.832201	19	20	21
-111.530464	-18.630123	15.844166	19	19	21
-110.935997	-18.629890	15.860362	20	19	23
-109.767685	-18.636761	15.759005	21	22	25
-107.784470	-18.635292	15.825603	22	20	24
-107.195618	-18.637083	15.804896	22	22	24
-102.655273	-18.640968	15.825649	21	22	23
-101.664642	-18.640253	15.858585	21	22	27
-101.076645	-18.642454	15.830438	22	23	26
-99.500252	-18.644844	15.818706	23	22	25
-99.303940	-18.645462	15.811432	23	23	25
-98.683975	-18.633741	16.036877	23	22	25
-92.747963	-20.544651	-18.567791	15	15	15
-88.513229	-20.576025	-19.052694	14	14	14
-86.347580	-20.836725	-23.746441	17	15	16
-86.166466	-20.859625	-24.158911	16	15	16
-85.796616	-20.901276	-24.908329	17	15	16
-85.606743	-20.919228	-25.230721	17	15	19
-85.203445	-20.940214	-25.603973	19	16	20
-84.992615	-20.944790	-25.682867	20	18	20
-82.581001	-20.933022	-25.420525	16	12	13
-82.345711	-20.920374	-25.185966	14	12	14
-82.104156	-20.903053	-24.866354	13	12	14
-81.361961	-20.836849	-23.648369	14	11	12
-81.113190	-20.813171	-23.213127	10	11	12
-80.603912	-20.756094	-22.165678	12	9	10
-80.136230	-20.728983	-21.663630	10	9	11
-78.653625	-20.580095	-18.928288	13	13	17
-73.778038	-20.630014	-19.737303	14	15	15
-70.211243	-20.719763	-21.296385	20	20	26
-69.652634	-20.818859	-23.085869	21	18	17
-69.268257	-20.874435	-24.088068	18	17	19
-68.877930	-20.925308	-25.004622	18	17	22
-68.675690	-20.943098	-25.323833	19	18	24
-67.622452	-20.984924	-26.062696	25	21	23
-66.966743	-20.981268	-25.983040	20	18	20
-65.670799	-20.994596	-26.199163	18	17	20
-64.767403	-20.946289	-25.303169	17	15	17
-64.314835	-20.918806	-24.794682	17	16	18
-60.882607	-20.579975	-18.568527	14	14	15
-55.820820	-20.801056	-22.484077	54	55	62
-55.609268	-20.814650	-22.726826	55	54	64
-55.397751	-20.829140	-22.985891	55	54	63
-54.974316	-20.859402	-23.527281	53	55	61
-54.549728	-20.889290	-24.061844	54	57	63
-53.910576	-20.932722	-24.838203	55	57	63
-53.481812	-20.955147	-25.237064	55	56	64
-52.624378	-21.013447	-26.279213	54	57	66
-51.979355	-21.061781	-27.144529	55	54	63
-50.681046	-21.151464	-28.748108	57	54	61
-49.591618	-21.219664	-29.965481	54	55	60
-47.615494	-21.353788	-32.362965	56	56	62
-47.394543	-21.371277	-32.676289	54	55	62
-46.732323	-21.382811	-32.872578	52	53	54
-109.160027	-18.828705	15.866200	20	21	23
-108.571304	-18.830517	15.845256	19	20	23
-106.610115	-18.837151	15.764736	20	20	25
-105.814415	-18.835527	15.809789	20	22	26
-105.419296	-18.835754	15.813580	19	23	25
-104.634995	-18.838530	15.779153	21	20	24
-104.238991	-18.838404	15.789320	22	21	25
-103.245789	-18.836742	15.838964	21	21	25
-102.478691	-18.846624	15.676232	20	22	25
-100.696144	-18.845757	15.727278	23	22	28
-98.143379	-19.870934	-2.686974	27	26	25
-94.299225	-20.784721	-19.069262	16	16	19
-94.067780	-20.775862	-18.905075	18	17	22
-93.638741	-20.775951	-18.898155	20	19	23
-93.427307	-20.777647	-18.924509	20	18	19
-93.216331	-20.779602	-18.955528	19	17	19
-92.980629	-20.768187	-18.745218	17	16	17
-88.539040	-20.805420	-19.327597	12	14	14
-88.333931	-20.811234	-19.428207	11	13	13
-87.556671	-20.861794	-20.323429	13	13	14
-87.203224	-20.909891	-21.182722	16	14	20
-87.021973	-20.931488	-21.568119	18	18	24
-86.844269	-20.955568	-21.998304	21	19	22
-85.961693	-21.083925	-24.292671	17	16	17
-84.753036	-21.147144	-25.407307	20	18	25
-83.465729	-21.159945	-25.612286	16	14	16
-81.099701	-21.018944	-23.025621	12	11	13
-80.114906	-20.927719	-21.362965	11	11	14
-78.894386	-20.814697	-19.303005	12	12	13
-78.664238	-20.802246	-19.074175	13	14	17
-78.433907	-20.789473	-18.839521	14	14	14
-77.778336	-20.779062	-18.638983	14	14	14
-77.370544	-20.796194	-18.939447	14	15	15
-75.214096	-20.784140	-18.679499	14	14	15
-74.996254	-20.780809	-18.615170	14	14	16
-73.992310	-20.843678	-19.727579	14	15	16
-73.782349	-20.848145	-19.803850	14	14	14
-72.899055	-20.823956	-19.350605	13	15	16
-72.466072	-20.819864	-19.268314	15	16	16
-71.609451	-20.820858	-19.269190	15	17	18
-71.396210	-20.822063	-19.286661	17	17	21
-70.586693	-20.874329	-20.211952	20	18	18
-70.204437	-20.926935	-21.151901	21	22	27
-70.016586	-20.957676	-21.701839	25	25	29
-69.827538	-20.987671	-22.238346	25	23	24
-69.448174	-21.048016	-23.317694	19	18	22
-68.036659	-21.175694	-25.589308	21	19	21
-66.315178	-21.199793	-25.989155	18	16	21
-64.752747	-21.141010	-24.899336	18	17	21
-61.111233	-20.820896	-19.061239	15	16	14
-60.678883	-20.812811	-18.907022	14	15	16
-58.961140	-20.799860	-18.639633	15	16	16
-58.320339	-20.801701	-18.660046	15	16	16
-57.901020	-20.822762	-19.031050	19	20	18
-57.497391	-20.886900	-20.178272	27	28	32
-57.086464	-20.937120	-21.074629	47	45	55
-56.877445	-20.954039	-21.375217	50	51	58
-56.667686	-20.969666	-21.652510	51	51	61
-54.338898	-21.126894	-24.438131	55	58	65
-50.899731	-21.367367	-28.701080	55	55	61
-50.464527	-21.390205	-29.103764	57	54	62
-50.028728	-21.415621	-29.552874	53	55	62
-49.592224	-21.444040	-30.056091	53	53	60
-49.373665	-21.459496	-30.330122	52	52	60
-49.154842	-21.475151	-30.607727	53	53	63
-48.716331	-21.503248	-31.105099	53	54	61
-48.496719	-21.517736	-31.361681	53	53	62
-48.056717	-21.551128	-31.954393	55	56	65
-47.615616	-21.582455	-32.509865	53	53	61
-47.173492	-21.612394	-33.040337	50	52	54
-46.952953	-21.609341	-32.980927	51	52	54
-112.148926	-19.032761	15.684602	18	19	20
-111.568321	-19.037529	15.610879	19	20	22
-110.972069	-19.036758	15.636315	19	21	21
-110.381531	-19.038027	15.625294	21	22	22
-109.778397	-19.034697	15.696592	19	22	23
-109.174736	-19.031088	15.772854	21	20	23
-108.591621	-19.035051	15.713555	20	21	24
-107.827042	-19.045301	15.545537	21	21	22
-107.242233	-19.048811	15.494370	20	22	22
-106.632286	-19.042686	15.615701	20	21	23
-106.026619	-19.038082	15.709795	22	20	24
-105.438576	-19.040297	15.681783	19	20	24
-104.854408	-19.044077	15.625750	22	21	24
-104.258652	-19.043264	15.651947	21	21	25
-103.648308	-19.036493	15.784844	22	21	25
-103.076279	-19.045279	15.639213	21	20	23
-102.496826	-19.051155	15.545665	20	22	25
-101.897125	-19.048651	15.602169	23	23	26
-101.305717	-19.049585	15.597076	21	22	25
-100.517700	-19.051060	15.586207	24	24	28
-99.924469	-19.051205	15.595274	24	22	26
-99.332832	-19.052034	15.592075	22	23	25
-98.538063	-20.068073	-2.532944	30	29	27
-94.730644	-20.999704	-19.091799	15	15	16
-88.138664	-21.037231	-19.632401	12	12	14
-87.739822	-21.056381	-19.966473	11	11	13
-87.384003	-21.102926	-20.790533	14	14	15
-86.654831	-21.187874	-22.292906	21	21	25
-86.478226	-21.213367	-22.744600	21	19	21
-85.357002	-21.331402	-24.830006	18	16	16
-84.085075	-21.353582	-25.201057	19	18	20
-82.983231	-21.343313	-24.996082	18	15	15
-82.052193	-21.298265	-24.173513	13	12	13
-81.323860	-21.240461	-23.127140	13	11	13
-80.111275	-21.139814	-21.306376	12	12	12
-79.895378	-21.139528	-21.297028	11	11	13
-75.465225	-21.030903	-19.270620	15	14	15
-75.019249	-21.015308	-18.983456	14	15	15
-70.788147	-21.073980	-19.947916	23	20	21
-68.232849	-21.366114	-25.113607	22	21	23
-67.600266	-21.390432	-25.535378	21	19	27
-66.727455	-21.385963	-25.438435	18	18	25
-66.513771	-21.390902	-25.522404	20	18	27
-66.301109	-21.397358	-25.633511	22	20	25
-65.867050	-21.398399	-25.643595	20	19	23
-65.644470	-21.391022	-25.507488	20	18	21
-65.193031	-21.366468	-25.060257	17	17	18
-64.079346	-21.322367	-24.250996	18	16	22
-60.910763	-21.060583	-19.514816	15	15	16
-58.113495	-21.032028	-18.950090	16	17	17
-57.703892	-21.079618	-19.791737	22	22	22
-56.460323	-21.207663	-22.053452	51	54	60
-54.979969	-21.310013	-23.851805	53	56	62
-54.127949	-21.365906	-24.833008	52	56	62
-53.914543	-21.380747	-25.093765	55	55	64
-53.700630	-21.394407	-25.333488	54	56	64
-53.271816	-21.420328	-25.787851	56	56	64
-53.057575	-21.435846	-26.060699	55	56	64
-52.843277	-21.452478	-26.353477	55	56	63
-52.413101	-21.481441	-26.862148	56	57	66
-51.766834	-21.530863	-27.731831	55	58	63
-51.334961	-21.566853	-28.365929	56	56	66
-51.118263	-21.582254	-28.636662	55	55	62
-50.247623	-21.628853	-29.451555	55	55	66
-48.277210	-21.765612	-31.854576	54	54	65
-98.311096	-20.264328	-2.353797	36	38	42
-98.105698	-20.264891	-2.359766	37	38	44
-86.822273	-21.371962	-21.735838	23	22	34
-86.637184	-21.391870	-22.084650	26	24	30
-86.269173	-21.433771	-22.819126	22	21	24
-85.895020	-21.472559	-23.498402	21	18	20
-85.706177	-21.491104	-23.823009	19	18	21
-85.323486	-21.525469	-24.423820	19	17	20
-84.698975	-21.543913	-24.738155	17	16	15
-84.054306	-21.548916	-24.814215	18	16	16
-83.405861	-21.551382	-24.845293	17	15	15
-82.953835	-21.538851	-24.614721	15	14	13
-82.493736	-21.520103	-24.273991	14	13	13
-82.261856	-21.509201	-24.076504	14	13	13
-81.789024	-21.480217	-23.554340	13	12	15
-81.548630	-21.462458	-23.235346	13	13	13
-81.307312	-21.443771	-22.899931	13	13	13
-81.066605	-21.425295	-22.568214	12	12	13
-80.343819	-21.367836	-21.537178	12	11	12
-74.642517	-21.277552	-19.828617	15	14	15
-73.125610	-21.263607	-19.552376	15	15	16
-71.197540	-21.266497	-19.566153	20	21	25
-69.993446	-21.361105	-21.217339	34	32	37
-69.801445	-21.387949	-21.688742	29	28	26
-69.611229	-21.417410	-22.206520	25	24	23
-69.422554	-21.449268	-22.766727	22	22	23
-69.232353	-21.479973	-23.306499	22	20	24
-68.836555	-21.524616	-24.089014	26	22	30
-68.427963	-21.555321	-24.624550	26	24	33
-68.219444	-21.565868	-24.807196	23	22	25
-65.405266	-21.575783	-24.928114	19	19	20
-65.180183	-21.563919	-24.713762	18	17	18
-64.501625	-21.521303	-23.946299	17	18	23
-64.070511	-21.524427	-23.993238	19	17	23
-60.488682	-21.287338	-19.727360	15	15	16
-59.186909	-21.252737	-19.089674	15	15	16
-57.301037	-21.363983	-21.022146	31	33	44
-56.881989	-21.395391	-21.569939	48	49	57
-56.672306	-21.411789	-21.856106	51	52	59
-56.462433	-21.428467	-22.147242	51	52	60
-56.040607	-21.457891	-22.659853	51	51	64
-55.405605	-21.500652	-23.404400	54	55	62
-54.982197	-21.533342	-23.974796	55	55	62
-54.769447	-21.547277	-24.217325	54	54	62
-54.556305	-21.560600	-24.448992	54	57	64
-51.983974	-21.739864	-27.572025	57	58	64
-47.836563	-22.032911	-32.678471	54	56	63
-112.599457	-19.446281	15.343068	18	18	21
-105.898041	-19.459654	15.236790	21	20	23
-101.948624	-19.464712	15.223709	23	23	27
-101.751503	-19.465109	15.220496	22	23	26
-99.575859	-19.466278	15.241686	23	21	26
-94.286598	-21.419619	-18.934036	15	15	19
-93.863174	-21.422777	-18.981339	18	18	23
-88.380859	-21.482487	-19.924099	12	12	13
-87.741997	-21.486338	-19.979414	12	12	12
-87.556664	-21.505175	-20.306437	13	12	13
-87.190193	-21.546162	-21.018650	15	14	18
-86.050362	-21.647818	-22.780663	23	21	22
-84.883080	-21.737690	-24.335358	23	19	19
-84.670578	-21.740862	-24.386938	20	18	21
-83.148270	-21.738937	-24.324018	18	15	17
-80.111786	-21.569946	-21.300402	12	11	12
-79.877594	-21.555191	-21.036987	12	12	10
-75.505028	-21.494947	-19.896059	14	15	14
-75.063576	-21.483847	-19.692833	14	15	16
-74.447922	-21.510784	-20.153730	15	13	15
-74.229706	-21.507565	-20.093029	14	14	15
-73.782509	-21.490440	-19.783997	14	14	15
-73.124886	-21.476801	-19.532032	15	15	15
-72.910133	-21.476580	-19.524052	15	15	16
-72.474960	-21.470293	-19.405373	16	16	17
-71.831863	-21.470598	-19.398430	18	17	21
-71.202896	-21.486200	-19.660149	21	23	30
-70.590111	-21.520718	-20.254128	31	32	39
-70.181580	-21.544823	-20.669300	41	39	51
-69.405571	-21.644554	-22.404507	24	23	26
-68.815521	-21.714949	-23.628481	24	20	24
-67.568214	-21.782034	-24.781776	22	22	29
-66.918968	-21.784412	-24.811089	20	21	23
-66.483948	-21.783026	-24.778418	21	22	24
-65.166580	-21.759924	-24.347788	19	18	20
-64.491585	-21.721609	-23.662527	19	20	27
-64.056854	-21.718561	-23.600708	20	19	24
-61.133392	-21.503759	-19.775375	15	16	16
-60.924557	-21.514803	-19.965174	16	14	17
-60.278351	-21.509422	-19.858376	15	15	16
-59.198986	-21.493439	-19.557211	15	15	16
-58.984249	-21.492455	-19.535812	16	16	15
-58.768753	-21.489622	-19.481974	16	16	16
-58.551872	-21.483311	-19.367075	15	16	16
-57.917629	-21.504856	-19.733025	18	18	19
-57.714230	-21.533762	-20.236355	21	21	22
-55.618855	-21.705811	-23.215286	52	53	60
-51.337070	-22.015764	-28.572317	55	56	67
-50.249538	-22.082872	-29.729086	54	53	63
-49.812836	-22.107744	-30.157145	52	53	60
-49.156528	-22.153496	-30.947426	54	55	61
-48.937252	-22.168818	-31.212107	56	54	62
-48.497982	-22.204901	-31.836870	52	56	64
-111.640099	-19.654972	15.165599	19	20	20
-110.826752	-19.647434	15.312119	19	21	23
-110.419083	-19.643211	15.393330	21	22	20
-109.434395	-19.645403	15.373836	21	19	22
-109.230927	-19.643372	15.413032	19	20	23
-108.672966	-19.657240	15.182295	21	22	23
-108.270134	-19.654747	15.233285	21	22	23
-108.068535	-19.653414	15.260296	20	21	23
-107.872528	-19.654242	15.249622	21	20	23
-106.495674	-19.658199	15.206796	22	20	23
-105.929695	-19.669588	15.019379	22	20	23
-105.521416	-19.664803	15.110355	20	22	24
-105.097321	-19.653513	15.314815	21	21	21
-104.503052	-19.653463	15.326924	22	21	25
-104.308517	-19.654909	15.305450	21	22	26
-103.510895	-19.652624	15.360294	23	22	26
-103.115852	-19.653028	15.360738	21	21	25
-101.972366	-19.672159	15.049554	21	23	25
-101.777283	-19.673475	15.030341	21	23	26
-100.961433	-19.663242	15.223801	21	24	25
-100.758812	-19.661224	15.262765	21	23	23
-100.560493	-19.661085	15.268932	21	23	23
-99.589317	-19.669544	15.140157	23	23	26
-99.391945	-19.669846	15.138628	23	22	25
-88.809998	-21.696234	-19.917437	13	14	15
-88.404297	-21.711449	-20.174480	13	13	14
-86.604103	-21.800716	-21.693554	23	23	33
-86.028130	-21.848581	-22.515434	22	22	23
-85.258827	-21.914040	-23.639761	21	19	20
-84.215416	-21.942482	-24.114876	23	19	21
-82.887627	-21.923382	-23.757412	19	17	19
-81.271133	-21.847372	-22.404335	14	14	15
-80.581291	-21.814857	-21.825571	13	12	13
-74.674454	-21.736124	-20.343927	15	15	15
-71.628899	-21.696754	-19.601301	19	19	25
-68.792793	-21.902735	-23.131393	22	20	21
-67.550079	-21.974514	-24.356733	26	28	38
-66.687630	-21.981010	-24.453447	21	20	19
-66.470085	-21.980015	-24.432014	21	20	20
-66.034203	-21.976799	-24.367792	22	22	28
-65.595047	-21.968599	-24.216835	21	21	27
-64.929153	-21.944548	-23.785757	21	19	26
-58.129276	-21.711372	-19.600138	18	18	17
-56.256195	-21.886662	-22.614452	51	51	59
-54.347111	-22.021967	-24.932455	54	54	61
-54.134010	-22.038160	-25.210152	56	54	63
-53.062901	-22.110935	-26.456059	55	56	65
-52.203293	-22.179680	-27.635874	58	58	61
-51.120998	-22.253742	-28.903952	55	56	62
-50.686554	-22.285450	-29.447426	56	58	62
-49.594952	-22.348206	-30.518599	53	54	61
-48.718216	-22.413429	-31.636824	56	56	62
-112.247742	-19.856987	15.076856	22	21	23
-111.053078	-19.855125	15.131324	20	21	21
-110.454292	-19.853600	15.168842	20	20	22
-109.671150	-19.857273	15.120119	21	19	24
-107.307564	-19.863098	15.063823	22	23	25
-104.322815	-19.858053	15.206680	21	22	24
-103.737648	-19.861874	15.151720	21	23	26
-103.137474	-19.859381	15.205950	21	22	26
-100.580650	-19.867262	15.117793	21	23	24
-98.508240	-20.877100	-2.265040	35	33	34
-98.102119	-20.880482	-2.315771	34	34	39
-87.161163	-21.956802	-20.679716	15	14	15
-86.403107	-22.025734	-21.854753	23	23	32
-85.815544	-22.066561	-22.548092	23	21	23
-85.621788	-22.081911	-22.809273	23	21	27
-85.025368	-22.118483	-23.429047	23	21	23
-84.815636	-22.123312	-23.508465	21	20	20
-83.970741	-22.138912	-23.761799	21	18	18
-83.524200	-22.129505	-23.591162	19	18	17
-82.180069	-22.096350	-22.994026	17	14	16
-81.481544	-22.058434	-22.326820	17	16	16
-81.023933	-22.038584	-21.975834	15	15	16
-78.450104	-21.871241	-19.040712	15	15	14
-78.225662	-21.862749	-18.890024	13	16	16
-76.125679	-21.901709	-19.522881	14	14	14
-75.699265	-21.904242	-19.558605	13	14	14
-75.311913	-21.943472	-20.228140	14	15	15
-70.802238	-21.946077	-20.188757	41	40	59
-69.772354	-21.998245	-21.069510	47	45	57
-69.373016	-22.035757	-21.709185	30	29	30
-68.771370	-22.091660	-22.662346	22	21	23
-68.175751	-22.158873	-23.810762	100	43	27
-67.103714	-22.173292	-24.039484	27	27	30
-65.580452	-22.163063	-23.834526	25	24	31
-65.359863	-22.156963	-23.725163	26	25	31
-65.138306	-22.149240	-23.587778	23	21	25
-64.253670	-22.118696	-23.044304	19	18	21
-64.037262	-22.118195	-23.031603	19	18	21
-57.103733	-22.056765	-21.842161	45	43	54
-56.469635	-22.094154	-22.475349	49	49	61
-56.258587	-22.108938	-22.726431	51	52	59
-55.623337	-22.151041	-23.440908	53	52	61
-55.411762	-22.167343	-23.718201	54	54	60
-55.200333	-22.185181	-24.021971	55	54	61
-54.349461	-22.247276	-25.077312	55	54	61
-53.923145	-22.281298	-25.656288	54	56	63
-53.494694	-22.310375	-26.149927	53	53	63
-53.279747	-22.323084	-26.365149	54	57	65
-52.849930	-22.352390	-26.862705	55	56	66
-51.989326	-22.424252	-28.086348	56	56	64
-51.338909	-22.462866	-28.740339	55	55	62
-50.251221	-22.534412	-29.954319	52	56	66
-49.376801	-22.591042	-30.914909	56	54	61
-49.157734	-22.608511	-31.212210	53	54	63
-48.718685	-22.641117	-31.766523	56	57	63
-48.058102	-22.688763	-32.576122	58	60	63
-104.514603	-20.052671	15.252175	20	21	22
-97.918373	-21.097506	-2.500517	27	26	30
-88.602638	-22.129612	-19.985172	14	14	14
-88.403519	-22.139746	-20.154861	13	14	13
-87.548347	-22.143114	-20.196693	13	13	15
-87.153526	-22.166405	-20.587851	15	14	15
-86.963181	-22.182917	-20.866817	16	16	16
-85.203537	-22.307619	-22.967644	25	24	33
-84.785316	-22.317919	-23.136129	26	25	33
-83.046623	-22.312799	-23.016418	19	17	21
-82.827599	-22.310843	-22.978886	20	18	21
-81.924438	-22.282066	-22.469921	18	17	20
-81.236092	-22.250896	-21.923954	16	15	16
-81.009850	-22.242743	-21.780283	15	14	16
-80.548523	-22.219065	-21.366661	14	13	14
-80.311287	-22.201721	-21.065598	13	12	12
-78.441528	-22.077734	-18.909904	13	14	16
-78.230019	-22.080122	-18.946880	13	15	15
-75.694481	-22.113743	-19.475172	13	14	15
-75.112335	-22.172365	-20.467318	14	16	15
-74.899803	-22.174761	-20.504362	14	15	16
-74.037025	-22.172123	-20.443289	14	16	15
-73.826668	-22.176767	-20.518852	14	15	15
-72.701614	-22.124525	-19.604347	14	15	15
-72.485138	-22.122513	-19.565928	14	16	16
-71.646942	-22.144302	-19.923193	20	20	22
-71.225037	-22.152643	-20.058096	27	27	38
-71.014847	-22.157776	-20.142017	35	35	55
-70.389954	-22.180311	-20.515987	48	47	60
-70.182068	-22.188583	-20.653667	48	48	69
-69.564171	-22.221308	-21.202072	45	45	50
-68.958969	-22.271759	-22.054007	24	23	24
-68.161438	-22.356228	-23.484304	93	42	50
-67.738396	-22.369081	-23.696392	31	26	30
-67.086655	-22.365902	-23.629967	27	26	29
-66.444733	-22.376352	-23.796864	23	22	24
-60.497692	-22.160599	-19.995966	15	14	15
-58.137211	-22.158653	-19.919064	17	17	18
-57.928970	-22.175112	-20.196777	17	17	18
-57.523361	-22.240307	-21.304598	24	24	30
-57.108620	-22.285303	-22.066740	46	44	53
-56.049728	-22.346527	-23.094551	53	53	60
-52.637085	-22.597315	-27.321871	56	55	64
-52.422241	-22.616903	-27.652998	55	57	61
-51.990788	-22.650488	-28.219582	55	57	64
-51.774288	-22.664637	-28.457634	56	55	66
-51.340080	-22.688637	-28.860182	54	55	63
-51.122746	-22.701176	-29.070692	57	57	62
-50.905510	-22.716692	-29.332113	55	54	62
-50.470306	-22.748005	-29.859745	52	56	63
-50.252087	-22.760656	-30.072157	52	56	62
-50.033649	-22.773182	-30.282396	57	56	65
-49.596375	-22.802124	-30.769444	54	55	61
-136.020935	-22.923290	-30.674891	14	16	17
-112.495285	-20.269896	14.771232	18	18	21
-112.105560	-20.272543	14.733418	20	20	22
-111.490143	-20.265003	14.872578	20	21	21
-110.904282	-20.268492	14.824112	20	21	22
-110.331619	-20.277075	14.688924	21	21	22
-109.703217	-20.264294	14.917252	20	21	22
-109.084045	-20.254839	15.088964	21	19	23
-108.523674	-20.268326	14.870378	20	20	22
-107.926720	-20.267523	14.894906	19	22	23
-107.360779	-20.279135	14.708241	19	20	24
-106.756432	-20.275387	14.782850	19	20	23
-106.164413	-20.276596	14.773148	20	22	23
-105.562401	-20.273672	14.833732	20	21	23
-104.909721	-20.249472	15.256239	19	20	25
-104.710953	-20.249176	15.264882	20	21	25
-104.340469	-20.260012	15.087808	22	21	23
-103.586517	-20.276556	14.820903	21	22	25
-102.975731	-20.269604	14.949986	24	23	25
-102.361183	-20.260832	15.110050	21	23	26
-101.802887	-20.276773	14.849788	23	21	23
-101.222130	-20.282986	14.754990	23	22	26
-100.621735	-20.280418	14.809511	21	21	23
-100.008545	-20.271906	14.965112	21	21	24
-99.429291	-20.278913	14.856822	21	23	25
-98.818695	-20.271358	14.996145	22	22	24
-98.739784	-21.300840	-2.468253	25	23	25
-94.740540	-21.371431	-3.592840	20	19	21
-94.171021	-22.330553	-19.854559	18	16	21
-93.953461	-22.329134	-19.826515	20	18	23
-88.394165	-22.348120	-20.047129	11	14	13
-85.980629	-22.462505	-21.943680	24	22	29
-85.382942	-22.497490	-22.526289	28	28	26
-84.131439	-22.530512	-23.063694	23	22	25
-79.850815	-22.392204	-20.639057	11	11	11
-79.378746	-22.357639	-20.044001	12	11	11
-79.150246	-22.346273	-19.847017	12	12	13
-76.782036	-22.340982	-19.714010	14	14	16
-76.130112	-22.333689	-19.578367	13	14	15
-75.499725	-22.346378	-19.782122	14	16	15
-73.164764	-22.373697	-20.202988	16	16	16
-68.947647	-22.472639	-21.804605	28	25	25
-65.337990	-22.555239	-23.140026	22	21	22
-65.115944	-22.546179	-22.982286	21	20	24
-64.668587	-22.522173	-22.566837	21	21	23
-64.014473	-22.511467	-22.373247	18	18	21
-61.371716	-22.405430	-20.526014	14	15	16
-60.936104	-22.393278	-20.311892	15	16	16
-60.284676	-22.377607	-20.034145	15	15	17
-57.526676	-22.463701	-21.444408	23	23	30
-55.841564	-22.588095	-23.524069	51	52	59
-55.630157	-22.604942	-23.806034	53	54	59
-55.418339	-22.621296	-24.079618	51	54	59
-54.992970	-22.650389	-24.565439	53	55	61
-54.779720	-22.664083	-24.793879	53	54	63
-54.566822	-22.680149	-25.062544	52	54	63
-54.141396	-22.717390	-25.686590	53	53	62
-53.498306	-22.759930	-26.396568	53	54	65
-53.067848	-22.785141	-26.816423	55	55	62
-52.638844	-22.823839	-27.465149	55	55	63
-136.463867	-23.143373	-30.683531	13	15	18
-135.967819	-23.127008	-30.399216	15	15	17
-99.201576	-21.530481	-2.872521	20	20	22
-98.760139	-21.516743	-2.633397	22	21	23
-98.148613	-21.521021	-2.694358	22	22	26
-95.313652	-21.552174	-3.167367	24	25	25
-93.318993	-22.549501	-19.912508	19	17	18
-87.747353	-22.561317	-20.010769	14	13	15
-87.155861	-22.597137	-20.602821	13	14	16
-86.970360	-22.617188	-20.936840	15	17	18
-86.576439	-22.642353	-21.353159	19	16	21
-86.370125	-22.648741	-21.456919	20	18	20
-85.967155	-22.668413	-21.780647	19	20	23
-85.768944	-22.680687	-21.983606	22	20	32
-85.363762	-22.699495	-22.292751	27	25	37
-84.734764	-22.713287	-22.513464	26	25	26
-84.311752	-22.720062	-22.619846	22	22	24
-84.103722	-22.726044	-22.716742	22	21	24
-83.449738	-22.722183	-22.639967	22	21	22
-83.012581	-22.718634	-22.572350	21	19	20
-82.795837	-22.718204	-22.561232	20	19	21
-82.345947	-22.704742	-22.326591	20	20	21
-81.654457	-22.670849	-21.743826	20	19	20
-80.987923	-22.655468	-21.472980	17	16	19
-80.758194	-22.644135	-21.278160	17	14	17
-80.520973	-22.626596	-20.978764	15	12	14
-80.282372	-22.607697	-20.656443	12	11	11
-79.839081	-22.597061	-20.469509	11	11	11
-76.986511	-22.545799	-19.555487	13	14	15
-75.103256	-22.592333	-20.304482	14	15	14
-74.890732	-22.594696	-20.340439	15	13	15
-74.264069	-22.612906	-20.635519	14	15	14
-73.836159	-22.615210	-20.666544	15	15	14
-73.173698	-22.597261	-20.352619	15	15	17
-72.533813	-22.602510	-20.429390	16	15	18
-71.872993	-22.584934	-20.121714	17	16	18
-71.226326	-22.582340	-20.066397	25	24	28
-71.016724	-22.588234	-20.161776	30	30	45
-70.600708	-22.604063	-20.420631	48	49	72
-69.976959	-22.629257	-20.833279	49	48	56
-69.558014	-22.643057	-21.057930	42	38	49
-69.144630	-22.664343	-21.408627	32	31	35
-68.939919	-22.677809	-21.631510	28	26	30
-68.532486	-22.708139	-22.134514	25	24	27
-68.336845	-22.734304	-22.571218	27	26	30
-68.140381	-22.759945	-22.999100	32	28	31
-67.935074	-22.774364	-23.238016	34	30	39
-67.716042	-22.770626	-23.171164	36	35	73
-66.845810	-22.763037	-23.027761	32	32	36
-66.418457	-22.770119	-23.139221	30	27	33
-65.766235	-22.764599	-23.034575	24	22	25
-65.106262	-22.746550	-22.718964	22	20	23
-64.882973	-22.735014	-22.520844	21	19	23
-64.658897	-22.721912	-22.296356	20	19	22
-64.003319	-22.708021	-22.050785	19	18	22
-61.372494	-22.621017	-20.539389	14	14	16
-60.943249	-22.621847	-20.545609	15	14	16
-60.286449	-22.595186	-20.085163	14	16	16
-58.798023	-22.628679	-20.621866	15	16	16
-58.573822	-22.605064	-20.220453	17	15	17
-58.352932	-22.588957	-19.945452	16	16	17
-57.930882	-22.607536	-20.250452	20	19	17
-57.730858	-22.647650	-20.921810	21	21	22
-57.529480	-22.685791	-21.559921	25	25	28
-57.325607	-22.718555	-22.107540	33	32	46
-56.691845	-22.758186	-22.762943	49	53	60
-53.715225	-22.972801	-26.320374	54	56	60
-50.254059	-23.216717	-30.362040	53	53	60
-49.816906	-23.245638	-30.840797	54	54	59
-49.378868	-23.275572	-31.336569	54	54	60
-48.499653	-23.311235	-31.920755	61	63	68
-136.076645	-23.312534	-29.827278	14	15	17
-135.880997	-23.320162	-29.951101	15	16	17
-135.179886	-23.308107	-29.737427	14	15	16
-111.946571	-20.682537	14.494420	20	22	21
-111.538849	-20.678482	14.569363	20	22	23
-110.953659	-20.682446	14.513643	20	22	23
-107.592087	-20.687557	14.488295	21	22	25
-107.187759	-20.684530	14.545992	21	22	23
-103.426010	-20.687927	14.556385	23	21	25
-100.653374	-20.689833	14.574036	21	23	26
-99.267075	-20.690695	14.584368	23	24	27
-97.537842	-21.731747	-2.758679	24	25	30
-94.958939	-21.790253	-3.689070	19	19	22
-94.568405	-21.803205	-3.898287	18	18	19
-94.412323	-22.774048	-20.097660	16	15	19
-93.978409	-22.771978	-20.055378	19	18	20
-93.320503	-22.764690	-19.922012	18	17	18
-88.172890	-22.772682	-19.963608	13	13	13
-87.740303	-22.770943	-19.926846	11	14	15
-87.338524	-22.789833	-20.234951	14	14	16
-84.074768	-22.920330	-22.354601	25	23	23
-82.096085	-22.893812	-21.876738	21	19	21
-79.170799	-22.791986	-20.125256	13	13	13
-76.790764	-22.777088	-19.834162	17	14	15
-76.600540	-22.799776	-20.209414	14	14	14
-76.158073	-22.787899	-20.003292	14	14	15
-75.497482	-22.772333	-19.731756	15	16	15
-71.879784	-22.806631	-20.239639	17	16	20
-65.317017	-22.953770	-22.578163	22	20	22
-63.993774	-22.906961	-21.773392	19	18	20
-59.458466	-22.880011	-21.242739	15	15	16
-59.026020	-22.874712	-21.146626	16	16	16
-56.905926	-22.967606	-22.659094	48	50	57
-56.272503	-23.013428	-23.412506	50	50	59
-53.286259	-23.220615	-26.816969	55	54	64
-52.856125	-23.251663	-27.327454	53	56	61
-52.641602	-23.272709	-27.674828	54	55	64
-51.994762	-23.327070	-28.570522	55	57	63
-51.778179	-23.342243	-28.819881	54	55	63
-51.126476	-23.383181	-29.491463	55	55	63
-50.691116	-23.412540	-29.973684	55	56	64
-49.598812	-23.489792	-31.243435	54	54	61
-134.669403	-23.505800	-29.365978	13	15	16
-111.961678	-20.885948	14.402413	18	19	22
-111.552635	-20.881382	14.485228	20	20	22
-110.756172	-20.880470	14.514355	21	21	23
-110.129509	-20.868223	14.728112	19	19	23
-109.540131	-20.870523	14.700424	20	21	24
-109.149406	-20.872946	14.667211	22	22	24
-108.365433	-20.876844	14.616499	21	22	24
-107.982796	-20.882631	14.527446	21	21	23
-107.203476	-20.888609	14.442232	22	23	23
-106.790352	-20.881893	14.560688	22	20	24
-105.792320	-20.879366	14.620104	21	21	24
-105.380547	-20.872967	14.733283	20	21	25
-104.413757	-20.883686	14.572878	22	22	27
-104.223999	-20.887434	14.514177	22	23	25
-103.447311	-20.894886	14.404530	22	21	24
-103.040886	-20.890644	14.481907	21	23	24
-102.204674	-20.871418	14.814916	23	21	26
-101.810898	-20.872627	14.801830	22	23	25
-101.062744	-20.893236	14.473866	21	20	26
-100.669479	-20.894844	14.454159	21	23	25
-99.868103	-20.891113	14.530056	23	23	27
-99.285591	-20.897051	14.442028	23	23	26
-98.641594	-20.873423	14.844513	20	22	22
-99.225616	-21.954538	-3.062232	23	21	41
-98.606422	-21.955299	-3.063925	19	17	18
-98.197418	-21.957737	-3.097050	20	20	20
-94.780373	-22.012295	-3.939964	19	18	21
-94.580009	-22.016088	-3.999235	18	18	17
-94.430916	-22.999102	-20.269115	16	16	19
-81.193832	-23.077562	-21.334629	14	15	15
-79.210922	-23.040579	-20.687479	13	15	14
-67.468201	-23.157974	-22.423851	41	40	52
-67.032280	-23.151981	-22.316963	32	31	31
-66.391518	-23.161642	-22.465586	23	22	23
-64.643013	-23.126259	-21.849049	21	21	23
-60.290768	-23.032181	-20.215023	16	15	16
-56.275917	-23.239752	-23.580330	51	50	58
-55.850349	-23.263887	-23.972364	52	52	59
-55.424072	-23.288202	-24.367355	52	54	59
-54.998348	-23.317732	-24.848671	53	56	60
-54.573551	-23.355116	-25.460039	53	54	61
-54.360489	-23.372858	-25.749985	54	56	60
-54.146866	-23.389334	-26.018953	54	54	61
-53.932659	-23.404299	-26.262882	54	55	64
-53.287899	-23.445351	-26.931076	55	55	64
-50.256275	-23.676565	-30.705109	55	57	63
-135.937363	-23.708191	-29.108646	14	16	17
-135.060944	-23.709593	-29.116411	14	16	19
-134.847809	-23.711817	-29.149221	14	15	17
-112.524872	-21.071207	14.600469	18	19	22
-110.347672	-21.073549	14.599916	19	21	22
-109.578613	-21.083447	14.450792	21	21	23
-109.186455	-21.085407	14.425437	21	22	25
-105.408211	-21.082331	14.541774	21	23	25
-102.437485	-21.084507	14.557766	22	23	25
-101.638748	-21.082033	14.612303	21	22	23
-98.629074	-22.172951	-3.248975	20	19	29
-98.221100	-22.176022	-3.292298	23	23	17
-94.230392	-23.222126	-20.400612	17	17	19
-93.550018	-23.201822	-20.055372	19	18	19
-93.338615	-23.204018	-20.087738	17	17	18
-87.340561	-23.220047	-20.246489	12	15	17
-87.142670	-23.231861	-20.437019	15	16	18
-86.338158	-23.271313	-21.070829	17	18	19
-85.927071	-23.285427	-21.295460	19	17	20
-85.725906	-23.295727	-21.461063	19	17	22
-85.103058	-23.313267	-21.738239	23	23	24
-84.676979	-23.317318	-21.797346	25	25	31
-83.824142	-23.325159	-21.911242	25	24	27
-83.186874	-23.333061	-22.029909	22	21	24
-82.751289	-23.330133	-21.974239	22	20	22
-82.295860	-23.311522	-21.660681	20	18	18
-81.408173	-23.291479	-21.316124	14	16	16
-80.959450	-23.277054	-21.071424	14	15	14
-80.067291	-23.251410	-20.634789	12	12	12
-79.843781	-23.244371	-20.515335	12	13	13
-78.994423	-23.253988	-20.658430	14	14	14
-78.545555	-23.237673	-20.382700	13	14	14
-76.168411	-23.226110	-20.151440	13	13	15
-75.326820	-23.243744	-20.426352	14	15	15
-74.892593	-23.239504	-20.349140	15	14	16
-72.987335	-23.270964	-20.832563	15	16	15
-72.553040	-23.266588	-20.753155	15	16	16
-71.678848	-23.250908	-20.480421	19	18	20
-71.246704	-23.248329	-20.430550	22	23	25
-70.394653	-23.257561	-20.567322	39	38	50
-69.771080	-23.284098	-20.992205	27	27	27
-69.347832	-23.293106	-21.132767	26	25	27
-68.927269	-23.305943	-21.336208	26	25	26
-68.717766	-23.313568	-21.457796	26	24	25
-67.901131	-23.374832	-22.449554	31	31	58
-67.682152	-23.370535	-22.375185	39	40	76
-66.808746	-23.355919	-22.119972	28	28	29
-66.379723	-23.359386	-22.169445	27	24	28
-65.513885	-23.354654	-22.076637	23	23	30
-65.295326	-23.350082	-21.997766	24	25	26
-64.858017	-23.340239	-21.828495	21	22	21
-64.415245	-23.320807	-21.501705	17	17	17
-63.980011	-23.313076	-21.367193	15	15	13
-63.762959	-23.310015	-21.313126	14	14	14
-60.508236	-23.252127	-20.305882	14	15	16
-60.291882	-23.248461	-20.241919	15	15	16
-59.025730	-23.302366	-21.105036	15	16	16
-58.153099	-23.268982	-20.541618	16	17	18
-57.942482	-23.280422	-20.725807	19	21	18
-57.535603	-23.346169	-21.798336	25	26	33
-57.330688	-23.377008	-22.301188	34	33	48
-57.121605	-23.396738	-22.621510	45	43	54
-51.997189	-23.777090	-28.777937	55	56	63
-51.346809	-23.826895	-29.584450	57	56	65
-51.129120	-23.839983	-29.795567	58	57	64
-50.911259	-23.853403	-30.012146	56	55	63
-50.475544	-23.888002	-30.572683	54	55	62
-50.038780	-23.923227	-31.143501	56	57	65
-49.380245	-23.945007	-31.489689	62	62	67
-136.123154	-23.916517	-28.933283	16	15	20
-135.891846	-23.913031	-28.872511	16	16	19
-135.434631	-23.907694	-28.777714	16	16	18
-134.777176	-23.908545	-28.780230	14	15	16
-133.872345	-23.900660	-28.636211	15	15	17
