-98.325218	-23.298822	11.031857	28	28	33
-98.119049	-23.295494	11.085647	29	29	33
-96.057426	-24.424444	-6.042656	30	27	37
-95.642532	-24.425417	-6.050982	28	27	27
-94.611382	-24.431532	-6.127922	24	26	33
-94.406189	-24.433407	-6.153225	24	25	32
-93.959808	-25.605959	-23.969391	39	40	55
-82.701469	-25.622152	-24.040619	16	17	17
-82.245796	-25.603397	-23.748472	16	16	17
-80.960213	-25.616392	-23.926029	17	17	17
-78.172882	-25.645981	-24.332478	21	19	21
-77.736938	-25.643936	-24.294634	20	19	20
-76.429749	-25.637959	-24.183464	19	18	20
-76.208870	-25.633760	-24.116219	19	19	20
-75.353714	-25.646654	-24.298904	19	20	22
-74.915474	-25.641758	-24.217674	19	19	19
-74.049843	-25.643637	-24.232800	19	17	20
-73.824501	-25.633953	-24.082109	18	17	20
-73.600464	-25.625603	-23.951685	17	16	20
-72.970047	-25.648676	-24.292610	18	16	19
-72.107933	-25.655020	-24.375664	21	18	21
-71.675896	-25.657118	-24.400846	21	21	22
-71.240486	-25.655001	-24.361883	19	19	20
-70.367363	-25.647409	-24.232933	20	21	25
-70.152283	-25.649654	-24.263721	19	20	23
-69.281624	-25.644722	-24.175234	21	20	24
-68.843788	-25.638523	-24.074207	21	21	23
-67.780838	-25.668814	-24.518116	21	19	21
-67.334976	-25.650343	-24.230423	21	20	21
-66.899788	-25.647612	-24.182159	19	19	19
-66.453194	-25.626524	-23.854683	19	18	20
-65.604088	-25.654936	-24.273346	18	18	19
-65.175056	-25.662476	-24.381296	18	18	19
-64.319504	-25.683233	-24.683527	18	18	18
-63.881378	-25.675165	-24.554090	17	18	19
-63.224796	-25.663286	-24.363302	19	18	18
-62.792362	-25.665300	-24.387205	20	18	20
-61.913815	-25.640497	-23.996552	20	20	21
-61.478230	-25.634912	-23.904881	20	20	22
-60.416805	-25.684841	-24.647322	19	18	19
-59.540905	-25.662558	-24.295013	20	19	20
-59.110096	-25.669125	-24.388145	19	19	20
-58.679794	-25.677580	-24.509989	19	18	20
-58.249630	-25.687122	-24.648344	21	20	21
-57.818417	-25.694265	-24.750216	20	22	23
-57.391422	-25.715454	-25.065666	27	28	31
-56.766983	-25.806145	-26.434475	45	46	54
-56.555416	-25.827473	-26.755384	48	52	59
-55.061985	-25.960772	-28.758352	52	51	62
-54.415424	-26.006725	-29.446825	52	52	61
-54.200794	-26.028631	-29.776463	54	52	63
-138.690872	-25.797596	-24.279381	21	21	25
-137.132690	-25.786596	-24.089468	20	18	23
-135.839783	-25.791054	-24.136873	18	19	25
-135.213837	-25.800207	-24.265347	19	18	22
-134.805115	-25.809280	-24.395987	19	18	23
-133.714157	-25.808653	-24.369759	19	18	23
-133.502060	-25.810610	-24.396013	20	20	22
-132.607071	-25.802366	-24.257896	21	17	23
-132.383453	-25.800325	-24.223661	21	20	23
-131.087265	-25.803864	-24.257122	21	19	22
-130.249054	-25.815500	-24.419827	19	21	23
-129.801117	-25.811054	-24.345873	19	18	22
-128.940002	-25.814604	-24.386202	20	20	23
-128.526703	-25.822691	-24.501881	19	19	24
-127.871651	-25.822067	-24.482386	21	20	24
-111.694572	-23.481756	11.076944	26	26	29
-106.117859	-23.493696	10.982470	26	29	32
-105.524864	-23.497133	10.939709	27	30	34
-100.847221	-23.458210	11.598840	24	24	28
-98.746429	-23.509426	10.858361	30	28	33
-98.140244	-23.506165	10.916881	29	29	33
-96.473930	-24.631975	-6.043860	24	23	34
-96.071274	-24.640142	-6.160895	34	29	38
-95.657578	-24.641893	-6.180958	28	27	27
-93.746552	-25.824650	-23.997158	44	46	64
-93.293732	-25.812437	-23.805931	67	64	107
-93.074043	-25.810623	-23.775185	69	66	92
-82.485458	-25.839087	-24.041988	16	17	18
-82.259483	-25.831240	-23.920126	17	17	17
-81.412987	-25.849495	-24.182543	17	17	16
-80.959625	-25.832001	-23.911627	17	17	17
-80.338013	-25.858202	-24.297403	20	18	18
-79.494987	-25.881426	-24.634869	22	21	23
-79.057671	-25.878462	-24.583424	23	22	24
-77.540489	-25.880686	-24.593683	20	19	22
-77.327324	-25.884605	-24.649549	19	21	23
-76.888733	-25.880062	-24.574272	20	20	21
-76.015793	-25.874960	-24.483862	21	19	19
-74.496803	-25.874674	-24.456228	20	20	19
-74.067566	-25.879944	-24.529129	19	20	20
-73.196358	-25.875996	-24.456182	18	20	18
-72.555664	-25.888117	-24.629227	19	20	22
-71.680840	-25.879519	-24.486048	22	22	25
-71.245064	-25.877024	-24.441715	22	21	23
-70.164864	-25.882599	-24.509254	21	22	23
-67.567154	-25.889824	-24.578350	22	22	22
-66.911736	-25.882364	-24.455744	21	20	19
-66.464722	-25.860870	-24.124567	21	19	20
-65.612030	-25.884329	-24.465397	20	19	20
-65.186546	-25.898396	-24.671122	20	18	19
-63.012482	-25.887962	-24.480289	20	19	20
-62.797760	-25.892101	-24.539440	19	19	21
-60.845215	-25.888603	-24.456688	20	20	19
-59.766445	-25.900921	-24.625942	21	20	21
-57.189072	-25.979313	-25.769142	32	34	41
-56.347141	-26.078606	-27.254345	52	51	61
-54.203575	-26.260033	-29.958828	53	53	63
-53.555977	-26.317783	-30.820221	55	52	63
-53.120724	-26.343344	-31.199184	55	55	61
-52.903385	-26.359730	-31.443094	54	56	60
-52.469215	-26.401037	-32.059666	57	56	64
-52.032333	-26.430449	-32.496716	63	63	70
-51.812222	-26.433910	-32.545551	67	67	76
-139.489258	-25.990755	-23.935003	26	24	29
-137.074615	-25.983961	-23.796589	19	19	23
-136.650421	-25.987606	-23.844725	18	18	23
-131.669189	-25.995380	-23.885494	19	20	23
-130.408051	-26.011154	-24.102585	18	19	23
-128.655289	-26.006771	-24.010311	19	19	24
-128.042770	-26.021589	-24.222946	20	20	25
-127.383942	-26.019384	-24.179916	22	22	25
-111.510254	-23.687851	10.981954	28	26	29
-108.120522	-23.693653	10.946548	26	27	30
-107.915634	-23.691500	10.981916	26	26	30
-106.717690	-23.692785	10.980856	26	26	33
-104.724602	-23.696550	10.954723	26	28	32
-99.133675	-23.701893	10.959649	30	28	31
-96.490982	-24.849543	-6.189242	28	27	39
-82.519379	-26.084522	-24.474009	19	19	19
-82.298714	-26.081406	-24.423960	18	19	18
-81.443420	-26.092836	-24.582193	20	18	18
-80.346893	-26.082672	-24.413298	21	19	18
-78.621986	-26.093384	-24.547520	24	22	23
-75.602737	-26.113855	-24.808266	23	22	22
-73.651665	-26.117233	-24.829216	21	22	20
-70.613907	-26.118967	-24.809044	23	24	24
-69.525414	-26.114408	-24.724230	24	25	25
-68.864449	-26.100100	-24.499891	26	24	25
-66.481766	-26.104418	-24.528358	22	22	20
-65.417427	-26.138639	-25.024752	24	22	21
-65.202232	-26.141922	-25.070662	24	21	21
-62.160831	-26.136662	-24.945656	22	21	22
-61.495674	-26.105030	-24.461803	22	21	21
-60.429840	-26.148302	-25.093719	21	22	21
-60.213959	-26.151152	-25.133099	23	23	21
-58.912407	-26.153065	-25.142002	22	23	22
-58.477581	-26.150885	-25.102730	23	21	23
-56.989426	-26.255358	-26.644894	39	42	51
-56.778900	-26.280449	-27.017500	48	48	54
-56.565392	-26.296196	-27.250088	51	50	62
-56.135704	-26.320166	-27.602583	52	50	59
-55.493656	-26.371571	-28.362762	52	51	61
-55.280609	-26.394899	-28.708931	50	52	61
-54.851883	-26.434206	-29.291134	54	52	62
-54.636154	-26.449488	-29.516733	51	52	59
-53.775448	-26.534298	-30.773918	54	54	61
-52.688118	-26.609571	-31.884804	56	54	62
-139.217194	-26.189569	-23.663565	23	22	26
-139.008743	-26.192537	-23.704563	22	21	25
-136.586868	-26.182772	-23.522974	19	18	24
-135.929214	-26.180944	-23.485909	19	21	22
-135.279831	-26.181896	-23.490318	20	19	23
-134.847427	-26.182705	-23.495832	21	21	25
-134.198959	-26.183969	-23.504910	18	18	24
-133.537918	-26.180870	-23.448889	18	20	22
-132.883286	-26.179949	-23.425346	17	18	23
-132.228607	-26.178984	-23.401175	18	21	23
-131.806854	-26.183535	-23.462502	19	21	23
-131.186554	-26.194851	-23.621441	18	19	24
-130.553253	-26.201645	-23.712942	19	19	23
-129.910965	-26.205263	-23.757082	22	20	24
-129.243103	-26.199564	-23.662331	20	19	22
-128.584351	-26.197121	-23.616081	20	20	26
-127.093773	-26.208687	-23.765675	23	23	27
-111.721390	-23.891924	10.912456	27	25	29
-111.523064	-23.892740	10.903302	27	25	30
-110.714951	-23.889563	10.962698	27	25	28
-110.306885	-23.886166	11.019346	25	27	30
-109.694588	-23.880878	11.107156	27	25	30
-109.101074	-23.883911	11.070969	26	28	30
-108.519867	-23.892569	10.950973	25	27	31
-107.926079	-23.895617	10.914582	26	26	29
-107.512085	-23.889303	11.014656	25	24	30
-107.308792	-23.887829	11.039646	24	24	30
-106.722435	-23.894329	10.951816	26	26	28
-106.135193	-23.900524	10.868498	27	26	29
-105.539536	-23.902813	10.843437	26	28	31
-104.938538	-23.902555	10.856281	26	26	31
-104.329941	-23.898563	10.924799	27	26	32
-103.721497	-23.894543	10.993709	25	26	32
-103.110138	-23.888960	11.085901	27	26	32
-100.478874	-23.872437	11.371119	21	21	26
-99.918854	-23.893311	11.069168	27	26	32
-99.329208	-23.898783	10.996651	29	27	30
-99.136520	-23.902708	10.941181	29	28	31
-98.769287	-23.920475	10.682515	29	28	34
-98.168907	-23.920477	10.691505	29	29	32
-96.725090	-25.072332	-6.413363	30	29	39
-96.305550	-25.070772	-6.383861	32	31	42
-95.687706	-25.075254	-6.441227	28	26	32
-95.055298	-25.070951	-6.367754	28	26	32
-94.439064	-25.076498	-6.440972	24	25	31
-94.199242	-26.269321	-24.173071	48	44	66
-93.982040	-26.269257	-24.168839	49	44	66
-93.305527	-26.252611	-23.911190	82	82	124
-82.784065	-26.342007	-25.082327	23	23	21
-82.561546	-26.337540	-25.012566	23	23	21
-82.349564	-26.342215	-25.078873	23	24	20
-81.714951	-26.357754	-25.300385	23	23	20
-81.253555	-26.333868	-24.938303	25	24	20
-81.025139	-26.323748	-24.784409	24	24	21
-80.379250	-26.329016	-24.853027	23	24	21
-79.946541	-26.330643	-24.870707	26	26	23
-79.295776	-26.331493	-24.873604	28	26	25
-78.652840	-26.340010	-24.990551	27	26	25
-77.992638	-26.331570	-24.855146	26	28	26
-77.357796	-26.348658	-25.099678	28	27	22
-76.916153	-26.341328	-24.984056	30	26	25
-76.694511	-26.336714	-24.912144	28	27	24
-76.266815	-26.343822	-25.011406	28	27	26
-76.055550	-26.350216	-25.103283	28	24	25
-75.619797	-26.348906	-25.077276	29	27	22
-75.395515	-26.341204	-24.959370	29	25	26
-74.952782	-26.331905	-24.814466	27	25	23
-74.319870	-26.352959	-25.118013	25	27	23
-73.677681	-26.364180	-25.275188	24	26	23
-73.024094	-26.362225	-25.236301	27	27	26
-72.577454	-26.347477	-25.010323	28	28	26
-71.925545	-26.346989	-24.993252	28	28	25
-71.711380	-26.350792	-25.046593	28	29	26
-71.276367	-26.349960	-25.027702	28	28	27
-70.636627	-26.365597	-25.250568	28	28	27
-69.985039	-26.365873	-25.244894	29	29	26
-69.545586	-26.358946	-25.135307	28	28	26
-69.103279	-26.347635	-24.960487	30	28	27
-68.884850	-26.345724	-24.928795	30	27	27
-68.461212	-26.361240	-25.153114	30	28	26
-68.252258	-26.373497	-25.332228	29	28	27
-67.599747	-26.372408	-25.306215	29	28	26
-66.943619	-26.365400	-25.192192	30	29	25
-66.502274	-26.354013	-25.016228	29	27	23
-65.850624	-26.353352	-24.996620	27	27	24
-65.643120	-26.369736	-25.237097	29	27	25
-65.218689	-26.387184	-25.490158	29	27	24
-64.561371	-26.377277	-25.333000	28	28	24
-63.903038	-26.364534	-25.133631	27	26	22
-63.256618	-26.374247	-25.268333	26	26	23
-62.825459	-26.380713	-25.357983	28	27	23
-62.176140	-26.385578	-25.420586	26	26	22
-61.511120	-26.355587	-24.964670	27	24	23
-60.865906	-26.369133	-25.156366	26	26	24
-60.222687	-26.389008	-25.442207	28	26	22
-59.785164	-26.380949	-25.315840	28	25	23
-59.137390	-26.390848	-25.453270	27	27	24
-58.485897	-26.391054	-25.446568	32	30	26
-57.835098	-26.393320	-25.470470	30	29	25
-56.353733	-26.536480	-27.576817	52	50	59
-55.709084	-26.576197	-28.157661	52	52	61
-54.422970	-26.695789	-29.916544	52	53	62
-51.812603	-26.872700	-32.507729	69	69	76
-138.820770	-26.347115	-22.784973	22	22	25
-136.962479	-26.379181	-23.230713	19	20	25
-136.530014	-26.379887	-23.234701	20	20	26
-136.093491	-26.379217	-23.218336	21	19	23
-135.640961	-26.373068	-23.120842	20	21	23
-135.222183	-26.378429	-23.193750	19	20	25
-134.789398	-26.379005	-23.195837	19	21	23
-134.566238	-26.376959	-23.162291	20	21	23
-133.891449	-26.368885	-23.033096	20	19	23
-133.466064	-26.372000	-23.072746	20	21	24
-132.804184	-26.368313	-23.008488	21	18	23
-132.357056	-26.363733	-22.934254	20	18	24
-131.542191	-26.382853	-23.204388	19	20	23
-131.127579	-26.389963	-23.303185	19	19	24
-130.492630	-26.396034	-23.383366	20	19	24
-129.840912	-26.396048	-23.373878	22	20	24
-129.193497	-26.397631	-23.387636	20	22	26
-128.747955	-26.393524	-23.320385	21	21	27
-128.113220	-26.399822	-23.403931	23	24	28
-127.481514	-26.407351	-23.505678	23	24	29
-110.325768	-24.093870	10.899309	25	24	29
-109.321976	-24.092590	10.933095	28	25	29
-109.123741	-24.093464	10.923162	26	25	30
-107.320290	-24.092491	10.964317	23	24	27
-98.049263	-25.322466	-7.054043	26	26	30
-97.623833	-25.317883	-6.980064	27	26	33
-97.170303	-25.296705	-6.660704	29	28	37
-86.335258	-26.616110	-25.975929	32	33	34
-85.894691	-26.612232	-25.912128	39	40	38
-85.041611	-26.627083	-26.118679	43	43	38
-84.827324	-26.630062	-26.159473	43	44	38
-83.953415	-26.628176	-26.118650	44	43	39
-83.498962	-26.612253	-25.876858	32	33	23
-82.185898	-26.606462	-25.771868	31	32	25
-81.524742	-26.599163	-25.654291	31	31	25
-81.074631	-26.585569	-25.446938	35	31	24
-80.418411	-26.582142	-25.386608	33	32	26
-79.756027	-26.572655	-25.236729	35	31	28
-79.331291	-26.582369	-25.373800	34	34	29
-78.686211	-26.589548	-25.470181	36	36	28
-78.020714	-26.576416	-25.266457	36	36	27
-76.721458	-26.581673	-25.324760	38	36	29
-74.979179	-26.578018	-25.244909	36	35	29
-73.483261	-26.608118	-25.667011	32	33	30
-72.596466	-26.587442	-25.348625	36	36	30
-70.443909	-26.615427	-25.729755	36	35	32
-70.006844	-26.612556	-25.680868	37	36	32
-68.057663	-26.624472	-25.827816	35	36	29
-67.617249	-26.616100	-25.697681	36	35	30
-66.303345	-26.600578	-25.449030	37	34	32
-65.233131	-26.629299	-25.857100	36	37	31
-64.356209	-26.616209	-25.650837	35	34	29
-63.489582	-26.621750	-25.719763	35	33	28
-63.061230	-26.634781	-25.905743	36	34	31
-62.843113	-26.633455	-25.882950	35	36	29
-61.972515	-26.631721	-25.844418	33	34	27
-61.529053	-26.612253	-25.550457	34	32	28
-60.665249	-26.625002	-25.725803	35	34	30
-60.232330	-26.629457	-25.785137	37	34	30
-59.577332	-26.621780	-25.662071	34	34	28
-59.148365	-26.637295	-25.884727	35	34	27
-58.496441	-26.638098	-25.886883	41	40	32
-57.844189	-26.637846	-25.873495	36	35	31
-57.418674	-26.668112	-26.313938	42	40	43
-54.424965	-26.923227	-30.035305	52	53	62
-54.209400	-26.942509	-30.316721	53	53	60
-53.777912	-26.983603	-30.916891	55	54	63
-53.125385	-27.025930	-31.532021	57	57	61
-52.689476	-27.054831	-31.952152	57	55	64
-52.470837	-27.066574	-32.122261	60	63	68
-52.032135	-27.082586	-32.352089	65	68	73
-138.977005	-26.542976	-22.488674	23	22	27
-136.699570	-26.579874	-22.995972	20	21	24
-135.372299	-26.571459	-22.853142	19	20	23
-132.502274	-26.554165	-22.557516	20	21	23
-132.282654	-26.553188	-22.539965	20	21	24
-131.684357	-26.572002	-22.806911	19	19	24
-131.064590	-26.583315	-22.963600	20	19	23
-130.211487	-26.588846	-23.032127	20	20	24
-129.990356	-26.587353	-23.006983	20	20	25
-129.137451	-26.593040	-23.077812	21	20	28
-128.709320	-26.595287	-23.104450	23	23	26
-127.848244	-26.598026	-23.131935	26	24	30
-127.425484	-26.602358	-23.189215	26	26	32
-111.696709	-24.279909	11.078672	23	21	29
-99.079437	-25.522659	-6.949131	37	34	41
-98.660393	-25.521769	-6.929915	30	27	30
-96.139168	-25.511650	-6.744565	31	30	34
-95.723282	-25.512451	-6.750209	28	26	30
-94.886795	-25.511145	-6.718750	26	26	30
-94.471596	-25.512362	-6.730492	25	25	32
-87.179161	-26.811884	-25.668549	25	25	26
-82.837494	-26.822189	-25.755781	43	40	36
-81.108994	-26.834103	-25.904974	46	43	40
-80.222153	-26.819056	-25.671436	45	46	40
-79.570946	-26.820627	-25.684893	46	46	40
-78.931328	-26.833656	-25.866438	47	45	44
-78.712341	-26.832371	-25.844387	47	46	44
-77.833977	-26.824507	-25.716244	45	45	41
-77.406456	-26.832476	-25.826735	48	47	43
-76.529388	-26.825521	-25.711933	49	47	46
-76.101326	-26.833227	-25.818565	51	47	46
-75.441833	-26.825851	-25.700800	51	48	45
-75.003349	-26.822037	-25.638451	50	49	44
-74.363472	-26.836729	-25.844374	47	48	47
-72.835281	-26.830561	-25.731503	50	48	47
-71.109589	-26.849695	-25.986572	49	48	46
-70.243263	-26.855446	-26.058115	50	51	47
-70.024292	-26.853617	-26.028112	50	52	48
-69.367363	-26.847836	-25.933714	53	49	46
-68.933250	-26.849373	-25.949886	48	47	44
-67.850044	-26.856562	-26.039324	48	47	44
-66.977631	-26.853329	-25.979109	48	48	46
-66.543961	-26.855743	-26.008118	50	49	47
-66.322838	-26.849802	-25.917805	50	48	49
-65.882767	-26.841187	-25.785067	51	49	54
-64.810791	-26.869089	-26.178251	52	48	44
-64.370689	-26.859995	-26.038502	49	47	45
-63.934784	-26.858465	-26.009676	49	49	44
-62.855888	-26.876589	-26.259445	48	49	45
-62.636959	-26.873882	-26.216562	48	49	46
-61.983696	-26.872957	-26.193405	48	48	45
-61.544304	-26.863390	-26.046726	48	47	43
-60.458775	-26.868397	-26.104156	49	49	45
-60.241642	-26.869396	-26.115623	52	49	46
-59.586140	-26.861618	-25.991999	49	47	45
-59.154118	-26.869663	-26.103558	49	48	45
-58.941788	-26.884336	-26.315470	53	51	47
-58.069691	-26.879160	-26.226793	50	49	46
-57.852448	-26.880148	-26.238070	53	49	47
-57.636982	-26.886896	-26.333799	61	52	52
-56.571964	-26.970510	-27.543573	53	53	60
-55.715096	-27.034855	-28.473978	51	55	62
-55.501476	-27.055807	-28.777914	52	53	62
-54.858997	-27.119392	-29.700352	52	51	61
-139.381729	-26.749157	-22.350302	24	22	25
-135.532501	-26.767771	-22.565220	21	21	25
-134.235504	-26.769341	-22.569197	20	20	23
-133.566620	-26.762894	-22.465687	19	21	24
-131.632721	-26.769247	-22.530025	21	20	24
-110.763344	-24.509277	10.658664	27	24	30
-110.355843	-24.506182	10.709649	24	24	28
-109.367096	-24.511961	10.639898	25	26	29
-109.176392	-24.516369	10.578531	25	24	28
-108.359154	-24.508955	10.698312	27	26	28
-107.956406	-24.507910	10.719373	25	24	26
-106.758591	-24.509617	10.711918	24	26	26
-105.967972	-24.514597	10.650956	24	24	27
-105.553589	-24.507820	10.755595	25	23	26
-99.559525	-25.766325	-7.470125	37	35	49
-99.078041	-25.729881	-6.932828	39	38	48
-98.457939	-25.733427	-6.975405	37	34	41
-98.255569	-25.737150	-7.026648	32	32	39
-97.404564	-25.727680	-6.876494	31	29	41
-96.962433	-25.712854	-6.654322	33	33	41
-96.554161	-25.718208	-6.726307	32	31	35
-96.149529	-25.725857	-6.831724	30	28	33
-95.735657	-25.727957	-6.856249	28	26	31
-94.906181	-25.731146	-6.890594	26	26	34
-94.486542	-25.729671	-6.863066	27	25	34
-93.540184	-26.913233	-24.071592	75	74	122
-93.321358	-26.912024	-24.050827	84	84	118
-86.783913	-27.060740	-26.119839	32	32	48
-86.334938	-27.050234	-25.960430	55	58	88
-85.895546	-27.047235	-25.910425	65	67	92
-84.828728	-27.065762	-26.164494	72	70	86
-83.952156	-27.061563	-26.090662	73	72	100
-83.506004	-27.052563	-25.953196	72	69	90
-82.424103	-27.058859	-26.029100	67	71	90
-82.210106	-27.062290	-26.075926	71	71	96
-81.556091	-27.061831	-26.059734	76	73	91
-81.120216	-27.061619	-26.050299	79	70	100
-80.016762	-27.047760	-25.832605	73	71	88
-79.801056	-27.049673	-25.857302	70	73	84
-78.941872	-27.061182	-26.012306	74	68	94
-78.724083	-27.061153	-26.008707	74	70	91
-77.637405	-27.063288	-26.023981	72	72	87
-77.421654	-27.065376	-26.051229	74	73	88
-76.544403	-27.058641	-25.940493	77	72	87
-76.115082	-27.065266	-26.030638	79	75	96
-75.018768	-27.056471	-25.886740	74	74	87
-74.156265	-27.065933	-26.011900	75	71	93
-73.725128	-27.071007	-26.079445	75	71	90
-72.619934	-27.050173	-25.760223	75	68	89
-71.120705	-27.081491	-26.194151	74	76	94
-69.379860	-27.082783	-26.187662	80	77	93
-68.947784	-27.087694	-26.252848	76	71	93
-68.295334	-27.088793	-26.259346	76	75	95
-67.631584	-27.072128	-26.007210	78	75	95
-66.775192	-27.095100	-26.329039	72	73	92
-66.333672	-27.084887	-26.173985	76	77	102
-65.889320	-27.069246	-25.939941	78	77	108
-65.038422	-27.104141	-26.435364	81	75	94
-64.599716	-27.098192	-26.342413	80	75	92
-63.726997	-27.094433	-26.275023	77	75	91
-63.297394	-27.106028	-26.437492	78	77	91
-62.207886	-27.104113	-26.393812	76	77	97
-61.553139	-27.100304	-26.328852	76	75	88
-60.900635	-27.101393	-26.335222	75	77	95
-60.247288	-27.100351	-26.310568	83	75	94
-58.515923	-27.128685	-26.697701	81	79	98
-57.213634	-27.143648	-26.896511	84	84	90
-55.076157	-27.327881	-29.546274	54	54	61
-53.127876	-27.477625	-31.696930	59	59	63
-52.909336	-27.488312	-31.849260	59	59	66
-52.469173	-27.490379	-31.872931	72	72	78
-138.665146	-26.942739	-22.015665	23	22	26
-135.949539	-26.977800	-22.483227	21	20	25
-135.071762	-26.974195	-22.418510	19	20	25
-134.866425	-26.978241	-22.474005	20	21	23
-133.731491	-26.960205	-22.197107	21	20	25
-133.520233	-26.962149	-22.222160	21	20	24
-132.638123	-26.956646	-22.129959	21	21	23
-132.405060	-26.950722	-22.041014	21	19	23
-131.372208	-26.969082	-22.291464	21	20	24
-131.151611	-26.967661	-22.267754	20	21	24
-130.283264	-26.967081	-22.246880	21	20	26
-129.850845	-26.967434	-22.245766	20	22	25
-128.802002	-26.980461	-22.418926	21	24	31
-128.596588	-26.984753	-22.477976	25	25	31
-127.759224	-26.996122	-22.630215	31	31	38
-127.352425	-27.006466	-22.773815	35	32	40
-126.453827	-26.994379	-22.586245	37	36	43
-111.357529	-24.705763	10.697669	25	26	28
-107.374123	-24.716143	10.604963	24	24	26
-85.255867	-27.275791	-26.060049	105	104	149
-75.464859	-27.285664	-26.061935	127	116	166
-73.075966	-27.292973	-26.133196	118	115	168
-71.994339	-27.302017	-26.248354	143	143	192
-71.558655	-27.301832	-26.239397	126	128	170
-71.124016	-27.303009	-26.250153	116	118	183
-69.818977	-27.305080	-26.261337	130	122	169
-69.385788	-27.308420	-26.303366	122	116	177
-66.337906	-27.309000	-26.267921	119	119	181
-56.789291	-27.401333	-27.464731	54	55	60
-55.933495	-27.468479	-28.422607	52	53	59
-55.719753	-27.488537	-28.709333	52	52	59
-55.506092	-27.510105	-29.017879	52	51	59
-55.292645	-27.533928	-29.359013	50	52	60
-54.864182	-27.578901	-30.002645	52	53	62
-54.215324	-27.626575	-30.682138	53	56	62
-53.781918	-27.659819	-31.156216	54	54	61
-53.129330	-27.704939	-31.798750	58	60	64
-138.569901	-27.126093	-21.547873	24	24	27
-138.324234	-27.116182	-21.402185	24	23	27
-136.386047	-27.194578	-22.499390	20	21	24
-133.464523	-27.157820	-21.930475	21	21	24
-132.363937	-27.151344	-21.821924	22	19	24
-130.868362	-27.158689	-21.906046	22	21	26
-130.210846	-27.155710	-21.853937	22	20	26
-129.781204	-27.156958	-21.865744	22	22	25
-128.930771	-27.162830	-21.937904	24	24	29
-128.100540	-27.176546	-22.122881	31	29	34
-127.515312	-27.201498	-22.472527	36	37	41
-126.872063	-27.204218	-22.502409	40	39	48
-126.174667	-27.185673	-22.226431	43	43	53
-109.608253	-24.929876	10.373171	24	25	25
-109.225967	-24.938524	10.254534	24	22	28
-108.009964	-24.932266	10.361603	25	25	28
-86.777916	-27.490450	-26.038971	44	45	75
-86.557777	-27.488638	-26.009819	66	69	143
-85.897072	-27.482790	-25.916550	121	133	180
-85.254906	-27.492210	-26.042555	135	137	182
-84.825806	-27.497816	-26.116880	128	126	190
-84.161156	-27.488361	-25.971779	143	135	176
-83.500320	-27.481873	-25.869295	142	138	198
-82.843925	-27.479063	-25.819658	133	129	175
-82.205307	-27.492304	-26.000540	135	135	185
-81.768921	-27.491573	-25.983866	142	136	195
-81.115822	-27.491804	-25.977877	148	135	189
-80.460411	-27.489788	-25.939653	148	141	188
-79.809036	-27.491600	-25.956375	144	143	191
-79.157951	-27.493731	-25.977686	139	135	180
-78.724892	-27.496193	-26.006859	144	135	182
-78.078423	-27.503227	-26.098591	140	137	191
-77.426834	-27.505096	-26.116146	137	137	197
-76.772171	-27.503664	-26.086285	150	141	187
-76.116753	-27.501289	-26.042900	140	136	192
-75.466003	-27.504049	-26.073250	156	149	176
-75.029854	-27.503269	-26.055853	145	142	200
-74.373108	-27.499012	-25.985443	141	137	177
-73.727112	-27.507545	-26.098680	137	141	185
-73.075706	-27.509727	-26.120716	140	141	207
-72.418045	-27.503971	-26.028778	144	139	191
-71.997589	-27.523361	-26.300987	142	142	192
-71.339447	-27.516977	-26.200060	142	150	208
-70.680557	-27.509132	-26.078117	146	148	189
-70.033577	-27.517673	-26.191481	149	148	189
-69.818863	-27.521984	-26.250261	157	147	199
-69.386971	-27.527233	-26.319435	155	145	207
-68.953728	-27.530659	-26.362431	155	141	204
-68.296501	-27.524645	-26.266794	150	147	195
-68.075981	-27.520281	-26.201056	140	151	198
-67.633949	-27.509672	-26.042547	144	148	213
-66.990128	-27.524509	-26.246277	144	150	200
-66.336617	-27.523766	-26.226326	151	147	200
-65.899109	-27.519979	-26.165762	152	146	206
-65.254448	-27.534996	-26.372051	147	144	191
-64.601555	-27.535545	-26.370647	168	150	190
-63.947208	-27.533205	-26.327780	154	147	207
-63.298405	-27.541960	-26.444160	151	144	195
-62.647816	-27.547585	-26.515610	154	152	199
-62.210571	-27.543776	-26.454735	156	151	197
-61.557697	-27.544464	-26.455322	159	150	197
-60.903751	-27.542507	-26.417946	144	151	199
-60.249416	-27.539225	-26.361557	146	147	191
-59.593098	-27.530033	-26.220367	154	147	212
-59.161167	-27.539146	-26.344976	153	153	189
-58.517029	-27.565489	-26.713737	154	152	202
-57.860046	-27.553923	-26.538456	141	133	176
-57.217644	-27.590860	-27.059275	69	67	64
-56.792683	-27.630535	-27.622459	52	52	58
-56.579765	-27.650269	-27.902538	54	52	60
-56.365509	-27.665937	-28.124306	52	50	58
-54.433872	-27.838875	-30.577982	54	52	62
-138.523926	-27.325800	-21.320250	24	24	27
-134.967255	-27.368620	-21.880274	20	22	27
-134.763474	-27.373173	-21.942284	20	22	24
-134.046295	-27.348965	-21.587296	21	21	25
-132.985275	-27.356583	-21.680920	21	21	24
-131.687164	-27.356743	-21.664938	19	22	23
-128.663956	-27.359066	-21.655529	24	23	29
-127.839417	-27.374897	-21.869465	33	31	35
-111.005386	-25.126802	10.396105	26	25	28
-110.401726	-25.125711	10.420115	24	23	28
-109.816422	-25.133108	10.322965	25	24	26
-109.040421	-25.145241	10.161036	25	24	28
-108.627373	-25.139555	10.247858	25	25	29
-107.838951	-25.146008	10.167016	25	24	25
-107.214775	-25.135008	10.332504	25	24	27
-107.007111	-25.131479	10.385677	24	24	27
-106.610382	-25.133455	10.363122	24	24	26
-106.407120	-25.132044	10.386093	23	24	27
-71.776527	-27.736170	-26.228121	160	159	207
-66.987190	-27.736601	-26.166908	163	163	212
-65.468521	-27.745350	-26.270212	160	160	206
-59.594517	-27.750521	-26.261272	167	160	216
-54.003681	-28.106159	-31.249447	57	55	63
-53.352585	-28.160061	-32.008232	59	61	65
-52.911949	-28.159952	-32.000496	72	72	76
-139.117371	-27.522118	-21.056677	26	24	29
-138.455246	-27.517487	-20.981955	25	25	27
-135.176285	-27.581455	-21.841400	19	21	25
-134.754288	-27.585432	-21.891798	20	21	25
-134.218277	-27.548323	-21.359293	22	19	24
-133.531937	-27.534700	-21.157022	22	21	26
-132.918777	-27.547653	-21.331751	22	23	26
-132.249100	-27.539932	-21.213203	22	21	25
-131.629074	-27.550539	-21.354628	21	21	23
-131.426254	-27.555548	-21.422668	21	21	23
-130.994446	-27.555828	-21.420631	22	20	27
-130.544022	-27.549088	-21.319012	22	21	26
-129.871765	-27.540121	-21.182787	23	23	25
-129.218430	-27.538233	-21.146994	24	23	29
-128.597000	-27.548615	-21.285215	25	26	29
-128.395767	-27.554394	-21.364185	27	26	30
-127.988991	-27.564363	-21.499596	30	29	33
-127.381660	-27.580624	-21.721201	38	39	45
-126.344063	-27.598196	-21.955400	45	45	55
-126.129539	-27.598970	-21.963367	44	46	56
-125.919151	-27.601400	-21.994814	47	47	59
-111.017128	-25.331823	10.323628	24	25	27
-110.421776	-25.334620	10.292349	24	24	28
-69.384071	-27.957090	-26.240833	162	161	208
-68.512718	-27.956367	-26.218468	156	157	209
-65.249519	-27.959846	-26.222311	160	158	205
-64.596237	-27.959234	-26.204554	181	163	199
-60.681732	-27.965113	-26.233282	163	161	202
-60.246750	-27.965662	-26.234995	169	157	206
-57.435249	-28.023228	-27.010342	67	63	65
-56.370186	-28.118343	-28.341274	51	52	59
-55.726040	-28.166971	-29.020346	53	52	59
-55.298233	-28.211586	-29.645613	50	54	59
-55.083923	-28.234114	-29.961374	55	54	64
-54.652580	-28.270269	-30.466919	54	55	62
-54.436611	-28.288723	-30.725002	56	55	64
-54.221069	-28.310759	-31.033766	55	57	64
-138.794159	-27.700439	-20.531179	27	25	31
-138.371735	-27.703714	-20.571383	25	26	29
-131.151276	-27.748732	-21.104580	20	22	25
-128.137756	-27.753298	-21.127254	28	29	34
-127.519661	-27.765165	-21.285515	35	36	42
-125.671730	-27.804436	-21.811892	51	50	66
-83.934364	-28.131884	-25.838600	142	144	177
-83.499565	-28.132496	-25.841213	153	140	179
-82.629852	-28.133606	-25.844835	144	138	184
-82.193604	-28.132864	-25.828407	142	138	183
-81.538338	-28.130835	-25.790874	145	142	173
-81.103249	-28.131096	-25.788572	139	140	172
-80.240898	-28.139318	-25.892241	140	144	193
-79.807205	-28.141052	-25.910637	153	148	187
-78.935097	-28.139757	-25.880423	149	142	183
-78.717941	-28.140306	-25.885147	151	144	192
-77.848526	-28.141716	-25.893003	160	144	187
-77.417145	-28.146017	-25.947487	155	142	180
-76.541855	-28.140984	-25.864721	162	146	202
-76.106102	-28.140461	-25.851377	150	153	187
-75.242188	-28.148176	-25.947901	158	151	191
-75.024063	-28.147642	-25.937389	158	148	181
-74.152176	-28.146095	-25.903679	151	150	174
-73.720016	-28.149942	-25.951775	149	143	169
-72.847687	-28.147690	-25.908134	150	147	187
-72.415474	-28.151630	-25.957533	163	150	200
-71.767715	-28.158510	-26.045303	161	156	185
-71.325844	-28.149563	-25.913506	148	152	190
-70.456802	-28.151436	-25.927853	146	160	196
-70.025940	-28.157692	-26.009834	158	161	202
-69.164139	-28.170784	-26.181923	159	156	200
-68.947037	-28.171694	-26.191730	160	154	202
-68.072029	-28.164938	-26.084764	156	160	199
-67.633301	-28.159281	-25.999245	153	160	195
-66.766983	-28.166100	-26.083138	169	164	201
-66.331596	-28.165812	-26.073080	169	165	219
-65.681732	-28.171118	-26.138697	170	161	213
-65.247108	-28.172268	-26.148886	161	161	201
-64.377853	-28.174635	-26.170187	158	165	202
-63.944286	-28.178005	-26.211563	160	162	201
-63.076191	-28.183153	-26.271969	149	160	206
-62.641533	-28.184561	-26.285761	153	156	204
-61.986778	-28.180399	-26.218267	163	157	201
-61.551270	-28.179697	-26.202427	164	161	206
-60.679676	-28.176558	-26.146311	159	161	200
-60.245621	-28.179331	-26.179293	162	155	197
-59.377399	-28.185038	-26.247530	159	159	211
-59.162197	-28.191942	-26.341589	162	161	212
-58.294716	-28.201391	-26.462420	159	146	187
-57.862785	-28.212616	-26.614212	94	91	84
-57.226551	-28.272482	-27.446638	54	54	59
-57.013325	-28.290228	-27.693054	51	51	59
-53.136978	-28.627111	-32.373379	77	77	83
-138.916306	-27.882904	-20.076736	27	25	30
-138.473160	-27.878839	-20.013960	26	26	29
-134.387466	-27.883028	-20.016817	22	22	26
-134.048065	-27.916611	-20.480856	21	21	25
-133.635117	-27.923500	-20.571377	22	21	26
-132.779877	-27.926569	-20.602564	22	22	27
-132.338913	-27.923143	-20.548742	21	22	28
-131.482361	-27.925724	-20.573086	22	23	27
-131.077820	-27.936018	-20.711237	20	23	26
-129.992065	-27.933632	-20.663177	24	23	27
-129.764114	-27.928988	-20.595238	23	22	27
-129.090256	-27.918760	-20.443344	23	24	29
-128.662933	-27.920391	-20.460300	24	25	32
-126.856728	-27.974556	-21.191605	43	43	50
-110.859245	-25.751022	10.056440	24	24	27
-110.452087	-25.748213	10.101190	25	24	27
-109.658493	-25.752314	10.054763	25	27	28
-109.093361	-25.769880	9.817320	23	24	29
-108.281555	-25.765444	9.890270	27	25	27
-107.881363	-25.765968	9.888401	26	24	27
-107.040131	-25.746723	10.168423	24	25	28
-106.611427	-25.732849	10.367894	24	25	28
-84.368248	-28.347567	-25.818705	137	139	175
-63.288368	-28.388407	-26.101677	158	162	207
-62.855347	-28.393011	-26.160038	153	158	202
-59.592625	-28.395000	-26.143377	173	154	208
-57.653690	-28.458469	-27.002722	60	58	62
-56.159645	-28.585146	-28.750204	52	53	63
-55.731705	-28.626093	-29.315800	52	51	59
-55.087837	-28.687988	-30.170816	55	53	63
-54.872219	-28.706490	-30.426077	53	54	59
-54.656490	-28.725672	-30.690844	57	55	63
-54.224682	-28.766293	-31.251823	57	59	66
-53.574726	-28.826035	-32.076714	67	69	70
-134.799072	-28.090477	-19.919334	22	21	27
-133.969406	-28.102488	-20.074625	20	22	25
-133.552704	-28.107882	-20.143782	23	23	26
-132.708038	-28.114611	-20.225681	22	23	27
-132.267029	-28.110994	-20.169611	22	23	27
-132.041840	-28.107409	-20.116875	23	23	27
-131.400894	-28.109665	-20.139526	22	24	27
-131.194321	-28.113111	-20.184523	22	23	25
-130.377991	-28.130913	-20.420244	23	23	28
-129.940170	-28.128475	-20.380562	23	23	29
-129.024658	-28.107920	-20.083323	27	24	30
-128.595016	-28.108513	-20.085752	24	25	30
-128.395248	-28.114737	-20.169346	27	25	32
-127.816025	-28.141575	-20.533550	32	31	34
-127.409271	-28.151478	-20.665314	36	36	40
-126.590958	-28.169647	-20.906145	43	44	53
-126.187279	-28.181093	-21.059361	45	44	55
-125.319710	-28.179638	-21.027496	55	51	72
-125.074554	-28.167631	-20.857771	55	53	72
-111.077011	-25.958868	9.945905	25	24	28
-57.657249	-28.687351	-27.153576	55	52	62
-57.232628	-28.728024	-27.711624	50	53	60
-56.803787	-28.756927	-28.106468	51	52	57
-56.589336	-28.772364	-28.317558	52	51	60
-56.161713	-28.810936	-28.846426	54	53	60
-55.947903	-28.831835	-29.133232	51	54	61
-55.733994	-28.853519	-29.430899	53	53	60
-55.520035	-28.876263	-29.743256	53	52	58
-54.443783	-28.980036	-31.167154	56	56	67
-53.791908	-29.025949	-31.794771	65	63	70
-138.582626	-28.270794	-19.494471	28	24	30
-138.346390	-28.263468	-19.390446	28	25	32
-137.658737	-28.248728	-19.178354	25	25	28
-137.297470	-28.273399	-19.513227	25	23	28
-136.911392	-28.289415	-19.728565	24	23	28
-136.017761	-28.277988	-19.559349	25	25	28
-135.401733	-28.288990	-19.702616	24	25	27
-133.524689	-28.312117	-19.995979	23	26	27
-132.870193	-28.309214	-19.947304	24	23	27
-131.116226	-28.297869	-19.767744	23	24	27
-130.501862	-28.310213	-19.929518	23	24	29
-129.889679	-28.323586	-20.105446	24	25	28
-128.132904	-28.310802	-19.906071	28	25	33
-126.524864	-28.357790	-20.531532	43	44	49
-126.317039	-28.361019	-20.573229	44	44	51
-125.461281	-28.364027	-20.603245	49	49	64
-124.997414	-28.350636	-20.412674	58	58	78
-124.723587	-28.326466	-20.076281	61	59	80
-109.510292	-26.177231	9.715891	25	25	28
-109.132187	-26.188597	9.564437	25	25	28
-108.525780	-26.186617	9.599796	25	25	29
-107.918030	-26.183908	9.645164	24	24	26
-83.697205	-28.765501	-25.574078	124	123	176
-83.482468	-28.768120	-25.607265	126	125	181
-82.611526	-28.767660	-25.589348	134	131	181
-82.177223	-28.768501	-25.595125	136	130	184
-81.524155	-28.768209	-25.582428	141	131	184
-81.094337	-28.773443	-25.648741	135	131	170
-80.450623	-28.782539	-25.765404	133	133	172
-79.792969	-28.777723	-25.690340	136	133	175
-79.141533	-28.779152	-25.701326	139	141	195
-78.702820	-28.775436	-25.644327	147	138	186
-78.050385	-28.775719	-25.639511	158	137	182
-77.402206	-28.780666	-25.698997	142	136	186
-76.745865	-28.776569	-25.633856	137	140	184
-76.309540	-28.775127	-25.608192	134	143	176
-76.095924	-28.779640	-25.667475	135	144	198
-75.670738	-28.791269	-25.821903	146	141	188
-75.012222	-28.784409	-25.718679	144	149	179
-74.363510	-28.789261	-25.776848	146	138	180
-73.712799	-28.791780	-25.802866	154	146	182
-73.054001	-28.783871	-25.685192	150	141	185
-72.619591	-28.784670	-25.690403	146	149	199
-71.971176	-28.790215	-25.758095	147	149	196
-71.318626	-28.790243	-25.749800	145	150	189
-70.669701	-28.795424	-25.812468	146	146	195
-70.020737	-28.800797	-25.877804	152	146	182
-69.370407	-28.804358	-25.918165	148	150	191
-68.937157	-28.807291	-25.952766	153	150	186
-68.284203	-28.806919	-25.938957	140	154	202
-67.629448	-28.803461	-25.882622	154	152	193
-66.983604	-28.815033	-26.033325	165	152	192
-66.327332	-28.808779	-25.938482	156	152	196
-65.894302	-28.812492	-25.983831	169	158	204
-65.242348	-28.813787	-25.992989	158	151	192
-64.587692	-28.809797	-25.929340	154	155	203
-63.932934	-28.805162	-25.856787	150	149	202
-63.280987	-28.806068	-25.860594	160	159	206
-62.847466	-28.809122	-25.896854	160	154	199
-62.197121	-28.813833	-25.953056	158	152	199
-61.546154	-28.817390	-25.993353	146	153	198
-60.894463	-28.819374	-26.011972	152	153	201
-60.242962	-28.821972	-26.039063	150	153	202
-59.590473	-28.821949	-26.030046	162	155	204
-59.160221	-28.835861	-26.215860	154	149	208
-58.943874	-28.839546	-26.263697	145	145	189
-58.511024	-28.846840	-26.358345	122	114	129
-57.447926	-28.934635	-27.552919	53	51	60
-136.221313	-28.488075	-19.499384	27	26	28
-131.908249	-28.485695	-19.409966	24	25	29
-131.053299	-28.488066	-19.431135	24	24	28
-128.471558	-28.488573	-19.404043	28	27	33
-127.480103	-28.522738	-19.858173	31	34	36
-126.453041	-28.543221	-20.124754	40	42	50
-125.162727	-28.544436	-20.124357	52	51	67
-110.733192	-26.386011	9.583088	24	26	29
-110.310608	-26.375931	9.726520	24	25	29
-110.102066	-26.372162	9.780804	24	25	30
-109.703514	-26.373547	9.767113	24	25	29
-109.514587	-26.379282	9.691178	24	23	29
-109.140495	-26.392698	9.512630	23	24	27
-108.553131	-26.400166	9.418248	26	25	28
-107.946541	-26.398149	9.453810	26	24	26
-106.521927	-26.388483	9.604802	23	24	26
-81.091324	-28.987431	-25.601583	125	122	178
-79.785370	-28.986877	-25.576805	130	128	180
-78.698395	-28.987650	-25.573032	141	135	189
-77.832939	-28.992752	-25.631388	140	129	183
-76.092575	-28.992632	-25.606827	130	132	191
-72.833267	-28.996456	-25.616148	140	141	195
-72.616623	-28.997561	-25.628401	145	140	173
-54.666725	-29.431889	-31.331413	56	57	66
-54.231277	-29.456861	-31.667162	60	62	74
-138.250076	-28.657757	-18.915052	30	30	33
-137.806229	-28.652872	-18.842926	28	28	33
-137.033768	-28.684671	-19.264830	28	27	31
-136.610184	-28.687202	-19.293694	28	29	33
-135.990005	-28.696608	-19.413351	27	28	30
-135.133545	-28.698400	-19.426544	27	26	31
-134.700378	-28.697468	-19.408224	27	27	29
-133.829254	-28.693750	-19.346361	27	27	30
-133.616531	-28.694708	-19.356588	26	26	31
-132.990280	-28.702127	-19.449221	27	27	32
-132.302170	-28.685989	-19.221016	26	26	31
-131.644089	-28.681160	-19.146835	27	25	30
-131.224487	-28.685297	-19.197563	24	26	29
-131.010574	-28.685780	-19.201317	24	27	28
-130.574463	-28.683517	-19.164902	24	27	31
-130.366470	-28.686314	-19.200180	27	28	32
-129.983078	-28.704767	-19.445875	27	27	32
-129.784073	-28.711182	-19.530407	27	28	31
-129.329178	-28.701548	-19.393604	28	28	32
-128.642090	-28.684990	-19.159721	28	30	33
-128.012711	-28.691406	-19.238678	29	30	34
-127.414261	-28.710482	-19.489998	31	34	38
-127.231575	-28.723749	-19.667854	34	35	40
-126.831108	-28.736118	-19.830666	37	37	46
-126.171967	-28.730776	-19.749483	41	40	48
-125.544823	-28.738657	-19.848360	45	46	54
-125.094788	-28.730597	-19.732994	49	51	58
-124.430534	-28.722883	-19.619545	62	58	79
-107.343094	-26.597731	9.472430	26	24	28
-105.739632	-27.913643	-8.382669	9	9	9
-80.440689	-29.206476	-25.615276	125	118	171
-79.135422	-29.206614	-25.600113	115	123	165
-57.664825	-29.364122	-27.459805	53	52	58
-57.452499	-29.384871	-27.738890	51	50	58
-56.810108	-29.432606	-28.378967	53	55	60
-56.596718	-29.453060	-28.654053	51	52	58
-56.383862	-29.476742	-28.972971	54	53	61
-55.740765	-29.536079	-29.770664	54	54	60
-55.526943	-29.560661	-30.101807	53	55	59
-55.099953	-29.617607	-30.869825	54	56	62
-53.792416	-29.683725	-31.750954	70	72	79
-138.659393	-28.864367	-18.815681	31	31	38
-138.434128	-28.860716	-18.763502	31	32	38
-137.784866	-28.859222	-18.734980	30	30	37
-125.906509	-28.924324	-19.460239	40	41	50
-125.486351	-28.928625	-19.512861	43	43	59
-125.043983	-28.923599	-19.439348	49	47	56
-123.953575	-28.917391	-19.341496	60	56	78
-111.188774	-26.812025	9.234801	24	25	28
-108.800537	-26.823641	9.108854	24	22	26
-108.612152	-26.829971	9.025870	23	23	26
-106.992767	-26.824223	9.124338	24	24	25
-106.799507	-26.828213	9.072973	25	24	25
-83.263084	-29.417356	-25.563446	90	89	110
-82.179726	-29.421759	-25.608879	90	87	106
-81.523262	-29.418123	-25.551340	94	94	114
-81.090744	-29.420723	-25.580833	99	89	113
-80.001419	-29.419142	-25.545446	97	97	119
-79.783401	-29.418633	-25.535765	101	98	110
-78.700729	-29.423944	-25.593481	92	92	143
-77.186752	-29.433846	-25.707563	92	90	108
-76.535408	-29.435432	-25.720570	94	93	106
-76.100792	-29.436050	-25.723314	93	93	103
-75.235954	-29.442638	-25.801041	93	87	107
-75.016891	-29.440828	-25.773808	89	90	115
-74.146759	-29.441021	-25.765171	96	91	111
-73.714188	-29.444304	-25.803879	97	96	118
-72.404808	-29.438856	-25.713486	106	99	112
-71.755592	-29.443470	-25.767380	102	96	110
-71.321938	-29.445461	-25.788652	95	101	113
-70.236115	-29.448141	-25.810806	95	97	114
-70.019241	-29.449133	-25.821373	93	95	118
-69.149414	-29.449547	-25.815758	98	98	116
-68.932381	-29.450314	-25.823296	100	94	116
-67.410057	-29.450636	-25.808001	105	99	115
-66.764580	-29.463009	-25.966637	92	98	123
-66.326218	-29.457090	-25.881132	88	102	129
-65.457489	-29.459522	-25.902740	99	100	116
-65.242226	-29.463854	-25.958416	104	99	116
-64.373230	-29.466089	-25.977369	98	98	126
-63.937786	-29.465265	-25.960625	110	103	114
-62.630054	-29.459036	-25.859682	100	99	125
-61.980026	-29.464518	-25.925285	111	100	121
-61.548058	-29.471838	-26.018501	100	99	119
-60.464649	-29.482828	-26.152821	104	97	118
-60.246014	-29.479870	-26.110081	110	100	115
-59.589317	-29.467972	-25.941048	100	96	117
-59.158195	-29.479280	-26.088083	92	94	103
-58.730785	-29.503124	-26.404335	71	70	67
-58.306244	-29.538363	-26.874393	56	53	60
-55.743652	-29.766621	-29.921652	53	52	60
-135.458267	-29.087536	-18.893419	36	36	49
-134.818115	-29.089424	-18.910561	35	37	45
-130.742462	-29.093275	-18.910164	34	34	43
-130.526947	-29.093075	-18.904741	33	34	43
-129.019501	-29.092049	-18.871719	38	42	50
-128.593643	-29.093693	-18.888332	35	37	49
-126.937019	-29.119755	-19.216572	39	37	52
-110.796989	-27.017178	9.177360	24	25	28
-110.382034	-27.010820	9.267885	23	24	28
-109.364479	-27.004414	9.366774	25	25	26
-109.182327	-27.013779	9.243552	24	24	27
-109.003426	-27.024836	9.097601	23	24	26
-108.424683	-27.037136	8.940083	24	24	27
-107.996536	-27.023878	9.123288	24	24	25
-107.777626	-27.014704	9.249085	24	24	25
-107.009964	-27.033379	9.008519	24	23	26
-84.134689	-29.635426	-25.583450	64	62	65
-83.486488	-29.639763	-25.633312	63	65	73
-82.620285	-29.643875	-25.677391	64	65	74
-82.182968	-29.641878	-25.645050	65	64	72
-81.097214	-29.644161	-25.661793	67	65	74
-80.228821	-29.646242	-25.678585	67	68	77
-79.790764	-29.643246	-25.632835	68	65	73
-79.146179	-29.651943	-25.741215	62	64	72
-78.708534	-29.649319	-25.700430	65	64	74
-78.059715	-29.653702	-25.750916	68	62	72
-73.064514	-29.665247	-25.841913	70	63	74
-68.289574	-29.683157	-26.021069	73	72	87
-63.288708	-29.689505	-26.042349	71	69	81
-60.685589	-29.708418	-26.262665	71	67	75
-56.603653	-29.915430	-28.985830	53	54	58
-56.177517	-29.964321	-29.635857	52	53	58
-55.962536	-29.982542	-29.877371	52	53	60
-55.747120	-29.999872	-30.106955	52	52	60
-55.532101	-30.020048	-30.374695	53	52	62
-55.317707	-30.044405	-30.698500	54	53	62
-54.885677	-30.081553	-31.191000	59	59	69
-54.229824	-30.103682	-31.479300	66	68	75
-135.665817	-29.298792	-18.854851	38	39	53
-135.230408	-29.296782	-18.822565	41	39	49
-134.805023	-29.298540	-18.840626	39	43	45
-133.743622	-29.303780	-18.897003	38	39	49
-133.534134	-29.305908	-18.922710	39	40	47
-132.697662	-29.315102	-19.034584	39	39	46
-132.265198	-29.314205	-19.017179	38	38	46
-130.949417	-29.304146	-18.866579	37	37	43
-130.304688	-29.304224	-18.859484	38	38	45
-129.897034	-29.313166	-18.973421	39	37	44
-128.799698	-29.304100	-18.838814	41	42	47
-128.592545	-29.307278	-18.878538	40	40	46
-128.387573	-29.311357	-18.930275	40	41	47
-127.751686	-29.315079	-18.971802	39	44	47
-127.533752	-29.313860	-18.952826	38	38	48
-126.062653	-29.328033	-19.123020	44	44	54
-125.409813	-29.324745	-19.070976	48	47	66
-124.977310	-29.323677	-19.051283	53	49	50
-123.937965	-29.339081	-19.243330	47	45	56
-111.015053	-27.225752	9.067375	24	24	27
-110.414299	-27.226929	9.059309	23	23	28
-109.802856	-27.222786	9.122195	23	23	25
-107.389648	-27.222063	9.162312	22	23	26
-106.603577	-27.231382	9.048120	24	23	24
-83.704742	-29.857328	-25.637695	53	53	66
-81.753639	-29.864697	-25.711184	57	54	70
-69.816383	-29.905449	-26.103199	63	65	86
-69.381645	-29.906380	-26.110104	64	62	77
-68.511375	-29.906952	-26.106726	67	67	84
-68.295250	-29.909481	-26.137690	67	67	90
-67.642693	-29.910187	-26.138851	63	64	77
-66.991859	-29.913935	-26.180534	64	60	75
-66.336853	-29.910181	-26.122267	59	61	75
-65.900566	-29.908215	-26.090576	59	60	71
-65.249985	-29.912561	-26.140244	60	60	76
-64.599724	-29.917818	-26.202049	62	60	74
-63.945824	-29.915707	-26.165657	61	61	73
-63.293339	-29.916454	-26.167381	61	62	79
-62.857319	-29.914595	-26.137102	63	62	75
-62.204895	-29.915342	-26.138809	62	60	74
-61.554104	-29.920156	-26.194712	59	59	75
-61.338371	-29.924898	-26.255140	60	59	75
-60.906631	-29.934103	-26.372288	60	60	75
-60.252651	-29.931372	-26.327667	57	59	70
-59.813931	-29.921452	-26.190002	59	57	72
-59.595375	-29.918556	-26.148666	57	56	69
-59.162228	-29.924463	-26.221859	56	55	66
-58.948071	-29.935101	-26.360842	55	56	64
-58.523247	-29.969006	-26.807072	54	52	55
-58.312080	-29.991167	-27.099556	53	51	57
-57.889671	-30.038183	-27.720440	50	51	56
-57.247990	-30.087135	-28.364319	54	53	58
-56.820721	-30.125868	-28.874821	53	52	58
-54.884907	-30.295912	-31.115173	61	60	69
-138.466431	-29.514585	-18.909189	36	36	43
-137.808487	-29.509932	-18.839378	36	36	39
-137.196655	-29.522291	-18.995272	38	39	43
-136.545380	-29.520084	-18.957930	40	40	44
-136.322693	-29.517242	-18.917555	41	40	43
-134.393234	-29.519567	-18.924194	37	38	44
-134.185379	-29.522329	-18.958147	37	37	42
-131.623322	-29.529633	-19.022770	37	37	44
-131.178726	-29.523876	-18.941044	39	38	42
-130.102646	-29.523458	-18.922066	38	35	43
-129.260132	-29.530556	-19.005442	38	37	42
-126.931625	-29.545858	-19.178841	37	39	43
-111.232780	-27.434216	8.960353	24	24	28
-84.838486	-30.116089	-26.198536	54	54	72
-84.621994	-30.117411	-26.213306	53	52	70
-84.172012	-30.104206	-26.032953	52	51	63
-83.506454	-30.092707	-25.872480	53	53	67
-82.855743	-30.095129	-25.896399	55	54	67
-82.195518	-30.088205	-25.796530	53	55	63
-81.762909	-30.090967	-25.827656	54	53	65
-81.121239	-30.102602	-25.973608	54	53	71
-80.474274	-30.109154	-26.052206	57	54	70
-79.812599	-30.100298	-25.926754	54	54	67
-79.166389	-30.107813	-26.018126	56	54	68
-78.510109	-30.104448	-25.965414	58	54	70
-78.076996	-30.107048	-25.994394	56	55	67
-77.426918	-30.110596	-26.033213	57	56	69
-76.781708	-30.119984	-26.149376	58	59	71
-76.127258	-30.118641	-26.123434	53	56	72
-75.477837	-30.123390	-26.178150	56	57	71
-75.037933	-30.117935	-26.100471	56	57	70
-74.384468	-30.117580	-26.087624	56	57	70
-73.730171	-30.116070	-26.059444	52	54	69
-73.081947	-30.122623	-26.138079	54	55	72
-72.427254	-30.120504	-26.101833	56	53	73
-71.992577	-30.121517	-26.109819	54	56	70
-71.342186	-30.125416	-26.153278	61	58	75
-70.690331	-30.127302	-26.170092	57	60	73
-68.300674	-30.135500	-26.248713	62	62	76
-67.650963	-30.141411	-26.318792	57	57	73
-66.998009	-30.141853	-26.316490	59	60	73
-66.342514	-30.137547	-26.251328	58	58	74
-65.907448	-30.138119	-26.253452	58	57	73
-65.255814	-30.140894	-26.282022	57	59	72
-64.604851	-30.145168	-26.330452	60	61	78
-63.950153	-30.141745	-26.276968	57	61	74
-63.298141	-30.143915	-26.297544	58	58	76
-62.646458	-30.146965	-26.329765	61	60	76
-62.210613	-30.145769	-26.308475	61	57	73
-59.599915	-30.148466	-26.311541	55	58	68
-58.104546	-30.243645	-27.552326	50	52	58
-57.680599	-30.288136	-28.135765	51	50	58
-56.185081	-30.432053	-30.021505	53	51	60
-55.754913	-30.470812	-30.529026	53	53	63
-138.716171	-29.741390	-19.075724	35	36	41
-138.503403	-29.742277	-19.084764	35	36	40
-137.840820	-29.735966	-18.993586	35	34	40
-135.897339	-29.733141	-18.932400	37	36	41
-135.472473	-29.735149	-18.953562	37	37	41
-111.238716	-27.637486	8.925642	24	24	28
-111.039352	-27.638351	8.916708	24	24	27
-110.272362	-27.657143	8.679152	24	24	25
-109.662216	-27.653856	8.729901	24	24	28
-109.073486	-27.661442	8.637446	25	24	26
-108.466591	-27.659777	8.666840	22	23	27
-107.828865	-27.641968	8.908884	24	24	26
-107.410042	-27.633211	9.029192	23	24	25
-106.601089	-27.630587	9.073701	23	24	26
-85.918427	-30.324667	-26.091562	55	55	71
-77.008194	-30.347336	-26.279425	56	56	72
-76.791824	-30.349087	-26.299767	56	55	72
-76.136536	-30.346992	-26.264130	56	58	74
-75.485771	-30.350349	-26.300217	56	56	71
-73.089035	-30.349319	-26.257036	55	53	72
-72.218277	-30.349815	-26.252789	57	59	72
-72.001030	-30.350554	-26.259789	55	60	73
-71.350784	-30.355013	-26.310400	56	58	77
-70.698051	-30.355944	-26.314543	58	58	76
-70.045265	-30.356764	-26.317261	62	59	78
-69.394600	-30.360983	-26.364698	57	59	77
-68.957634	-30.358690	-26.329151	58	56	75
-57.470192	-30.535076	-28.506147	52	50	58
-57.041630	-30.568901	-28.945578	53	50	58
-56.401657	-30.638283	-29.849876	51	52	59
-56.187717	-30.661278	-30.149570	53	53	62
-55.541580	-30.718287	-30.891096	56	56	65
-55.323238	-30.725342	-30.981165	58	58	69
-54.884190	-30.728634	-31.019012	62	62	69
-138.747910	-29.967291	-19.225616	35	36	39
-138.534760	-29.968073	-19.233215	35	36	41
-137.871155	-29.961411	-19.138069	35	34	42
-137.232437	-29.963985	-19.163870	36	36	42
-136.584839	-29.963228	-19.146072	37	35	42
