-59.674690	2.930283	-14.834996	63	60	76
-59.038761	2.929336	-14.812661	65	68	83
-58.404198	2.928322	-14.844798	48	46	56
-57.771870	2.927176	-14.982252	53	58	64
-57.359787	2.925839	-15.533840	79	82	82
-57.155880	2.925015	-15.933066	96	100	111
-56.744469	2.923522	-16.607307	134	140	145
-56.120483	2.921583	-17.375126	143	148	153
-55.703480	2.920271	-17.900490	144	147	150
-55.493813	2.919674	-18.116037	148	147	152
-55.284351	2.919044	-18.357277	148	151	158
-54.864735	2.917783	-18.840387	149	152	157
-54.653915	2.917208	-19.036932	147	153	155
-54.232155	2.916016	-19.463087	150	153	155
-54.021591	2.915360	-19.723402	149	150	156
-53.599258	2.914092	-20.207895	148	149	152
-52.963531	2.912244	-20.890888	146	150	152
-52.539459	2.910900	-21.432959	148	146	152
-52.326725	2.910268	-21.671484	146	146	153
-51.900673	2.908988	-22.161604	145	149	152
-51.688011	2.908231	-22.498384	150	147	154
-51.475060	2.907467	-22.840187	148	150	153
-51.046753	2.906217	-23.304205	143	149	155
-50.617912	2.904880	-23.835289	142	144	150
-50.188408	2.903435	-24.450052	142	143	151
-49.973156	2.902729	-24.743269	144	145	151
-49.541508	2.901440	-25.233894	145	144	151
-49.325272	2.900822	-25.457605	146	144	150
-49.108837	2.900192	-25.689985	147	146	151
-48.675312	2.898909	-26.173410	142	145	151
-48.458202	2.898258	-26.421873	145	147	156
-48.023266	2.896977	-26.902313	144	149	155
-47.587315	2.895619	-27.440763	145	145	151
-47.368931	2.894929	-27.718475	143	146	150
-46.931450	2.893589	-28.241571	144	145	153
-46.493065	2.892285	-28.735497	143	147	152
-46.273708	2.891690	-28.937765	145	146	154
-45.834053	2.890414	-29.408012	144	144	149
-45.613815	2.889760	-29.655392	144	145	150
-45.172634	2.888453	-30.147932	144	146	151
-44.730087	2.887077	-30.692892	145	147	150
-44.508488	2.886400	-30.956882	144	145	150
-44.286518	2.885705	-31.233938	140	142	150
-43.841846	2.884324	-31.780544	139	141	147
-43.172989	2.882265	-32.587601	141	142	148
-42.724590	2.880764	-33.223690	140	145	152
-42.501255	2.880149	-33.436710	141	148	155
-42.278576	2.879619	-33.583969	145	147	160
-42.056236	2.879135	-33.696030	148	151	164
-41.390953	2.877887	-33.874340	160	168	176
-40.730553	2.877062	-33.727127	160	169	176
-40.066982	2.875976	-33.780807	157	160	172
-39.624401	2.875244	-33.822781	155	162	171
-135.781830	2.847993	-7.440889	142	148	150
-135.324890	2.847634	-7.248244	141	145	149
-134.685349	2.846774	-7.181645	156	160	162
-133.664948	2.845013	-7.295120	160	165	166
-133.466187	2.844621	-7.344664	155	169	166
-132.625626	2.843387	-7.315654	150	161	158
-132.416199	2.843073	-7.311915	153	160	157
-131.573410	2.841857	-7.270676	155	163	161
-130.955215	2.840841	-7.310633	148	162	152
-129.905472	2.839295	-7.277192	147	156	155
-129.071243	2.838016	-7.279064	157	156	159
-128.641342	2.837476	-7.212216	156	158	157
-126.366951	2.833803	-7.322080	154	164	159
-124.897644	2.831643	-7.272871	158	164	164
-124.065475	2.830348	-7.285460	156	166	160
-123.856293	2.830034	-7.282180	155	166	158
-123.020714	2.828768	-7.275442	151	159	162
-91.665169	2.767612	-14.742015	29	30	32
-85.987480	2.758002	-15.265725	33	32	36
-85.352623	2.756995	-15.286299	33	34	37
-81.751617	2.751342	-15.368620	32	31	34
-81.121513	2.750225	-15.455265	32	33	34
-57.568134	2.714402	-15.342379	56	58	58
-56.741718	2.711182	-16.448874	136	139	145
-51.260418	2.691328	-22.936806	145	147	151
-50.617439	2.689017	-23.687689	145	147	155
-48.023617	2.679495	-26.829830	145	149	158
-44.952454	2.668609	-30.330458	142	145	148
-42.058716	2.658517	-33.535652	148	154	169
-133.644196	2.636855	-7.188067	157	162	165
-126.146477	2.625268	-7.253689	160	165	165
-125.519241	2.624329	-7.245817	156	162	161
-122.608345	2.619768	-7.299157	148	159	155
-88.325035	2.549427	-15.294695	30	31	39
-87.689751	2.548422	-15.310340	31	31	41
-87.266212	2.547752	-15.320901	30	31	34
-86.624710	2.546896	-15.266942	35	33	45
-84.720680	2.543834	-15.336162	37	38	47
-80.475945	2.537371	-15.330621	35	34	44
-78.986740	2.535223	-15.276180	38	37	49
-78.566177	2.534460	-15.329856	38	43	50
-77.931686	2.533425	-15.359684	42	42	56
-77.292809	2.532528	-15.325260	45	47	61
-76.865868	2.531965	-15.285832	46	47	61
-76.230553	2.530957	-15.303094	47	47	58
-74.955719	2.529084	-15.271369	45	44	60
-74.321106	2.528050	-15.300467	43	45	58
-68.380653	2.519052	-15.271979	56	57	69
-68.169693	2.518675	-15.296229	56	56	66
-67.533569	2.517699	-15.299031	53	52	61
-67.109344	2.517055	-15.297572	50	50	57
-66.476791	2.515893	-15.384792	51	52	59
-65.840714	2.514908	-15.391232	53	52	58
-65.204643	2.513922	-15.397905	56	59	62
-64.565765	2.513101	-15.330117	59	60	69
-63.929585	2.512128	-15.331120	63	62	68
-63.298676	2.510822	-15.483490	54	56	63
-62.660194	2.509988	-15.421188	59	58	60
-62.233997	2.509478	-15.359427	55	59	67
-61.597347	2.508539	-15.344930	66	64	76
-60.534912	2.507091	-15.268538	76	77	99
-60.323082	2.506753	-15.274998	87	83	105
-59.474640	2.505493	-15.259569	79	83	98
-59.051231	2.504794	-15.283164	81	80	93
-58.202652	2.503554	-15.258852	55	57	67
-53.598431	2.485641	-20.084793	147	149	152
-52.961590	2.483398	-20.648478	147	150	152
-46.932808	2.457640	-27.988018	141	144	148
-46.275520	2.455114	-28.663483	146	147	156
-43.623009	2.444146	-31.730844	139	143	148
-42.282909	2.438563	-33.299133	145	150	165
-42.060390	2.437919	-33.434341	150	155	172
-41.616825	2.436919	-33.577366	155	164	175
-40.954556	2.435930	-33.568222	160	166	176
-40.734329	2.435671	-33.533730	162	167	178
-39.849655	2.434130	-33.618687	160	167	177
-39.628647	2.433770	-33.628994	159	165	175
-39.410172	2.433707	-33.508797	155	160	169
-134.657074	2.430498	-7.035256	147	156	161
-133.821335	2.429246	-7.027805	153	164	163
-133.620605	2.428834	-7.066832	153	164	161
-132.779282	2.427651	-7.031430	153	159	161
-132.363434	2.427001	-7.037757	152	161	158
-131.321091	2.425409	-7.039754	154	158	154
-131.121323	2.424981	-7.084794	158	154	158
-130.282547	2.423769	-7.061299	150	159	150
-129.873871	2.423027	-7.105169	148	153	152
-128.825546	2.421512	-7.075909	152	155	155
-128.615036	2.421221	-7.065550	152	159	162
-127.756096	2.420278	-6.932717	151	161	157
-127.544434	2.420003	-6.915586	153	159	155
-126.336433	2.417526	-7.148277	153	157	154
-126.122208	2.417285	-7.117311	155	161	162
-125.489342	2.416432	-7.077346	158	164	157
-125.077721	2.415723	-7.107290	155	164	160
-124.029213	2.414218	-7.074218	156	159	160
-123.822617	2.413875	-7.084941	154	158	157
-122.987549	2.412620	-7.078990	151	162	157
-122.583603	2.411801	-7.153680	147	153	155
-105.471985	2.442762	13.613052	16	17	18
-91.286865	2.342115	-15.191734	30	30	36
-91.081413	2.341614	-15.260238	30	29	33
-90.869942	2.341271	-15.268097	31	29	35
-90.653435	2.341061	-15.224537	31	31	36
-89.848495	2.338578	-15.683033	36	37	49
-89.651375	2.337837	-15.843755	34	37	53
-88.761917	2.337641	-15.421958	38	36	43
-88.339012	2.336946	-15.440413	31	33	33
-87.282928	2.335173	-15.501144	37	34	45
-87.069321	2.334887	-15.486851	34	33	46
-86.427483	2.334062	-15.431540	42	41	59
-86.010277	2.333194	-15.516342	44	45	59
-84.941971	2.331785	-15.437493	42	44	55
-84.728424	2.331502	-15.422440	42	45	54
-83.884254	2.330053	-15.482359	42	41	49
-83.464424	2.329252	-15.541092	38	38	42
-82.408539	2.327447	-15.613628	35	36	38
-82.195061	2.327162	-15.599228	35	36	38
-81.557030	2.326227	-15.586046	34	36	38
-81.135315	2.325478	-15.624959	35	34	39
-80.054787	2.324538	-15.368373	36	35	40
-79.840065	2.324306	-15.333980	39	35	42
-78.995796	2.322847	-15.397448	38	36	47
-78.575890	2.322031	-15.462160	41	43	51
-77.514755	2.320412	-15.463367	51	51	69
-77.301598	2.320126	-15.449722	49	51	63
-76.661423	2.319298	-15.396442	47	49	47
-76.238716	2.318582	-15.422706	47	45	44
-75.173409	2.317150	-15.353799	46	45	52
-74.962898	2.316756	-15.380733	46	46	52
-74.119247	2.315240	-15.465427	43	41	46
-73.687401	2.314930	-15.339044	46	45	48
-72.627785	2.313263	-15.358741	49	49	55
-72.414833	2.312979	-15.344430	52	53	61
-71.777367	2.312062	-15.325073	65	65	85
-71.354240	2.311360	-15.346191	69	71	84
-70.295174	2.309662	-15.377450	55	55	56
-70.083588	2.309310	-15.388480	48	46	48
-69.231445	2.308216	-15.314653	43	46	46
-68.807709	2.307544	-15.324604	48	47	58
-67.752823	2.305596	-15.449343	47	48	53
-67.540047	2.305311	-15.435411	47	48	52
-66.903069	2.304376	-15.422894	44	46	52
-66.481613	2.303551	-15.489868	45	47	54
-65.424835	2.301662	-15.591965	49	47	53
-65.212448	2.301352	-15.587263	50	47	55
-64.359840	2.300335	-15.485184	55	54	63
-63.935890	2.299664	-15.494594	56	51	60
-62.879528	2.297702	-15.623989	51	53	53
-62.666134	2.297475	-15.588255	49	46	49
-62.029537	2.296510	-15.586788	56	57	69
-61.603134	2.296043	-15.520420	59	59	70
-60.540985	2.294567	-15.469476	64	64	76
-60.329208	2.294212	-15.481421	68	69	78
-59.481094	2.292886	-15.494481	64	64	70
-59.057323	2.292191	-15.512736	57	58	60
-57.997307	2.290509	-15.537901	51	51	54
-57.786263	2.290053	-15.586925	49	51	50
-57.154953	2.288408	-15.836332	84	91	99
-56.736893	2.286865	-16.166504	134	135	139
-56.321987	2.284769	-16.700407	144	145	154
-55.488716	2.280627	-17.747429	149	153	154
-54.650333	2.276673	-18.723000	151	154	156
-54.440144	2.275684	-18.966841	148	150	156
-54.230076	2.274624	-19.236794	146	151	155
-53.173416	2.269894	-20.374237	149	150	152
-52.961090	2.269031	-20.570911	150	152	154
-52.537632	2.266812	-21.144400	150	150	157
-52.111900	2.264951	-21.586432	147	149	153
-50.831093	2.258653	-23.170866	145	151	154
-50.402542	2.256307	-23.788080	144	144	150
-50.187397	2.255393	-24.001760	140	147	150
-49.324665	2.251821	-24.824869	144	146	154
-48.892181	2.249896	-25.286583	145	148	151
-48.241795	2.245791	-26.421478	148	148	155
-48.024323	2.244779	-26.669731	148	149	157
-47.370434	2.241706	-27.426657	145	145	149
-47.151985	2.240687	-27.676807	143	142	147
-46.933414	2.239780	-27.886053	145	143	149
-46.495655	2.237960	-28.306568	145	150	154
-45.836578	2.234757	-29.108141	146	148	153
-45.175095	2.231520	-29.920620	141	143	149
-44.734020	2.229797	-30.303947	141	144	151
-44.290600	2.227566	-30.870850	141	142	149
-44.068428	2.226436	-31.159533	141	144	149
-43.177292	2.221996	-32.283012	140	146	149
-42.953320	2.220766	-32.607204	141	146	151
-41.397854	2.216017	-33.474842	160	166	176
-40.074177	2.214130	-33.428646	163	170	174
-134.383835	2.222878	-6.712369	150	155	161
-105.223328	2.245503	13.974905	16	17	18
-89.683174	2.124447	-16.171906	37	37	49
-55.903835	2.070211	-17.089149	148	152	157
-55.486885	2.067873	-17.616478	147	154	158
-53.596832	2.057625	-19.898979	145	149	155
-52.325027	2.051016	-21.345839	149	151	153
-51.685863	2.047750	-22.056040	143	150	154
-49.971420	2.038943	-23.975187	145	147	148
-48.459217	2.030328	-25.929893	143	148	150
-46.277122	2.018907	-28.438072	145	147	150
-45.616959	2.015032	-29.326561	147	148	150
-44.513817	2.009698	-30.458448	138	141	149
-43.846695	2.005625	-31.405172	141	140	149
-43.401558	2.003253	-31.929770	141	142	149
-134.171371	2.014552	-6.688688	150	155	157
-132.925339	2.012585	-6.710391	155	158	154
-131.671844	2.010747	-6.694361	151	155	150
-127.506340	2.004405	-6.703793	152	159	159
-121.990067	1.993720	-7.331109	146	149	154
-89.871536	1.913157	-15.912773	35	35	47
-86.620613	1.910874	-15.203751	45	46	54
-85.983749	1.909923	-15.200185	55	54	61
-85.346680	1.908982	-15.193913	50	48	55
-84.698280	1.908527	-15.052492	46	48	53
-84.059990	1.907651	-15.028181	49	48	51
-83.421967	1.906767	-15.006129	43	43	48
-82.997330	1.906148	-14.999712	41	42	46
-82.367477	1.904896	-15.080000	42	43	44
-81.736282	1.903696	-15.145643	42	41	43
-81.096092	1.902915	-15.095037	41	42	46
-80.470543	1.901431	-15.239147	40	41	44
-79.827583	1.900790	-15.149879	41	41	45
-79.187836	1.900001	-15.101805	44	41	48
-78.555618	1.898830	-15.159119	43	44	46
-77.076790	1.896264	-15.247005	48	48	51
-76.863930	1.895983	-15.236012	48	48	49
-76.226799	1.895062	-15.224224	45	45	48
-75.581192	1.894632	-15.077282	44	43	48
-74.944740	1.893689	-15.071757	45	45	48
-73.894768	1.891460	-15.243420	45	44	49
-73.680511	1.891272	-15.206765	45	44	49
-73.046494	1.890167	-15.245836	46	45	51
-71.774261	1.888217	-15.252302	52	52	54
-71.349686	1.887601	-15.244946	54	55	54
-70.710228	1.886864	-15.183073	52	51	54
-70.074066	1.885901	-15.182848	45	46	49
-68.804459	1.883771	-15.238798	47	48	52
-67.108131	1.881191	-15.241918	47	49	53
-66.471298	1.880288	-15.225662	57	56	61
-56.110767	1.858959	-16.742210	149	149	154
-54.225227	1.848321	-18.833633	149	151	154
-51.259441	1.829802	-22.603073	144	147	155
-50.616337	1.826449	-23.242561	145	148	153
-49.970871	1.823569	-23.753914	144	145	150
-49.755558	1.822422	-23.974569	146	151	153
-49.324345	1.820047	-24.437078	145	148	154
-48.676052	1.815743	-25.330044	143	146	148
-48.459450	1.813786	-25.767708	143	148	152
-48.025093	1.810917	-26.361837	146	149	152
-47.589687	1.808326	-26.880913	145	146	153
-47.153072	1.805417	-27.484978	142	145	150
-46.934544	1.804246	-27.710876	145	150	154
-46.497040	1.802102	-28.109001	147	148	152
-46.277908	1.800954	-28.328304	148	147	151
-45.838642	1.798399	-28.836056	150	150	155
-45.618385	1.796957	-29.133945	149	149	151
-45.398033	1.795629	-29.401197	147	147	149
-44.957661	1.793543	-29.782539	139	142	149
-44.736694	1.792257	-30.038134	139	139	152
-44.514732	1.790634	-30.384016	138	140	150
-44.292137	1.788882	-30.764317	140	143	149
-43.847458	1.786001	-31.357615	141	142	148
-43.402500	1.783421	-31.869667	141	141	149
-43.179314	1.782020	-32.155350	140	141	146
-42.956070	1.780688	-32.422562	142	143	148
-42.287491	1.777462	-33.017471	146	147	159
-42.065372	1.776695	-33.133194	150	154	167
-41.400753	1.774989	-33.321190	158	167	175
-40.735718	1.773309	-33.502029	161	170	177
-40.077602	1.773176	-33.270119	160	168	175
-39.637569	1.772756	-33.203812	159	168	178
-134.370407	1.806980	-6.638961	145	150	155
-134.157547	1.806752	-6.616703	144	146	157
-133.975800	1.805922	-6.748760	149	154	161
-133.575684	1.804966	-6.832189	151	163	162
-133.129990	1.804901	-6.688006	160	164	159
-132.911758	1.804779	-6.638605	157	160	160
-132.511505	1.803825	-6.721684	153	162	161
-132.311127	1.803351	-6.762240	150	157	159
-131.881439	1.802977	-6.696948	152	157	157
-131.657547	1.802972	-6.617847	153	155	157
-131.031647	1.802046	-6.613335	153	159	158
-130.641266	1.800885	-6.749049	155	159	158
-130.427078	1.800688	-6.719112	151	156	163
-130.205414	1.800644	-6.650144	152	153	162
-129.987213	1.800530	-6.598947	153	152	160
-129.367203	1.799484	-6.624811	146	155	152
-128.760696	1.798158	-6.722406	144	150	149
-128.136230	1.797201	-6.725765	153	155	154
-127.925087	1.796944	-6.710993	158	159	160
-127.495438	1.796587	-6.641608	152	160	158
-126.860977	1.795846	-6.590223	157	163	160
-126.252625	1.794548	-6.680236	153	156	163
-125.610832	1.793967	-6.587905	155	163	159
-124.984894	1.793048	-6.581816	155	165	162
-124.378204	1.791706	-6.683035	155	158	157
-123.748367	1.790871	-6.655464	151	156	157
-123.343552	1.789978	-6.722198	154	159	162
-123.147011	1.789400	-6.789144	156	155	163
-122.537605	1.788102	-6.878833	147	150	154
-121.517807	1.786020	-7.007628	145	152	147
-99.671585	1.652220	-30.953302	11	12	13
-87.936928	1.698840	-15.670367	30	30	36
-87.722038	1.698630	-15.643292	27	28	27
-87.255730	1.699867	-15.182122	33	33	31
-86.578529	1.700779	-14.722706	55	54	60
-85.935043	1.700177	-14.634892	68	69	71
-85.727715	1.699641	-14.687761	69	68	71
-85.304466	1.698972	-14.694848	68	67	70
-84.442299	1.698399	-14.521766	66	67	66
-83.811264	1.697217	-14.576207	66	65	71
-83.598518	1.696941	-14.565319	65	63	67
-82.530815	1.695779	-14.458476	62	65	67
-82.323143	1.695245	-14.510792	63	64	68
-81.910820	1.694010	-14.656204	63	59	66
-81.699600	1.693655	-14.664754	63	62	67
-81.268715	1.693398	-14.571450	61	62	65
-81.055771	1.693138	-14.556763	62	63	67
-80.642967	1.691904	-14.701830	62	61	66
-80.436844	1.691266	-14.779410	60	60	63
-79.795769	1.690603	-14.706860	60	64	67
-79.155983	1.689880	-14.649224	65	63	70
-78.521332	1.688866	-14.662319	63	62	70
-78.104118	1.687839	-14.756614	62	63	72
-77.469597	1.686808	-14.774029	67	68	73
-76.835838	1.685726	-14.803623	63	65	72
-76.199905	1.684779	-14.800600	65	68	68
-75.126701	1.684085	-14.580342	64	65	71
-74.917915	1.683564	-14.629172	64	66	70
-74.710991	1.682915	-14.709202	65	66	70
-74.295547	1.681710	-14.846516	66	65	71
-73.658554	1.680837	-14.825219	66	64	68
-73.025536	1.679684	-14.872044	65	65	71
-72.603943	1.678880	-14.911950	66	66	68
-71.968102	1.677923	-14.911129	67	69	74
-71.328957	1.677223	-14.848114	70	72	75
-70.691605	1.676397	-14.815837	68	69	73
-70.053688	1.675626	-14.770043	66	65	72
-69.421494	1.674384	-14.838413	63	65	70
-68.786850	1.673339	-14.858858	68	69	73
-68.153145	1.672205	-14.900872	67	70	75
-67.731842	1.671336	-14.956160	67	70	74
-67.092010	1.670765	-14.862416	68	69	74
-66.453560	1.670086	-14.794593	77	77	80
-65.824348	1.668486	-14.949047	69	67	76
-65.188644	1.667527	-14.948861	69	72	75
-64.551697	1.666706	-14.915241	74	74	79
-63.916531	1.665695	-14.927741	75	80	84
-63.281715	1.664638	-14.950960	70	73	74
-62.856003	1.664239	-14.893195	72	69	75
-62.226215	1.662537	-15.071548	70	69	76
-61.587971	1.661908	-14.991957	73	74	76
-60.951206	1.661105	-14.954368	70	68	74
-60.320492	1.659416	-15.129229	73	72	76
-59.682365	1.658818	-15.042423	69	69	75
-59.046524	1.657883	-15.036396	67	70	73
-58.406963	1.657615	-14.870660	72	73	76
-57.774475	1.656102	-15.003267	84	85	87
-57.356110	1.654397	-15.258052	97	100	107
-56.730854	1.651154	-15.804186	143	144	151
-56.524235	1.649602	-16.098751	145	146	152
-56.109570	1.646626	-16.656921	146	149	154
-55.692150	1.644056	-17.117586	152	152	157
-55.483379	1.642702	-17.364279	152	152	156
-55.065308	1.639942	-17.869967	156	153	156
-54.855267	1.638737	-18.080805	152	153	156
-54.433086	1.636765	-18.397795	150	152	156
-54.222572	1.635532	-18.615185	146	149	154
-53.804020	1.632045	-19.293427	151	150	154
-53.594696	1.630147	-19.669212	148	146	151
-53.171986	1.627453	-20.157471	151	152	155
-52.959721	1.626321	-20.350197	151	152	158
-52.537281	1.622922	-21.005880	145	147	152
-52.325302	1.621349	-21.303562	144	144	154
-52.112160	1.620191	-21.502169	146	146	155
-51.685558	1.617734	-21.932777	148	146	154
-51.472485	1.616197	-22.221325	147	149	155
-51.259079	1.614690	-22.502781	143	147	155
-50.615555	1.611467	-23.037685	146	149	154
-49.324459	1.603981	-24.352736	147	148	153
-48.025490	1.594331	-26.178844	145	148	154
-42.511482	1.558264	-32.768204	146	148	154
-38.766247	1.552953	-32.686398	152	156	154
-128.730255	1.590805	-6.557946	152	149	153
-123.119400	1.582022	-6.628557	150	160	152
-122.505211	1.580811	-6.689536	146	159	151
-121.252396	1.579006	-6.672098	142	149	147
-87.661369	1.489421	-14.970732	29	28	28
-86.973526	1.491094	-14.394043	40	42	46
-86.520592	1.491970	-14.062459	70	70	75
-86.298279	1.492206	-13.941084	79	81	81
-85.871803	1.491743	-13.902714	85	89	90
-85.248940	1.490159	-14.040242	88	86	89
-85.034943	1.489969	-14.012150	89	89	87
-84.819199	1.489874	-13.963067	88	88	86
-84.178223	1.489264	-13.887568	85	89	88
-83.553520	1.487755	-14.008427	88	88	87
-82.909157	1.487349	-13.888321	82	89	89
-82.273201	1.486475	-13.870344	88	89	89
-81.438385	1.484533	-14.016057	87	85	88
-81.007912	1.484340	-13.919197	87	88	87
-80.177544	1.482091	-14.131636	84	87	83
-79.747620	1.481876	-14.039677	83	87	87
-79.534180	1.481676	-14.013781	83	87	86
-79.323372	1.481310	-14.024108	85	89	89
-78.687614	1.480426	-14.008491	87	90	90
-78.268974	1.479494	-14.072477	87	88	91
-77.636940	1.478358	-14.111752	92	93	92
-77.424042	1.478129	-14.092289	89	95	93
-76.583130	1.476477	-14.174227	87	95	93
-76.159950	1.475837	-14.174737	88	93	93
-75.514771	1.475638	-14.010294	88	92	95
-74.049355	1.472236	-14.264629	91	94	94
-73.836960	1.471977	-14.251738	91	96	91
-72.782234	1.470109	-14.311262	89	94	93
-72.571823	1.469689	-14.333103	92	94	93
-71.722359	1.468657	-14.280492	94	94	99
-71.296799	1.468221	-14.236842	95	98	98
-70.238449	1.466662	-14.229296	96	95	97
-70.024811	1.466532	-14.188620	94	94	96
-69.181282	1.464998	-14.244507	90	93	95
-68.757751	1.464396	-14.236840	94	96	97
-67.705048	1.462272	-14.351627	94	98	98
-66.852417	1.461658	-14.208902	96	96	94
-66.428642	1.461096	-14.192734	95	97	97
-65.374886	1.459045	-14.291378	97	98	97
-65.163597	1.458692	-14.298809	94	100	98
-64.317970	1.457332	-14.317106	97	101	97
-63.895916	1.456553	-14.347622	95	98	98
-62.624718	1.454874	-14.297584	96	96	94
-61.995033	1.453189	-14.454341	97	95	97
-61.569683	1.452866	-14.386581	96	96	96
-60.514439	1.450829	-14.481901	96	99	98
-60.304115	1.450291	-14.528911	97	96	99
-59.454273	1.449598	-14.404142	92	95	95
-59.031685	1.448852	-14.427462	94	96	97
-57.765312	1.446269	-14.571267	110	111	116
-57.350590	1.443728	-14.979011	125	127	134
-47.590809	1.374739	-26.533829	143	147	153
-43.850941	1.347835	-31.061075	140	142	144
-42.069416	1.336607	-32.879642	152	154	165
-39.423817	1.332618	-32.880520	156	164	171
-122.050545	1.373243	-6.466577	148	154	157
-88.628212	1.272335	-16.240662	21	20	22
-88.097633	1.277471	-15.096852	21	21	22
-87.835358	1.279921	-14.548626	22	22	22
-87.575531	1.282265	-14.021441	26	25	24
-87.131012	1.282824	-13.784936	37	37	46
-86.239395	1.284173	-13.266457	93	93	98
-86.022659	1.284173	-13.203727	98	99	106
-85.192337	1.282048	-13.373043	99	102	103
-84.766281	1.281621	-13.331805	102	103	108
-83.920494	1.280398	-13.322615	98	103	106
-83.505966	1.279269	-13.420225	103	102	106
-82.649582	1.278713	-13.279379	99	104	105
-82.226822	1.278100	-13.275206	102	107	109
-81.391701	1.276188	-13.401806	99	103	106
-80.962860	1.275976	-13.318560	103	104	110
-80.336136	1.274550	-13.411949	100	105	105
-79.911774	1.274042	-13.386984	102	103	109
-79.065910	1.272835	-13.374630	103	105	107
-78.644585	1.272118	-13.390893	104	105	108
-78.014053	1.270931	-13.437152	103	107	108
-77.166504	1.269853	-13.399505	108	110	111
-76.747513	1.268950	-13.452123	108	111	112
-76.116867	1.267752	-13.500459	107	108	111
-75.264389	1.267084	-13.382418	108	110	114
-75.055687	1.266561	-13.422791	106	111	117
-74.849228	1.265849	-13.500164	106	110	115
-74.435287	1.264493	-13.641834	109	113	110
-73.801926	1.263487	-13.652380	108	114	112
-73.168381	1.262495	-13.660000	108	110	112
-72.533875	1.261590	-13.650821	108	114	114
-71.900238	1.260608	-13.656600	110	114	118
-71.261139	1.260148	-13.560102	111	111	119
-70.633858	1.258554	-13.685662	112	111	117
-69.994469	1.258153	-13.577941	112	111	112
-69.569595	1.257760	-13.530531	106	114	115
-68.937370	1.256649	-13.561592	108	112	115
-68.305573	1.255484	-13.603332	111	115	118
-67.674889	1.254178	-13.672424	110	117	118
-67.039169	1.253442	-13.630077	112	113	115
-66.401299	1.252987	-13.533142	110	116	117
-65.770523	1.251673	-13.603784	110	113	117
-65.137672	1.250605	-13.626325	113	114	117
-64.504364	1.249593	-13.637972	114	116	118
-63.873962	1.248166	-13.730503	114	114	119
-63.449680	1.247779	-13.682265	115	118	118
-62.812054	1.247410	-13.568748	114	115	122
-62.183296	1.245686	-13.718980	113	114	116
-61.549198	1.244781	-13.709898	113	111	120
-60.913433	1.244175	-13.642522	111	115	115
-60.284981	1.242260	-13.829739	112	116	118
-59.647282	1.242041	-13.687282	111	111	111
-59.015408	1.240710	-13.760878	110	111	116
-58.384090	1.239213	-13.866661	117	116	121
-56.105343	1.222726	-16.385159	146	150	157
-55.270309	1.216637	-17.317287	150	150	158
-54.640560	1.212454	-17.941353	150	151	156
-54.010876	1.207534	-18.707514	148	149	155
-53.801346	1.205544	-19.030542	146	149	153
-53.169521	1.200193	-19.879204	147	151	155
-52.957844	1.198656	-20.114096	149	153	156
-52.746647	1.196765	-20.417532	149	151	155
-52.111004	1.191254	-21.295988	148	146	154
-51.897755	1.189909	-21.493464	149	150	155
-51.684597	1.188380	-21.726484	148	155	158
-51.043728	1.183825	-22.419046	149	152	154
-50.614197	1.181896	-22.666525	151	151	156
-49.755650	1.175141	-23.720215	148	149	154
-49.540459	1.173298	-24.013323	149	151	156
-49.324947	1.171540	-24.289711	148	148	157
-48.893101	1.168063	-24.835030	145	147	154
-48.460255	1.164021	-25.489004	144	143	151
-48.026249	1.161265	-25.894604	150	148	155
-47.373459	1.156296	-26.663443	146	146	153
-46.936638	1.152285	-27.310369	145	147	150
-46.717827	1.150389	-27.612488	143	148	149
-46.060726	1.145873	-28.292780	149	150	152
-45.622044	1.143294	-28.663046	147	148	155
-45.402107	1.141735	-28.899929	145	146	152
-44.738998	1.135766	-29.858500	138	142	147
-44.517395	1.133808	-30.171862	139	140	149
-43.631645	1.127868	-31.060547	137	141	145
-43.409077	1.126092	-31.338427	139	141	149
-43.186165	1.124282	-31.622782	142	141	150
-42.738731	1.120328	-32.255672	141	149	151
-42.292053	1.117158	-32.737461	146	151	156
-42.070488	1.116385	-32.822342	153	155	166
-41.182724	1.113058	-33.206623	161	167	173
-40.742222	1.112633	-33.160995	157	167	177
-39.866039	1.113059	-32.824947	158	165	173
-39.645626	1.112733	-32.823982	157	164	172
-133.692612	1.183325	-6.366251	144	153	159
-133.478256	1.183177	-6.335733	157	158	160
-132.829117	1.182902	-6.212815	159	162	161
-132.239899	1.181007	-6.391126	158	160	157
-131.401306	1.179914	-6.362223	150	154	153
-131.182983	1.179881	-6.310467	151	156	158
-130.322083	1.179417	-6.164870	156	166	160
-129.898743	1.178993	-6.127808	154	159	153
-129.103165	1.176704	-6.321140	146	152	158
-128.679932	1.176276	-6.284839	150	152	154
-127.844345	1.175114	-6.268989	151	158	153
-127.438896	1.174176	-6.327166	151	159	157
-126.585190	1.173544	-6.213129	154	159	161
-126.166252	1.173000	-6.198258	158	162	163
-125.347748	1.171340	-6.274716	156	163	162
-124.934647	1.170622	-6.292186	150	158	159
-124.126236	1.168644	-6.427237	151	157	155
-123.695976	1.168443	-6.349105	148	156	158
-123.067085	1.167643	-6.323915	156	160	163
-122.653549	1.166935	-6.339508	149	158	158
-121.811821	1.165975	-6.286506	145	155	149
-121.412628	1.164816	-6.385342	143	151	149
-89.383209	1.053893	-17.473413	20	21	24
-88.629982	1.059684	-16.254271	21	20	22
-88.096504	1.065554	-15.079037	20	21	23
-87.576149	1.070769	-14.022771	24	25	22
-86.862183	1.074716	-13.138709	59	59	76
-86.413498	1.075732	-12.841312	102	105	122
-86.196480	1.075793	-12.773293	114	113	128
-85.982559	1.075662	-12.739914	115	118	134
-85.149803	1.073674	-12.870339	122	121	140
-84.727921	1.073028	-12.872620	118	124	135
-84.299217	1.072837	-12.793260	118	125	138
-83.881958	1.071887	-12.850476	121	125	136
-83.467033	1.070771	-12.937557	119	124	138
-82.614708	1.070070	-12.835921	122	127	138
-82.192062	1.069484	-12.827709	123	128	140
-81.566841	1.067977	-12.928059	124	129	140
-81.144600	1.067356	-12.925972	123	128	143
-80.296852	1.066362	-12.877262	126	128	141
-79.870987	1.066023	-12.824612	123	130	141
-79.656303	1.065990	-12.773693	127	129	143
-79.029373	1.064581	-12.856527	128	130	140
-78.610565	1.063699	-12.901347	130	131	142
-77.770462	1.062117	-12.958275	124	132	144
-77.346870	1.061612	-12.935326	127	131	148
-76.502777	1.060353	-12.934394	134	132	145
-76.081009	1.059700	-12.938012	130	136	143
-75.444611	1.059053	-12.884052	129	131	141
-75.027481	1.057988	-12.961550	127	134	144
-74.196564	1.055508	-13.179101	128	136	146
-73.775131	1.054802	-13.192245	130	135	140
-72.923973	1.054196	-13.074407	130	135	142
-72.500374	1.053713	-13.047566	132	137	144
-71.658722	1.052197	-13.092594	134	136	147
-71.234528	1.051786	-13.052975	133	135	148
-70.397141	1.049793	-13.182966	131	136	144
-69.970299	1.049681	-13.089956	132	134	141
-69.335526	1.048927	-13.055342	130	138	145
-68.912254	1.048442	-13.028980	133	133	143
-68.071060	1.046842	-13.088884	136	139	147
-67.651176	1.045943	-13.136427	134	141	148
-66.801918	1.045348	-13.017043	135	139	150
-66.379272	1.044810	-13.000209	135	141	150
-65.538063	1.043180	-13.065205	135	138	146
-65.118111	1.042261	-13.116364	133	138	147
-64.276077	1.040698	-13.169373	137	140	146
-64.066681	1.040133	-13.213654	135	142	145
-63.218864	1.039460	-13.108444	140	142	150
-62.793316	1.039424	-13.002419	137	137	154
-61.954144	1.037357	-13.144976	133	134	148
-61.531700	1.036809	-13.130146	138	138	147
-60.689106	1.035286	-13.175986	135	141	144
-60.268585	1.034356	-13.228800	133	138	144
-59.422012	1.033634	-13.132405	130	136	141
-59.002205	1.032523	-13.217457	127	131	138
-58.169315	1.028532	-13.700807	135	140	143
-57.963192	1.026934	-13.927802	141	143	151
-57.757267	1.025230	-14.173741	143	146	151
-57.137604	1.020239	-14.889494	145	147	156
-56.723824	1.016771	-15.391347	148	150	153
-56.102428	1.011222	-16.204998	146	152	157
-55.686699	1.007570	-16.738827	150	152	154
-55.477882	1.005934	-16.971865	152	151	155
-54.848984	1.001433	-17.599018	152	149	157
-53.379124	0.988676	-19.458752	147	151	153
-50.614002	0.966875	-22.570013	150	152	155
-48.243668	0.945615	-25.690269	148	148	152
-47.591946	0.941869	-26.178358	149	149	151
-40.526646	0.893232	-32.882793	157	164	175
-38.990829	0.892986	-32.520599	153	157	166
-130.295624	0.972425	-6.024296	156	159	159
-129.882080	0.971725	-6.037523	151	155	162
-128.220093	0.969164	-6.050079	148	151	156
-125.937187	0.965568	-6.079934	155	157	162
-120.815758	0.955059	-6.543017	140	147	142
-98.202492	0.850054	-18.095835	11	12	12
-88.880127	0.845036	-16.649509	20	21	22
-88.360558	0.850511	-15.635272	20	21	24
-87.827339	0.857019	-14.449990	21	22	21
-86.827911	0.866003	-12.750181	70	72	88
-85.329781	0.865283	-12.503760	139	144	156
-84.066460	0.863259	-12.525715	138	140	158
-83.440094	0.861854	-12.601831	136	142	157
-82.801575	0.861349	-12.528955	141	149	159
-82.378716	0.860806	-12.514431	141	148	161
-81.747215	0.859781	-12.527677	146	150	161
-81.124596	0.858050	-12.657576	143	146	166
-80.487747	0.857439	-12.602166	145	153	163
-79.208748	0.856710	-12.410393	143	151	160
-78.584068	0.855109	-12.518538	148	153	163
-77.966103	0.852891	-12.728610	145	156	162
-77.333786	0.851908	-12.734848	147	154	165
-76.697128	0.851323	-12.675301	147	154	164
-76.269432	0.851246	-12.584063	151	156	168
-75.633713	0.850610	-12.533194	151	156	166
-75.007927	0.849018	-12.639665	150	153	168
-73.116051	0.845582	-12.738308	151	157	170
-72.477470	0.845279	-12.632631	153	158	167
-71.852379	0.843514	-12.767425	150	157	165
-71.218864	0.842667	-12.751227	156	158	168
-70.167320	0.840756	-12.806294	150	159	168
-69.530296	0.840347	-12.718174	151	160	170
-68.896637	0.839546	-12.694606	155	162	166
-68.262024	0.838880	-12.648643	153	158	169
-67.214798	0.836369	-12.802181	155	162	171
-67.001312	0.836420	-12.742064	156	160	172
-66.365303	0.835983	-12.658730	156	162	172
-65.733925	0.834890	-12.683028	154	157	167
-65.106354	0.833194	-12.805946	156	159	173
-64.684486	0.832589	-12.801832	156	159	171
-63.207211	0.830627	-12.762053	154	166	168
-62.781101	0.830808	-12.629350	161	160	176
-62.152309	0.829210	-12.736079	157	163	174
-61.519157	0.828417	-12.711165	158	162	171
-60.045864	0.825739	-12.788480	154	163	169
-59.623241	0.825344	-12.750072	156	160	170
-58.578751	0.821366	-13.142161	146	153	155
-54.219284	0.783207	-18.276024	144	147	152
-46.281540	0.712335	-27.849636	146	150	150
-44.521969	0.698356	-29.690870	137	140	147
-42.519012	0.679489	-32.266216	143	150	152
-41.409397	0.674267	-32.844376	160	167	173
-133.402176	0.769802	-5.949302	148	159	160
-132.991562	0.769009	-5.976598	156	162	166
-132.389893	0.767357	-6.089983	156	163	166
-131.137009	0.765638	-6.067741	155	164	154
-129.262833	0.762899	-6.059521	151	157	152
-127.995773	0.761674	-5.959735	150	149	151
-127.395203	0.759943	-6.085341	153	159	156
-126.565704	0.758608	-6.100031	156	160	156
-125.518524	0.757300	-6.062004	148	162	159
-123.004974	0.754208	-5.963642	153	159	162
-122.596985	0.753298	-6.008948	154	159	159
-121.773079	0.751763	-6.055152	144	154	150
-121.364876	0.750854	-6.100331	137	144	152
-98.448128	0.635079	-18.368912	11	11	12
-98.251007	0.633814	-18.514935	11	12	12
-74.373428	0.637566	-12.600101	154	160	174
-73.743317	0.636362	-12.639888	156	162	169
-70.583939	0.631261	-12.698626	158	165	177
-64.047234	0.621756	-12.662690	162	172	179
-60.886742	0.616826	-12.695589	160	169	180
-59.196529	0.615383	-12.533688	157	166	171
-58.372414	0.608898	-13.323930	151	151	154
-58.168442	0.606546	-13.631793	147	148	148
-57.963600	0.604362	-13.914250	147	150	154
-57.757339	0.602521	-14.144736	146	149	149
-57.342926	0.599223	-14.547631	145	148	150
-57.135822	0.597446	-14.768346	148	151	153
-56.722565	0.593352	-15.291127	143	149	155
-56.098717	0.587962	-15.961617	150	150	155
-55.473385	0.582383	-16.660143	149	150	156
-55.055576	0.578574	-17.139193	149	152	158
-54.846394	0.576638	-17.383402	149	151	155
-54.427364	0.572743	-17.874939	148	147	153
-54.217682	0.570705	-18.134407	145	148	152
-54.007988	0.568544	-18.412237	147	152	154
-53.587765	0.564237	-18.965523	148	151	153
-52.955219	0.557892	-19.777569	148	152	154
-52.531487	0.554150	-20.245216	147	146	152
-52.319561	0.552078	-20.509071	145	146	152
-52.107452	0.549951	-20.781279	147	150	153
-51.682201	0.545899	-21.295158	149	149	157
-51.469463	0.543636	-21.587725	146	150	157
-51.043201	0.539041	-22.182915	149	148	156
-50.614338	0.536216	-22.511566	148	150	155
-50.399742	0.534705	-22.690556	149	152	155
-49.970894	0.530227	-23.267551	148	150	161
-49.540867	0.525883	-23.824251	147	149	156
-49.325447	0.523707	-24.103094	146	150	156
-49.109821	0.521322	-24.413271	145	152	155
-48.677689	0.516395	-25.057123	147	151	154
-48.027287	0.511184	-25.694759	145	151	159
-47.592739	0.508099	-26.061106	147	147	153
-47.375080	0.506139	-26.306953	144	146	151
-46.939201	0.502571	-26.745739	143	145	151
-46.720825	0.500552	-27.000240	145	146	151
-46.282875	0.495817	-27.613983	145	150	150
-45.844425	0.491950	-28.096933	144	147	152
-45.624760	0.489910	-28.354490	141	147	151
-45.184235	0.485395	-28.934519	140	142	147
-44.963963	0.483516	-29.167559	137	141	146
-44.743870	0.481985	-29.348366	136	139	144
-44.523617	0.480463	-29.527876	137	139	146
-44.081749	0.476814	-29.977360	135	137	143
-43.859303	0.474175	-30.324150	136	136	140
-43.636120	0.471276	-30.709999	134	137	142
-43.191250	0.467036	-31.247711	135	140	145
-42.744923	0.462569	-31.819170	140	143	150
-42.520245	0.459754	-32.191971	143	145	150
-42.296524	0.457611	-32.464077	144	145	156
-42.074512	0.456433	-32.591404	147	149	163
-41.412033	0.454797	-32.688797	157	166	174
-40.749874	0.453398	-32.750690	160	167	175
-40.094658	0.454635	-32.417965	157	166	176
-39.652802	0.453492	-32.490726	157	166	174
-38.993332	0.452944	-32.425411	150	155	166
-133.768402	0.564408	-5.698512	127	128	139
-133.572952	0.563675	-5.760426	140	149	152
-132.970551	0.562013	-5.867788	156	166	166
-132.366241	0.560406	-5.967018	150	165	165
-131.748428	0.559259	-5.998968	157	163	161
-131.107758	0.558911	-5.914298	155	159	157
-130.458084	0.558891	-5.781779	156	164	160
-129.854019	0.557261	-5.884326	152	159	156
-129.231354	0.556288	-5.890878	155	158	156
-128.585876	0.556141	-5.777058	149	157	157
-127.979874	0.554566	-5.871438	150	154	155
-127.377586	0.552845	-5.987143	153	157	159
-126.769745	0.551316	-6.074633	153	162	154
-126.116943	0.551462	-5.918355	147	157	155
-125.700127	0.550877	-5.913441	151	161	159
-125.101448	0.548993	-6.052623	154	160	158
-124.484795	0.547782	-6.093856	153	157	157
-124.282005	0.547271	-6.123143	149	153	154
-123.856819	0.547003	-6.072119	149	156	155
-123.190269	0.547730	-5.831500	153	159	158
-122.571518	0.546609	-5.859708	150	158	154
-121.963821	0.545047	-5.951952	144	146	152
-121.352386	0.543623	-6.024005	141	150	147
-120.756859	0.541550	-6.190345	136	140	142
-98.684044	0.420437	-18.555479	11	12	11
-98.060806	0.418350	-18.718021	13	11	14
-97.715454	0.412613	-19.449524	12	12	14
-88.612946	0.423321	-16.054512	19	20	21
-87.309975	0.440316	-13.403156	32	35	41
-87.043541	0.444293	-12.790670	57	59	72
-86.571304	0.447619	-12.226562	103	110	128
-85.939240	0.446668	-12.228226	141	145	155
-85.310081	0.445481	-12.263466	143	147	158
-84.683861	0.444042	-12.334534	145	149	162
-84.048569	0.443352	-12.298842	142	154	159
-83.410553	0.442908	-12.228283	144	152	156
-82.988976	0.442294	-12.226423	150	149	160
-82.348892	0.442060	-12.125972	147	152	165
-81.507233	0.440720	-12.138356	150	153	161
-81.302567	0.439858	-12.216411	152	154	162
-81.097992	0.438982	-12.296575	151	152	167
-80.464684	0.438147	-12.281569	153	157	163
-79.829651	0.437484	-12.242171	154	160	169
-79.394577	0.438188	-12.053030	154	156	169
-79.180374	0.438228	-12.002872	152	159	171
-78.548233	0.437332	-11.996719	152	155	170
-76.463539	0.431958	-12.315139	153	160	171
-76.249329	0.432025	-12.261249	154	158	173
-75.193626	0.430723	-12.223765	154	161	175
-74.989342	0.429687	-12.326224	154	164	176
-74.364037	0.427959	-12.438077	156	162	172
-73.729874	0.427249	-12.405437	158	163	176
-73.089890	0.427264	-12.270125	158	165	177
-72.455307	0.426653	-12.223490	160	164	174
-71.833862	0.424370	-12.413898	162	164	179
-71.206795	0.422757	-12.509103	159	165	175
-70.787399	0.421845	-12.549536	159	164	171
-70.147514	0.421957	-12.400626	159	166	171
-69.508606	0.421993	-12.262507	162	169	175
-68.878891	0.420737	-12.307334	165	167	176
-68.245575	0.420010	-12.277213	158	168	177
-67.626411	0.417076	-12.559224	163	172	175
-66.990570	0.416719	-12.476847	161	169	174
-66.356766	0.416062	-12.436811	160	168	178
-65.721550	0.415675	-12.358856	162	165	168
-65.092567	0.414204	-12.433779	163	164	179
-64.669975	0.413809	-12.401119	163	170	184
-64.040092	0.412470	-12.457585	164	169	180
-63.407379	0.411669	-12.437946	166	168	181
-62.769672	0.411932	-12.268393	164	172	183
-62.143257	0.409828	-12.432569	158	165	174
-61.505405	0.410249	-12.240836	162	165	179
-60.884468	0.406721	-12.605522	160	169	180
-60.250832	0.406155	-12.552878	164	172	173
-59.612862	0.406799	-12.329863	163	169	175
-59.191929	0.406110	-12.338717	162	164	174
-56.721130	0.382004	-15.200080	146	150	154
-53.586769	0.351233	-18.856813	145	149	154
-48.677814	0.301011	-24.867943	147	149	154
-48.027657	0.295018	-25.571873	148	151	156
-46.284195	0.279508	-27.380909	145	148	149
-40.097473	0.235347	-32.277267	153	160	176
-120.517014	0.334847	-5.999763	135	136	137
-86.137390	0.237480	-12.079642	135	138	151
-85.926285	0.237205	-12.074615	139	144	155
-84.879150	0.235101	-12.146851	143	146	161
-84.669952	0.234657	-12.164420	143	146	161
-83.822945	0.233793	-12.113090	144	152	159
-83.400688	0.233253	-12.101696	148	151	163
-82.979233	0.232643	-12.099820	147	149	166
-81.086548	0.229526	-12.140413	149	154	168
-80.452187	0.228831	-12.108282	153	154	166
-76.029839	0.222200	-12.117823	159	164	172
-75.604637	0.222048	-12.055036	154	159	174
-73.504906	0.218168	-12.155431	155	165	175
-72.865746	0.218201	-12.026849	159	167	178
-72.446014	0.217397	-12.050685	162	167	175
-69.289688	0.212458	-12.084530	159	165	177
-68.870468	0.211542	-12.123132	166	166	177
-64.451202	0.204591	-12.175236	165	167	182
-62.766483	0.202188	-12.162730	168	171	178
-61.502102	0.200627	-12.121544	162	168	181
-59.188519	0.196670	-12.190457	161	163	172
-58.570686	0.191400	-12.761147	154	156	157
-52.952648	0.131833	-19.477026	145	149	151
-51.254715	0.113624	-21.533821	149	150	153
-49.970840	0.099849	-23.089878	149	153	152
-45.627060	0.055461	-28.063782	140	147	148
-40.318810	0.015827	-32.227127	144	152	183
-39.659637	0.015360	-32.160252	143	149	186
-128.740936	0.143430	-5.491304	149	159	159
-120.090790	0.127034	-5.935005	137	138	138
-74.978477	0.009962	-12.137224	157	161	172
-74.136887	0.008606	-12.150949	155	163	171
-71.608597	0.005034	-12.130301	162	168	175
-70.980774	0.003506	-12.204176	161	165	176
-70.766441	0.003766	-12.133106	158	164	172
-70.131233	0.003385	-12.064246	160	167	172
-66.140877	-0.004372	-12.292743	159	171	177
-65.287506	-0.003395	-12.016917	159	168	177
-64.442146	-0.003897	-11.924704	164	170	176
-64.024773	-0.005280	-12.019076	160	168	172
-62.765362	-0.007948	-12.118261	165	173	179
-61.711414	-0.009131	-12.071964	163	174	181
-61.499763	-0.009134	-12.033689	164	169	179
-61.085598	-0.011577	-12.259283	163	168	177
-60.455044	-0.012829	-12.298569	165	170	177
-60.242695	-0.012627	-12.234949	167	171	173
-59.396904	-0.012739	-12.094687	161	165	179
-59.186741	-0.013145	-12.106431	160	162	174
-57.542656	-0.030503	-13.945222	153	156	158
-57.128571	-0.034519	-14.364422	147	152	155
-55.681000	-0.052413	-16.305132	152	153	158
-55.472416	-0.054626	-16.539711	150	153	156
-54.212444	-0.065732	-17.678288	148	150	155
-54.002457	-0.067984	-17.917444	147	148	154
-52.950932	-0.080656	-19.286930	147	151	151
-51.466488	-0.097165	-21.050158	150	151	156
-50.827286	-0.105141	-21.916340	148	151	156
-50.185452	-0.112922	-22.757954	148	151	153
-49.540718	-0.119497	-23.450396	146	146	153
-49.325485	-0.122097	-23.731422	143	144	150
-49.109989	-0.124732	-24.016777	145	145	151
-47.811405	-0.138622	-25.491314	146	146	152
-47.376545	-0.143660	-26.032665	144	146	145
-46.941093	-0.147398	-26.413858	145	146	149
-45.848217	-0.158299	-27.557623	141	144	145
-45.628094	-0.161718	-27.938681	137	144	144
-45.186848	-0.168420	-28.683998	136	139	142
-44.746548	-0.172615	-29.120493	135	138	139
-43.193871	-0.190923	-31.092949	125	126	131
-42.969231	-0.194751	-31.523617	123	125	129
-42.298359	-0.202789	-32.391579	114	118	137
-42.077221	-0.203648	-32.457119	121	121	161
-40.976357	-0.205025	-32.426159	129	137	184
-40.756847	-0.204986	-32.381351	129	137	183
-40.537823	-0.204735	-32.310516	134	139	187
-39.885277	-0.202180	-31.876810	132	133	189
-39.661514	-0.204129	-32.076176	133	136	174
-132.489609	-0.058867	-5.530047	157	165	165
-132.285767	-0.059341	-5.550087	158	165	162
-131.035995	-0.061061	-5.535808	156	164	161
-130.208450	-0.062448	-5.555061	149	156	156
-129.785782	-0.062757	-5.518534	152	160	158
-129.571198	-0.062769	-5.483124	154	158	157
-128.930634	-0.062935	-5.392596	147	153	155
-128.722839	-0.063239	-5.392304	151	150	159
-127.900963	-0.064865	-5.440359	145	151	155
-127.503220	-0.066269	-5.535321	149	156	150
-126.085320	-0.070077	-5.734807	150	157	156
-125.450478	-0.070483	-5.673160	152	156	158
-125.040062	-0.071339	-5.702246	152	159	158
-123.983490	-0.072063	-5.605235	156	160	161
-123.772346	-0.072213	-5.586439	154	156	159
-122.923569	-0.072603	-5.486281	146	152	157
-122.509514	-0.073283	-5.494306	148	154	152
-121.285797	-0.076220	-5.625805	137	141	143
-120.482841	-0.078829	-5.791346	135	135	138
-120.091118	-0.080627	-5.933123	136	138	141
-85.703239	-0.182888	-11.921054	138	145	159
-84.865936	-0.184632	-11.980118	140	148	160
-84.657478	-0.185158	-12.005502	143	148	161
-83.811005	-0.185989	-11.956996	143	147	159
-83.599518	-0.186207	-11.946046	144	148	160
-82.320343	-0.186387	-11.747725	148	154	167
-81.477661	-0.187541	-11.737403	149	151	173
-81.068893	-0.189516	-11.896779	151	155	166
-80.027115	-0.192322	-12.044196	151	157	167
-79.811928	-0.192101	-11.981735	154	158	172
-78.946449	-0.190580	-11.656584	152	163	174
-78.515327	-0.189955	-11.510057	151	157	171
-75.177834	-0.198669	-11.950499	159	160	173
-74.971992	-0.199620	-12.025700	160	163	176
-74.132370	-0.201228	-12.068685	157	163	172
-73.702621	-0.200609	-11.923023	157	162	176
-72.423729	-0.200053	-11.639246	155	166	176
-71.802124	-0.202451	-11.811367	159	164	175
-71.393608	-0.205026	-12.040497	163	168	179
-70.333809	-0.205391	-11.901200	156	159	173
-70.125526	-0.206066	-11.943931	157	162	171
-69.275665	-0.205917	-11.780997	158	166	172
-68.854446	-0.206459	-11.771748	163	167	174
-67.608017	-0.211327	-12.123722	160	169	177
-66.768143	-0.213023	-12.176889	158	166	173
-66.559433	-0.213707	-12.220510	157	168	177
-66.135223	-0.213701	-12.147160	164	169	176
-65.707657	-0.212960	-11.987690	160	165	174
-63.397400	-0.217525	-12.122157	166	166	180
-62.349281	-0.220230	-12.256844	165	172	178
-62.138046	-0.220365	-12.236298	162	167	177
-60.662045	-0.221904	-12.162129	163	168	176
-60.236507	-0.221137	-12.000064	161	166	178
-58.770748	-0.225827	-12.293714	155	156	161
-58.363823	-0.231623	-12.897470	154	156	157
-57.332825	-0.242638	-14.000733	146	153	158
-56.714985	-0.250708	-14.832518	147	151	152
-56.301682	-0.256061	-15.383623	149	146	153
-55.471054	-0.266352	-16.437059	150	151	156
-54.841831	-0.272061	-16.992544	147	150	155
-54.632107	-0.274183	-17.203194	143	147	155
-53.581467	-0.285528	-18.341421	148	149	155
-52.317886	-0.303271	-20.186487	148	147	153
-51.678749	-0.308530	-20.688042	147	147	154
-51.252533	-0.312890	-21.121649	151	149	156
-50.612701	-0.321125	-21.968805	147	149	155
-50.399067	-0.324201	-22.289642	147	148	153
-49.970592	-0.329778	-22.864204	148	151	154
-48.245518	-0.347797	-24.662308	145	146	151
-48.028866	-0.350857	-24.980692	146	145	153
-46.286934	-0.370496	-26.964186	145	148	151
-45.408813	-0.382216	-28.175423	134	138	143
-44.527542	-0.392321	-29.198629	129	133	136
-44.086269	-0.396577	-29.617496	120	125	127
-43.643307	-0.401581	-30.123047	115	118	122
-42.519848	-0.422117	-32.316647	83	89	88
-133.690475	-0.262516	-5.297615	128	133	147
-133.486404	-0.262982	-5.315794	145	160	159
-132.872620	-0.264313	-5.362907	156	166	163
-132.270798	-0.266182	-5.471007	158	167	164
-131.639969	-0.266766	-5.433120	154	167	163
-131.019913	-0.267830	-5.449829	158	164	169
-127.474106	-0.272374	-5.375866	150	152	156
-126.864395	-0.273930	-5.448270	151	154	158
-126.461739	-0.275155	-5.517812	146	154	154
-123.337242	-0.279339	-5.472387	152	157	155
-122.497498	-0.280115	-5.421920	148	157	157
-121.885735	-0.281608	-5.487087	139	148	147
-121.681175	-0.282076	-5.505385	138	146	144
-98.362244	-0.443319	-19.462606	12	11	13
-86.546722	-0.392182	-11.928113	105	108	128
-82.947105	-0.395257	-11.683918	147	154	164
-82.308228	-0.395332	-11.588770	151	153	166
-81.677094	-0.396267	-11.589512	150	155	167
-79.149033	-0.399550	-11.541443	153	156	167
-76.844986	-0.404268	-11.687464	156	159	170
-76.226799	-0.406997	-11.887586	151	158	165
-73.053734	-0.409176	-11.613848	159	165	175
-72.840057	-0.408960	-11.555519	160	163	173
-72.415070	-0.408879	-11.477795	157	166	173
-71.998909	-0.410210	-11.556883	158	165	172
-68.227943	-0.418542	-11.862864	158	164	173
-58.565884	-0.438699	-12.516184	152	154	157
-57.954128	-0.447769	-13.414522	152	156	163
-56.089867	-0.468361	-15.377138	150	149	155
-52.526932	-0.512110	-19.611263	145	146	150
-52.316071	-0.515559	-19.956364	145	146	150
-48.462147	-0.560549	-24.279892	143	146	149
-47.595238	-0.572077	-25.407137	143	145	150
-46.942547	-0.579566	-26.125008	145	147	152
-44.969658	-0.604916	-28.593340	127	132	137
-44.308018	-0.612561	-29.326927	116	119	124
-43.865929	-0.617479	-29.796183	105	107	110
-43.643642	-0.620745	-30.119297	99	101	104
-43.420105	-0.624809	-30.530033	93	93	94
-43.195198	-0.629664	-31.027487	80	83	81
-42.969028	-0.635127	-31.591574	69	70	69
-42.742764	-0.640253	-32.118626	61	60	59
-42.517914	-0.643990	-32.493114	53	53	53
-42.075050	-0.646156	-32.659641	52	51	50
-41.415569	-0.646134	-32.550552	58	62	58
-40.753925	-0.647488	-32.592396	63	61	57
-40.096733	-0.646536	-32.381390	59	64	58
-39.656288	-0.647182	-32.381100	63	63	62
-39.437267	-0.646943	-32.319443	70	69	68
-130.586884	-0.475055	-5.356263	153	162	166
-126.226181	-0.481520	-5.363087	146	156	152
-125.617409	-0.483165	-5.441530	144	156	152
-124.993141	-0.484024	-5.435575	151	158	155
-124.362404	-0.484546	-5.393435	151	156	158
-121.246330	-0.489076	-5.389001	136	140	140
-119.215981	-0.494707	-5.665721	137	140	136
-98.016869	-0.665023	-20.192337	12	12	13
-97.783745	-0.663805	-20.029491	12	12	13
-86.770790	-0.603722	-12.073152	83	85	106
-86.299667	-0.599023	-11.510687	128	132	150
-85.876526	-0.599386	-11.483754	138	146	158
-85.252235	-0.601062	-11.563044	144	148	158
-84.829224	-0.601436	-11.537280	141	144	159
-82.936081	-0.604253	-11.541383	147	149	167
-80.435638	-0.610998	-11.862295	149	152	169
-79.568871	-0.609020	-11.523171	148	153	168
-76.842766	-0.614211	-11.647384	154	156	169
-76.219383	-0.616269	-11.766740	153	158	172
-75.591011	-0.617634	-11.812901	158	158	171
-74.956940	-0.618147	-11.769320	154	156	170
-74.332825	-0.620195	-11.887526	150	161	171
-73.695923	-0.620246	-11.795319	159	162	177
-73.054634	-0.619527	-11.622085	156	166	177
-72.838737	-0.618914	-11.524972	157	164	174
-72.623230	-0.618350	-11.433139	158	163	173
-71.995049	-0.619714	-11.479310	159	162	171
-71.584129	-0.622014	-11.656361	161	165	170
-71.376678	-0.622834	-11.710191	159	164	170
-70.738091	-0.622402	-11.567346	158	161	172
-70.320992	-0.623667	-11.635429	161	162	172
-70.115501	-0.624881	-11.730641	158	164	174
-69.481644	-0.625278	-11.674994	154	166	173
-68.847275	-0.625539	-11.605133	159	162	176
-68.221611	-0.627537	-11.717860	159	163	172
-67.596970	-0.629820	-11.860366	162	164	171
-66.965179	-0.630627	-11.847825	156	163	177
-66.333267	-0.631395	-11.831197	159	169	181
-65.908287	-0.631040	-11.729077	164	169	178
-65.274429	-0.631282	-11.657339	160	168	177
-65.061646	-0.630986	-11.593859	163	168	172
-64.639473	-0.631196	-11.551047	161	165	176
-64.431770	-0.632146	-11.618441	163	164	180
