-47.614040	-18.852222	-30.830574	54	55	64
-47.394012	-18.863712	-31.056864	54	54	63
-46.067394	-18.951672	-32.797630	59	57	68
-45.403435	-18.970530	-33.162010	59	57	65
-141.574142	-19.240419	-36.337650	16	15	17
-111.881851	-16.583780	17.322987	20	20	20
-111.495689	-16.586451	17.278557	20	19	23
-111.313179	-16.591158	17.188835	21	19	23
-110.745354	-16.598928	17.046829	22	21	23
-110.168579	-16.603935	16.960176	21	21	24
-109.955536	-16.598864	17.066179	22	21	24
-109.536652	-16.590975	17.233086	23	20	22
-108.801277	-16.608799	16.894444	20	22	22
-108.426598	-16.615543	16.768488	21	19	24
-108.227867	-16.615131	16.781256	21	19	24
-108.030266	-16.615095	16.786470	22	21	25
-107.640961	-16.617010	16.757187	21	22	24
-107.438095	-16.615191	16.798126	21	21	23
-107.029808	-16.610630	16.898388	21	20	25
-106.437210	-16.610504	16.914465	21	21	24
-105.829674	-16.605146	17.035173	22	22	23
-105.259926	-16.612965	16.892277	23	21	25
-104.686012	-16.619448	16.776117	22	21	25
-104.489243	-16.619682	16.775940	22	20	24
-104.086105	-16.616701	16.844604	21	20	24
-103.884102	-16.615034	16.882471	21	22	24
-103.488823	-16.614832	16.895521	23	21	25
-103.291122	-16.614702	16.902630	21	21	22
-102.890945	-16.612682	16.952057	21	20	23
-102.694305	-16.612928	16.951637	20	20	22
-102.307503	-16.615828	16.902687	19	20	21
-102.110748	-16.616037	16.902998	20	20	23
-101.708534	-16.613192	16.968941	23	21	25
-101.507324	-16.611708	17.003117	23	21	26
-100.918945	-16.612997	16.990849	24	22	29
-100.333885	-16.615570	16.952894	22	21	25
-99.736717	-16.613464	17.008572	23	23	26
-99.163231	-16.620623	16.878891	22	22	24
-98.530067	-17.768629	-6.001602	30	28	30
-97.914452	-17.772768	-6.070082	36	35	37
-86.202316	-18.844784	-27.181850	13	11	12
-85.819283	-18.876917	-27.813955	11	10	11
-85.640259	-18.900726	-28.284700	11	13	13
-85.049789	-18.941349	-29.081326	15	12	16
-84.406509	-18.950689	-29.252920	16	14	14
-83.929611	-18.926962	-28.768812	16	13	18
-83.672363	-18.903008	-28.285221	15	15	16
-83.140984	-18.843403	-27.084337	16	12	15
-82.128189	-18.752289	-25.244076	10	9	9
-79.417732	-18.377363	-17.704924	19	18	22
-78.771858	-18.374138	-17.625841	17	17	18
-78.375793	-18.396921	-18.071163	17	16	18
-77.066864	-18.377764	-17.659180	15	17	18
-76.408211	-18.364222	-17.374060	15	15	16
-75.984680	-18.367065	-17.421087	15	15	15
-75.778229	-18.372726	-17.529272	16	14	15
-75.161514	-18.392353	-17.906576	16	16	16
-74.742416	-18.399382	-18.037178	18	15	16
-74.515213	-18.388298	-17.810940	17	16	17
-73.454720	-18.395418	-17.928696	17	18	20
-72.381996	-18.391954	-17.835114	20	17	20
-72.162689	-18.386860	-17.728491	19	18	23
-71.511040	-18.376858	-17.514135	22	20	25
-70.888260	-18.394087	-17.843512	25	24	30
-70.254761	-18.401615	-17.979149	23	22	27
-69.212730	-18.885174	-27.599054	16	15	16
-69.015648	-18.908148	-28.052755	15	13	15
-68.602928	-18.935175	-28.582298	15	14	14
-67.772644	-18.987192	-29.600748	17	14	19
-67.327408	-18.979597	-29.439100	15	14	17
-66.887756	-18.978321	-29.403595	14	14	17
-66.202866	-18.944557	-28.714577	14	13	17
-62.349541	-18.400795	-17.782112	15	15	16
-61.688961	-18.368256	-17.118101	16	14	16
-61.066109	-18.396589	-17.668913	15	15	16
-60.421906	-18.389549	-17.513783	17	15	17
-59.997841	-18.394402	-17.600864	15	15	16
-59.351105	-18.381399	-17.326763	16	16	17
-58.928833	-18.389933	-17.487320	15	16	16
-57.679802	-18.461056	-18.877209	21	21	27
-56.847763	-18.521593	-20.065483	47	48	56
-56.637840	-18.533609	-20.300331	50	50	57
-56.009396	-18.577291	-21.157118	51	52	60
-55.799232	-18.591482	-21.435335	54	53	62
-55.588547	-18.604921	-21.698526	53	55	63
-55.376923	-18.616245	-21.919544	55	54	63
-54.952549	-18.637327	-22.330297	54	54	62
-54.528755	-18.663235	-22.837269	56	55	65
-54.316322	-18.675579	-23.078630	56	54	63
-53.889786	-18.696493	-23.485939	55	55	62
-53.462921	-18.719351	-23.932047	56	55	65
-53.249424	-18.731936	-24.178150	58	57	66
-53.035599	-18.744104	-24.415945	58	56	65
-52.607025	-18.767265	-24.868059	58	57	64
-52.392735	-18.780573	-25.128553	55	55	61
-52.178799	-18.797306	-25.457388	53	55	61
-51.964943	-18.816439	-25.834053	54	55	63
-51.750465	-18.833941	-26.178204	55	55	65
-51.319382	-18.860828	-26.704576	58	57	67
-51.103439	-18.874149	-26.965332	56	55	66
-50.454563	-18.918789	-27.840761	59	56	66
-49.802727	-18.957689	-28.601654	57	56	68
-49.148434	-18.990660	-29.244232	56	56	65
-48.273151	-19.043287	-30.273790	57	56	65
-47.834015	-19.069567	-30.787834	57	55	64
-47.614117	-19.081049	-31.011814	55	55	63
-47.173672	-19.103914	-31.457760	56	54	65
-46.731876	-19.134193	-32.051521	57	55	65
-46.288795	-19.165998	-32.675678	58	56	66
-45.845654	-19.186794	-33.080299	58	57	66
-45.624500	-19.191013	-33.159374	58	58	63
-141.742035	-19.449257	-36.065723	15	14	17
-141.531174	-19.452469	-36.124401	15	15	18
-141.142212	-19.467024	-36.403103	15	14	18
-140.710953	-19.471218	-36.476219	15	13	17
-111.722878	-16.792261	17.088905	19	19	23
-111.524132	-16.791832	17.101879	19	21	23
-111.141350	-16.795694	17.034235	20	20	23
-110.949966	-16.797646	17.000017	19	19	21
-110.756752	-16.799011	16.977394	21	21	22
-110.367096	-16.800713	16.952597	21	21	23
-109.961037	-16.797043	17.034237	20	19	23
-109.755539	-16.794376	17.091534	22	20	22
-109.362656	-16.794985	17.088366	22	20	22
-109.176544	-16.798723	17.018724	22	21	23
-108.823265	-16.812609	16.752451	21	21	23
-108.458206	-16.822701	16.561378	21	21	24
-108.263901	-16.823812	16.543774	21	21	24
-107.871964	-16.824923	16.530691	22	21	24
-107.670242	-16.823515	16.563038	22	21	24
-107.250038	-16.814911	16.742474	22	22	24
-107.044640	-16.812185	16.800949	23	22	25
-106.656624	-16.814575	16.762497	22	21	24
-106.458649	-16.814396	16.770485	21	21	24
-106.254829	-16.812174	16.818979	21	22	23
-106.051903	-16.810246	16.861641	22	22	21
-105.855812	-16.810709	16.856905	21	21	23
-105.476746	-16.816284	16.755352	23	21	25
-105.092529	-16.820093	16.688791	24	22	25
-104.893806	-16.819645	16.702127	23	23	25
-104.500534	-16.820238	16.699291	21	20	25
-104.304649	-16.820805	16.692497	22	20	25
-103.907097	-16.819839	16.720524	21	21	25
-103.708267	-16.819330	16.735075	22	21	25
-103.307945	-16.817314	16.783934	21	22	23
-103.105400	-16.815409	16.826124	21	21	24
-102.710175	-16.815226	16.838667	22	20	23
-102.518379	-16.817301	16.801989	23	20	25
-102.324455	-16.818592	16.780867	21	22	24
-102.125931	-16.818159	16.793905	21	22	25
-101.723129	-16.815098	16.863457	24	21	26
-101.523239	-16.814123	16.887224	23	22	26
-101.130486	-16.814833	16.882044	23	22	26
-100.937943	-16.816664	16.850241	24	23	28
-100.553062	-16.820440	16.784313	23	23	27
-100.357407	-16.821098	16.775749	23	22	27
-99.961937	-16.820787	16.790823	23	22	26
-99.763588	-16.820383	16.803259	23	23	27
-99.368584	-16.820232	16.815151	22	22	26
-99.167885	-16.818880	16.846390	23	22	25
-98.768173	-16.816814	16.896217	23	21	24
-98.472488	-17.951651	-5.510916	30	27	30
-98.074516	-17.959564	-5.658222	32	31	33
-93.948868	-18.580103	-17.821215	20	18	21
-93.512154	-18.575979	-17.729918	21	18	23
-89.055573	-18.596268	-18.030107	13	13	13
-88.830757	-18.590467	-17.910500	13	13	13
-86.986763	-18.884773	-23.681614	15	11	14
-86.378189	-19.037416	-26.682709	12	10	13
-85.617859	-19.105545	-28.011139	12	11	13
-85.236946	-19.140343	-28.689816	15	13	19
-85.024963	-19.144819	-28.773438	15	13	23
-84.811111	-19.148190	-28.835182	16	15	23
-81.867424	-18.940315	-24.663128	10	9	9
-80.153038	-18.655535	-18.999847	9	9	11
-79.676682	-18.622189	-18.330492	14	14	18
-79.442078	-18.607691	-18.038881	19	19	24
-78.990898	-18.591009	-17.699217	17	20	19
-78.577011	-18.600948	-17.886175	18	14	17
-77.945320	-18.608290	-18.016943	17	16	17
-77.717247	-18.597698	-17.802597	15	14	15
-77.499268	-18.594559	-17.735666	15	14	15
-77.075836	-18.597692	-17.788029	14	14	15
-76.640068	-18.591331	-17.652542	15	14	18
-76.418747	-18.585381	-17.530037	15	16	17
-76.194717	-18.577202	-17.363438	14	16	18
-75.976601	-18.573587	-17.287136	16	14	18
-74.957588	-18.613682	-18.056017	16	15	18
-74.296799	-18.597460	-17.720743	16	18	18
-74.083458	-18.597767	-17.721979	17	16	17
-73.678467	-18.617205	-18.096752	17	16	17
-73.471046	-18.622849	-18.203564	18	16	19
-73.041008	-18.620895	-18.155277	17	16	17
-72.828011	-18.621696	-18.166307	17	17	19
-72.614594	-18.622133	-18.170113	17	17	20
-71.947777	-18.598734	-17.692904	18	19	21
-71.318192	-18.609562	-17.892569	21	19	24
-71.115753	-18.620455	-18.103149	22	21	23
-70.905128	-18.623581	-18.160118	21	21	23
-70.689735	-18.622070	-18.125422	22	21	23
-70.478401	-18.624552	-18.169682	21	20	22
-69.204605	-19.094229	-27.417389	17	16	19
-68.589142	-19.138124	-28.270487	15	13	14
-67.758888	-19.189974	-29.275791	16	15	17
-67.311737	-19.179651	-29.061846	15	14	16
-66.875458	-19.182005	-29.098476	15	13	17
-66.658218	-19.184326	-29.139414	15	14	16
-66.433861	-19.177834	-29.006119	14	14	16
-65.970772	-19.146044	-28.367836	14	13	18
-64.801239	-19.043060	-26.307438	10	11	12
-62.793499	-18.639299	-18.287615	13	12	14
-62.357388	-18.625875	-18.012634	16	14	15
-61.917221	-18.605040	-17.591166	16	15	17
-60.641315	-18.612942	-17.718464	16	14	17
-60.211342	-18.607256	-17.596476	17	16	16
-59.786648	-18.611179	-17.664400	16	15	18
-59.353703	-18.599003	-17.414137	16	15	16
-58.935997	-18.617212	-17.764343	16	15	17
-58.731544	-18.636103	-18.132835	16	16	18
-58.526379	-18.654230	-18.486233	17	16	18
-58.316902	-18.663671	-18.667973	17	17	17
-58.104511	-18.666969	-18.728334	17	17	19
-57.889137	-18.663576	-18.656443	18	17	18
-57.471333	-18.687273	-19.115046	25	25	34
-57.059998	-18.729454	-19.938881	41	40	51
-56.640053	-18.753141	-20.397266	52	50	55
-56.430855	-18.767984	-20.685711	52	52	61
-56.011803	-18.798208	-21.273174	53	52	61
-55.801849	-18.813314	-21.566805	55	53	63
-55.591354	-18.827658	-21.845360	53	54	62
-55.379734	-18.839333	-22.071150	54	54	63
-55.167259	-18.848961	-22.256521	57	54	63
-54.742649	-18.871237	-22.686920	57	53	63
-54.105061	-18.908054	-23.399706	56	55	64
-53.891411	-18.917721	-23.585810	56	55	64
-53.250767	-18.952908	-24.266304	57	56	65
-52.822826	-18.977617	-24.744713	56	55	65
-52.608501	-18.989922	-24.982887	57	56	64
-52.180496	-19.022177	-25.610273	55	54	60
-51.536728	-19.074108	-26.621429	56	56	66
-50.888638	-19.114437	-27.403343	58	55	67
-49.585506	-19.193153	-28.928654	57	57	65
-48.711708	-19.240480	-29.843697	56	56	65
-48.492733	-19.254574	-30.117079	57	54	62
-48.273491	-19.269119	-30.399435	56	55	62
-48.053970	-19.284224	-30.692787	56	55	63
-47.834179	-19.298487	-30.969551	58	55	63
-47.394001	-19.321272	-31.409637	56	55	63
-47.173561	-19.333324	-31.642704	56	55	64
-46.952770	-19.347563	-31.918949	56	56	65
-46.731625	-19.363192	-32.222656	57	55	67
-46.510223	-19.378273	-32.515514	58	55	65
-46.288673	-19.391783	-32.777367	58	55	64
-46.067093	-19.402872	-32.991390	57	55	65
-45.625076	-19.409523	-33.112770	57	56	64
-112.149193	-16.998722	16.885830	21	20	22
-111.556831	-16.998760	16.898262	21	19	22
-109.585999	-17.000013	16.917664	21	21	24
-109.386284	-16.999249	16.937059	22	19	24
-109.016304	-17.007622	16.781488	19	20	23
-108.287109	-17.028351	16.392227	22	21	23
-107.691376	-17.027407	16.423981	23	20	25
-107.057541	-17.013161	16.716749	23	22	23
-106.075386	-17.015013	16.702398	23	21	23
-105.881943	-17.016445	16.678701	23	21	24
-103.316605	-17.017008	16.724802	22	23	24
-103.117371	-17.016327	16.742546	20	21	24
-102.730782	-17.019413	16.690800	23	21	26
-102.140800	-17.020271	16.687141	23	24	27
-101.736687	-17.016712	16.765778	24	21	27
-101.539146	-17.016647	16.771444	23	22	25
-101.150085	-17.018833	16.737347	22	22	26
-100.956268	-17.020212	16.714676	23	22	26
-100.570709	-17.023806	16.652945	23	22	25
-99.988083	-17.027588	16.591936	23	22	26
-99.585136	-17.024347	16.664307	22	23	28
-99.382401	-17.022202	16.710804	23	22	28
-98.607140	-18.127459	-4.892745	30	28	32
-98.405029	-18.129946	-4.936920	31	28	32
-97.997200	-18.133408	-4.995557	33	31	34
-93.945831	-18.791929	-17.787195	21	19	20
-93.510117	-18.788233	-17.705187	21	18	23
-93.291824	-18.786139	-17.659376	22	19	23
-86.864113	-19.156029	-24.751966	14	11	12
-86.354355	-19.240788	-26.398643	13	13	12
-86.162399	-19.256487	-26.701475	11	11	12
-85.968430	-19.271147	-26.983938	11	11	14
-85.780975	-19.289925	-27.347076	13	11	12
-85.597496	-19.311340	-27.761940	12	13	12
-85.409348	-19.330141	-28.125515	12	12	11
-84.999329	-19.347486	-28.455681	15	13	16
-84.577545	-19.357847	-28.648991	16	16	21
-84.363579	-19.361172	-28.709267	16	16	21
-84.142113	-19.359772	-28.676920	15	14	22
-83.913620	-19.353851	-28.556038	15	14	20
-83.679031	-19.343939	-28.356895	15	13	16
-83.435387	-19.328032	-28.040293	13	11	15
-83.181694	-19.305374	-27.591452	13	12	15
-82.653313	-19.245346	-26.405420	12	11	13
-82.124039	-19.183161	-25.177168	10	10	12
-79.705437	-18.855999	-18.723454	13	13	15
-79.468369	-18.839745	-18.400183	16	16	18
-79.235275	-18.826111	-18.128298	18	18	19
-79.009079	-18.817280	-17.950539	17	19	18
-78.583107	-18.818615	-17.967159	17	15	17
-78.380470	-18.826944	-18.125599	17	15	17
-77.945801	-18.821903	-18.017282	17	16	16
-77.720978	-18.813665	-17.851120	14	14	16
-77.502655	-18.810244	-17.779356	16	15	16
-77.079834	-18.813911	-17.841688	15	13	18
-76.867188	-18.814816	-17.854641	15	13	18
-76.432304	-18.809086	-17.732868	15	15	18
-76.202568	-18.796360	-17.478817	14	15	16
-75.972488	-18.783167	-17.215584	15	13	15
-75.178955	-18.833103	-18.174791	15	15	16
-74.963196	-18.831589	-18.140358	15	15	16
-74.746796	-18.829504	-18.094748	15	16	17
-74.522469	-18.820658	-17.916685	15	18	19
-74.301750	-18.814751	-17.796249	15	17	16
-74.087769	-18.814539	-17.787315	15	15	18
-72.628960	-18.848522	-18.419624	17	17	21
-72.182701	-18.831549	-18.077633	17	20	21
-71.736488	-18.813971	-17.723841	19	18	22
-71.529106	-18.819971	-17.836605	18	18	22
-70.705032	-18.850451	-18.414497	18	16	20
-69.768593	-19.216061	-25.545639	15	14	21
-69.586960	-19.254141	-26.286522	16	15	22
-69.191704	-19.297926	-27.134239	16	15	20
-68.988014	-19.313850	-27.441196	15	16	14
-68.782173	-19.327719	-27.707897	15	14	13
-68.575966	-19.341465	-27.972206	14	12	14
-68.373795	-19.360077	-28.331804	15	12	16
-67.962112	-19.390022	-28.908417	16	14	30
-67.521439	-19.386965	-28.838797	16	15	16
-67.298935	-19.382776	-28.751923	14	13	15
-67.079506	-19.382208	-28.735922	13	13	14
-66.647789	-19.389868	-28.876146	13	13	15
-66.427956	-19.388834	-28.851000	13	12	16
-66.202103	-19.380108	-28.675306	14	13	15
-65.970970	-19.364376	-28.362417	13	13	16
-65.736702	-19.344164	-27.961805	14	13	17
-65.499939	-19.320139	-27.486563	14	12	15
-65.024948	-19.268211	-26.460173	11	11	14
-62.145603	-18.841743	-18.053587	16	16	14
-61.926723	-18.833210	-17.881781	15	14	17
-61.503983	-18.840517	-18.015306	14	14	16
-61.296028	-18.850164	-18.199411	15	14	16
-60.864750	-18.843281	-18.055140	16	15	16
-60.645828	-18.833754	-17.863892	16	15	17
-60.215698	-18.827984	-17.741447	16	16	18
-60.005527	-18.834192	-17.858219	16	16	17
-59.573471	-18.824257	-17.654236	16	16	18
-59.358540	-18.821180	-17.589281	16	16	17
-58.942844	-18.844099	-18.028360	16	16	17
-57.062016	-18.948114	-20.021189	44	41	56
-56.223789	-19.003565	-21.087240	52	51	58
-55.804184	-19.034451	-21.682095	55	52	61
-55.169209	-19.069736	-22.358221	56	55	61
-54.532391	-19.105471	-23.043056	57	55	64
-53.893082	-19.139236	-23.689341	56	55	63
-53.679626	-19.150761	-23.910019	55	55	62
-53.466202	-19.163336	-24.151243	56	55	63
-53.038738	-19.188921	-24.642239	57	56	64
-52.396347	-19.230486	-25.440992	56	55	65
-52.182610	-19.249569	-25.809532	56	56	63
-51.968704	-19.269798	-26.200525	55	55	64
-51.753899	-19.286695	-26.526283	55	56	65
-51.538177	-19.299471	-26.771364	55	54	66
-51.105892	-19.323986	-27.241320	56	57	68
-50.889812	-19.339725	-27.544380	58	56	70
-50.673473	-19.355766	-27.853344	58	57	65
-50.456539	-19.368807	-28.103632	57	55	64
-50.239109	-19.378979	-28.297764	58	55	66
-50.021469	-19.388924	-28.487467	57	57	66
-49.803833	-19.401480	-28.728233	56	56	66
-49.586037	-19.415373	-28.995138	56	54	65
-49.367954	-19.428669	-29.250383	57	55	65
-48.712166	-19.465916	-29.964403	55	56	65
-141.091064	-19.899422	-36.144989	15	14	18
-111.396996	-17.207544	16.666847	21	19	22
-111.191917	-17.205086	16.719002	21	19	22
-110.564842	-17.193678	16.953836	21	21	22
-110.177872	-17.196306	16.911400	21	21	23
-110.000496	-17.203022	16.785179	21	21	23
-109.029526	-17.208626	16.697926	22	19	23
-108.854813	-17.216410	16.550957	22	21	23
-108.104057	-17.230093	16.302322	21	22	24
-107.703278	-17.228222	16.347372	22	23	24
-106.482521	-17.215866	16.613607	20	20	24
-105.709465	-17.221981	16.512114	23	21	24
-105.314407	-17.221998	16.520485	22	21	25
-105.109673	-17.219383	16.575655	21	23	24
-104.134239	-17.223852	16.510481	21	21	24
-103.934181	-17.222914	16.533077	22	20	24
-103.322929	-17.215881	16.682766	23	22	25
-102.943413	-17.221682	16.578728	22	20	25
-102.755775	-17.225410	16.510595	22	22	27
-101.550621	-17.217567	16.689075	23	22	25
-100.771111	-17.221512	16.629757	23	21	27
-100.393646	-17.228390	16.504774	22	22	25
-99.192940	-17.221884	16.657236	23	23	28
-98.987244	-17.218489	16.727556	23	23	27
-93.731102	-19.004896	-17.771240	19	19	22
-93.511078	-19.001947	-17.709274	20	19	23
-93.071739	-18.996315	-17.590485	20	18	22
-87.507820	-19.117861	-19.823317	12	10	14
-87.356079	-19.154413	-20.528233	13	13	17
-87.240372	-19.212307	-21.647444	16	14	18
-87.122704	-19.269693	-22.756830	17	14	17
-86.993126	-19.320723	-23.742746	16	14	16
-86.850548	-19.364635	-24.590496	15	13	14
-86.687561	-19.396912	-25.212288	14	13	13
-86.512375	-19.422256	-25.699551	13	11	14
-86.329109	-19.443035	-26.098122	14	10	14
-83.662117	-19.551308	-28.137440	16	15	16
-82.672142	-19.475277	-26.642500	12	11	12
-82.408546	-19.444862	-26.047371	12	11	12
-82.141457	-19.411695	-25.398844	11	11	11
-81.869942	-19.375093	-24.683653	10	9	9
-81.610153	-19.346024	-24.114651	9	9	8
-79.983955	-19.115284	-19.607985	10	9	12
-78.814323	-19.044592	-18.212521	16	17	17
-78.402504	-19.056700	-18.438065	16	15	17
-77.729660	-19.033449	-17.972790	16	15	18
-77.081131	-19.028080	-17.854486	15	13	18
-76.664726	-19.036953	-18.017263	14	14	17
-76.444374	-19.031803	-17.912624	17	15	18
-75.979187	-19.001423	-17.313755	16	15	16
-75.397469	-19.050192	-18.245914	14	14	15
-74.752205	-19.047342	-18.176533	15	15	15
-74.090073	-19.029633	-17.818830	16	15	17
-73.887527	-19.039454	-18.004658	15	16	16
-73.270424	-19.061367	-18.415693	16	17	17
-72.848312	-19.066780	-18.511314	16	16	19
-71.746674	-19.036739	-17.905010	20	18	23
-71.537804	-19.041437	-17.991444	20	18	23
-70.924149	-19.068897	-18.510040	20	17	23
-69.762794	-19.426697	-25.417427	15	14	21
-66.634964	-19.592150	-28.554586	15	14	17
-66.194450	-19.588537	-28.474888	14	13	17
-65.969368	-19.580385	-28.311972	15	13	16
-65.271942	-19.524710	-27.217873	13	12	15
-65.033310	-19.496763	-26.671103	13	12	15
-64.801674	-19.477755	-26.297695	13	13	14
-61.716831	-19.052147	-17.983122	14	14	16
-61.298191	-19.066866	-18.259115	15	15	17
-60.652073	-19.057854	-18.070265	16	15	16
-60.436146	-19.053591	-17.982929	16	16	17
-60.010128	-19.055725	-18.014927	15	16	17
-59.578861	-19.047564	-17.847298	18	16	19
-59.365467	-19.047752	-17.846275	17	17	17
-58.948456	-19.068653	-18.242073	16	15	19
-58.321602	-19.100233	-18.840202	18	16	19
-58.108562	-19.102303	-18.875628	19	17	17
-57.679535	-19.099659	-18.814972	21	19	22
-57.269810	-19.144938	-19.683308	35	34	57
-57.064770	-19.168745	-20.140108	48	44	58
-56.854843	-19.180902	-20.371078	52	50	59
-56.644691	-19.193064	-20.602091	54	52	60
-56.435230	-19.207739	-20.881830	54	53	61
-56.016277	-19.239393	-21.485981	52	52	61
-55.806145	-19.254572	-21.775459	54	53	60
-55.383869	-19.281223	-22.282612	54	55	64
-55.171284	-19.291012	-22.467598	55	56	62
-54.746128	-19.312546	-22.875502	56	54	63
-54.533966	-19.325869	-23.128979	58	55	62
-54.321350	-19.338430	-23.367714	57	55	61
-54.108082	-19.349361	-23.574846	56	53	62
-53.894733	-19.360775	-23.791306	56	55	62
-53.681580	-19.373880	-24.040571	56	55	62
-53.468372	-19.387804	-24.305658	56	55	63
-53.040966	-19.414614	-24.815735	58	56	64
-52.826843	-19.427780	-25.066166	58	55	64
-52.612637	-19.441780	-25.332706	57	55	64
-52.184872	-19.478008	-26.025303	58	56	64
-51.755550	-19.512886	-26.691658	57	54	65
-49.586613	-19.638420	-29.076393	57	54	65
-47.614426	-19.765280	-31.491137	56	54	61
-47.173405	-19.791113	-31.982021	53	57	63
-46.731445	-19.816690	-32.467888	56	57	66
-46.510197	-19.828344	-32.688850	56	56	65
-46.067642	-19.845306	-33.007774	54	54	61
-112.037567	-17.419767	16.356388	21	19	23
-111.835167	-17.418238	16.390131	20	18	23
-111.431091	-17.415384	16.453699	21	21	23
-111.225273	-17.412687	16.509911	21	20	22
-111.013855	-17.408112	16.602320	21	19	23
-110.583008	-17.396185	16.840628	21	22	24
-110.378532	-17.393837	16.890118	21	19	24
-110.024704	-17.407707	16.631554	21	19	23
-109.844315	-17.413530	16.523689	21	21	23
-109.428802	-17.406612	16.665491	22	21	22
-109.225624	-17.404684	16.706913	22	21	22
-108.860390	-17.414948	16.517860	22	22	23
-108.679077	-17.420576	16.413748	22	20	23
-108.491196	-17.423962	16.352839	22	19	24
-108.302635	-17.427134	16.296055	21	20	25
-107.914604	-17.429712	16.254972	22	22	24
-107.707390	-17.426376	16.323513	21	22	24
-107.271286	-17.411968	16.609526	22	20	24
-107.059448	-17.406891	16.711573	22	21	24
-106.676468	-17.411165	16.637850	19	22	25
-106.491608	-17.415697	16.554882	20	21	25
-105.920181	-17.423367	16.420046	23	21	24
-105.726326	-17.424728	16.398136	21	20	23
-105.326996	-17.423218	16.435783	23	21	23
-105.122086	-17.420528	16.491861	22	22	22
-104.919502	-17.418673	16.531881	21	21	23
-104.529228	-17.420441	16.506409	21	20	23
-104.140045	-17.422634	16.472755	20	20	25
-103.936752	-17.420479	16.518528	22	21	25
-103.730263	-17.417101	16.587839	23	22	25
-103.335289	-17.417089	16.596622	22	22	26
-102.779007	-17.430914	16.343363	22	22	27
-102.164780	-17.422583	16.516588	25	24	27
-101.755234	-17.416893	16.634695	24	22	26
-101.561668	-17.418400	16.609959	23	22	27
-101.174515	-17.421434	16.560108	23	20	26
-100.975090	-17.420649	16.579533	23	22	27
-100.589073	-17.424173	16.520237	22	21	26
-100.402763	-17.428635	16.438650	22	22	25
-100.214035	-17.432156	16.375154	23	23	26
-99.820801	-17.432880	16.369806	24	23	28
-99.617500	-17.430525	16.419409	24	24	28
-99.211639	-17.426058	16.513977	23	23	29
-98.999489	-17.420004	16.634790	24	23	27
-98.599083	-17.417645	16.688738	23	22	25
-98.554169	-18.518368	-4.438274	32	29	32
-97.874237	-18.493160	-3.939688	38	35	39
-93.095268	-19.221394	-17.814190	20	18	23
-88.078072	-19.289454	-19.011690	12	11	12
-87.516220	-19.336966	-19.911474	12	10	14
-87.368378	-19.376158	-20.660543	12	11	16
-87.244133	-19.429625	-21.684147	15	12	16
-84.937988	-19.745533	-27.697851	17	14	19
-84.519814	-19.757919	-27.926517	17	14	13
-83.861847	-19.757019	-27.894979	13	12	11
-83.177284	-19.738396	-27.522669	14	12	11
-80.268539	-19.379133	-20.563622	9	7	9
-80.010574	-19.348436	-19.968798	9	9	10
-79.756798	-19.320343	-19.424046	10	11	11
-79.514130	-19.299944	-19.027231	11	11	14
-79.052109	-19.275475	-18.547529	15	15	14
-78.836212	-19.274206	-18.518496	16	17	15
-78.628090	-19.278734	-18.600874	17	14	15
-78.416504	-19.280703	-18.634077	16	16	18
-78.192123	-19.272995	-18.481264	15	16	18
-77.964401	-19.262611	-18.277023	15	15	17
-77.738983	-19.253851	-18.103952	16	17	15
-77.514038	-19.245323	-17.935394	17	14	15
-77.292656	-19.239450	-17.817858	15	17	15
-77.075851	-19.237085	-17.767769	15	15	15
-76.870049	-19.243401	-17.884521	14	14	16
-76.669304	-19.253843	-18.080624	15	14	16
-76.460655	-19.258083	-18.157471	17	15	16
-75.995247	-19.227428	-17.558952	16	15	16
-75.776497	-19.223228	-17.473598	16	14	15
-75.196243	-19.274261	-18.440569	15	15	15
-74.757507	-19.265167	-18.256472	16	15	16
-74.313644	-19.251293	-17.980539	15	15	17
-74.096024	-19.247959	-17.911835	15	15	17
-73.895828	-19.259989	-18.138378	15	15	16
-73.687134	-19.264627	-18.222887	16	15	16
-73.479263	-19.270082	-18.323101	16	16	16
-73.056107	-19.274469	-18.398115	16	16	16
-72.844574	-19.276751	-18.437292	17	16	17
-72.422607	-19.282455	-18.537651	17	15	17
-72.202263	-19.276493	-18.418440	16	16	18
-71.978043	-19.266712	-18.225838	17	16	18
-71.545540	-19.262125	-18.128391	18	17	22
-71.339012	-19.269321	-18.262041	18	18	22
-71.133392	-19.277546	-18.415455	19	17	23
-70.927948	-19.286093	-18.575050	18	17	22
-70.728043	-19.300409	-18.845501	17	16	18
-70.544228	-19.331421	-19.436775	15	15	14
-67.714104	-19.792242	-28.220686	15	14	15
-67.276672	-19.792210	-28.210554	17	14	18
-67.058815	-19.793236	-28.225529	17	15	18
-66.624512	-19.797132	-28.290884	18	15	18
-66.406136	-19.797567	-28.294487	18	15	18
-65.512642	-19.772486	-27.793680	14	12	13
-65.045273	-19.730486	-26.977354	14	12	13
-61.937862	-19.277365	-18.212418	14	14	16
-61.513668	-19.282869	-18.308895	14	15	17
-61.091160	-19.291679	-18.468803	17	15	16
-60.445061	-19.283007	-18.288321	15	15	16
-60.228748	-19.278091	-18.189295	15	16	16
-60.014233	-19.276457	-18.153275	15	16	17
-59.799458	-19.274235	-18.105940	15	16	18
-59.372032	-19.273832	-18.088938	16	15	18
-59.161263	-19.279726	-18.197498	16	16	17
-58.951729	-19.288456	-18.360504	17	16	18
-58.741421	-19.295851	-18.497917	17	16	17
-58.531796	-19.305046	-18.669842	17	16	18
-58.108463	-19.315189	-18.855358	19	16	17
-57.893906	-19.313766	-18.823395	19	17	18
-57.683250	-19.321657	-18.970268	21	19	21
-57.478031	-19.343294	-19.381149	25	26	35
-57.274502	-19.370211	-19.893379	38	35	57
-57.068264	-19.391407	-20.295763	52	48	58
-56.857826	-19.402527	-20.504625	54	53	58
-56.647243	-19.413805	-20.716562	54	52	61
-56.437420	-19.427769	-20.980042	55	54	61
-56.227936	-19.443436	-21.276218	55	51	60
-55.597549	-19.489807	-22.152617	54	53	65
-55.173805	-19.513885	-22.605579	55	55	65
-52.614872	-19.668840	-25.524364	57	55	61
-50.892326	-19.792137	-27.853647	56	55	63
-50.458389	-19.818016	-28.340935	57	54	68
-50.240540	-19.824944	-28.469185	55	54	65
-49.805038	-19.847065	-28.884356	55	55	65
-49.587322	-19.863865	-29.202105	56	55	64
-48.493919	-19.931555	-30.477674	54	51	60
-48.054829	-19.957933	-30.974466	55	56	63
-47.834881	-19.973494	-31.268358	55	55	62
-47.614632	-19.989859	-31.577688	55	54	62
-47.394123	-20.004932	-31.862236	55	56	63
-47.173424	-20.018089	-32.109997	54	57	64
-46.952560	-20.029903	-32.331989	55	57	64
-46.731682	-20.038507	-32.492348	57	55	66
-46.510590	-20.047916	-32.668140	57	55	65
-46.068260	-20.062761	-32.943474	55	54	59
-111.258240	-17.620369	16.303267	21	21	23
-110.612190	-17.602528	16.656363	21	22	23
-110.405434	-17.599413	16.720024	19	21	23
-108.125046	-17.630955	16.169100	22	22	24
-106.325401	-17.623671	16.346144	21	20	24
-105.141487	-17.624342	16.358747	20	20	23
-104.742447	-17.622913	16.394478	21	20	25
-104.546379	-17.623480	16.387886	20	20	24
-102.984818	-17.630774	16.282656	22	23	27
-102.389336	-17.629728	16.315296	22	22	25
-102.179146	-17.624796	16.413597	22	21	24
-100.989052	-17.622789	16.477242	23	21	26
-99.425995	-17.629612	16.380991	24	24	29
-98.758011	-18.723495	-4.406232	30	28	32
-98.529762	-18.714407	-4.228524	31	30	34
-98.291107	-18.700634	-3.961486	31	31	34
-98.063202	-18.691523	-3.783324	35	33	35
-97.847656	-18.687847	-3.708814	38	35	39
-93.961861	-19.439796	-17.924828	20	18	23
-93.549980	-19.448099	-18.073879	20	18	21
-93.342743	-19.451647	-18.136885	20	18	24
-88.506180	-19.502682	-19.003765	13	13	16
-88.290192	-19.501875	-18.983793	13	13	14
-87.693527	-19.529266	-19.491886	13	12	13
-86.279976	-19.847486	-25.512974	14	12	13
-86.099304	-19.870310	-25.943106	12	11	14
-85.913345	-19.890123	-26.315878	15	11	16
-85.723846	-19.907953	-26.650888	15	13	14
-85.118851	-19.939533	-27.238472	14	13	18
-84.489311	-19.956369	-27.545118	20	16	18
-84.057846	-19.960215	-27.609030	16	15	20
-83.838181	-19.959587	-27.592363	16	15	20
-83.393921	-19.955002	-27.495651	17	13	16
-82.425987	-19.891195	-26.261581	13	11	14
-82.169403	-19.864689	-25.752005	12	11	14
-79.531265	-19.526287	-19.260384	11	11	12
-79.068802	-19.501427	-18.777699	15	12	13
-78.852478	-19.499910	-18.744244	16	14	17
-78.640381	-19.501551	-18.770903	16	13	17
-76.249954	-19.474039	-18.196524	14	15	16
-76.016472	-19.457939	-17.885334	16	15	15
-75.796150	-19.452522	-17.777613	15	14	15
-75.586502	-19.455956	-17.838432	15	14	15
-75.394325	-19.474190	-18.181030	14	14	15
-74.977051	-19.483282	-18.344997	15	15	16
-73.700005	-19.489517	-18.436228	16	15	16
-72.837646	-19.483675	-18.306652	17	15	20
-71.772659	-19.488274	-18.371269	18	16	22
-71.558708	-19.488289	-18.366997	18	16	22
-70.935364	-19.507013	-18.709709	18	17	21
-70.740143	-19.526310	-19.072483	16	15	16
-69.349159	-19.883453	-25.834196	16	14	15
-69.150063	-19.904085	-26.222250	15	13	15
-68.945793	-19.919298	-26.507170	15	13	15
-68.740334	-19.933477	-26.772392	15	14	14
-68.127274	-19.981730	-27.676857	17	15	20
-67.916740	-19.991152	-27.851526	17	15	18
-67.484093	-19.996508	-27.944101	16	14	19
-67.266212	-19.997353	-27.955494	16	14	17
-66.614906	-20.002932	-28.047628	16	14	17
-66.176582	-20.001450	-28.010063	16	13	14
-65.735413	-19.996050	-27.897911	13	13	15
-65.512428	-19.989979	-27.777695	15	14	15
-65.054337	-19.960476	-27.206850	15	12	14
-64.577957	-19.903229	-26.108017	13	11	13
-62.168289	-19.517920	-18.729254	13	12	14
-61.942108	-19.497469	-18.335518	14	13	15
-61.519329	-19.505682	-18.482653	15	15	17
-60.867867	-19.487560	-18.124094	16	15	17
-60.644039	-19.468763	-17.761845	15	15	16
-56.861027	-19.624870	-20.649345	56	52	57
-54.963299	-19.746424	-22.920208	55	55	64
-54.324474	-19.779951	-23.544050	56	53	62
-54.111362	-19.792032	-23.769230	56	54	60
-53.898312	-19.805275	-24.016497	57	54	63
-53.259583	-19.853621	-24.922178	57	54	64
-53.045746	-19.868092	-25.192766	57	55	65
-52.831390	-19.881254	-25.438499	57	56	64
-52.402603	-19.911173	-25.998226	57	54	64
-52.188461	-19.930027	-26.352196	58	54	65
-51.973835	-19.948008	-26.689522	57	55	64
-51.542194	-19.974056	-27.175602	58	54	65
-51.109741	-20.001158	-27.681711	56	57	64
-50.893425	-20.017160	-27.981371	56	55	64
-50.676590	-20.030975	-28.239454	57	54	66
-50.459038	-20.039928	-28.405046	56	54	65
-50.241184	-20.047178	-28.538221	55	55	65
-49.805851	-20.073072	-29.021305	55	55	65
-49.370022	-20.107962	-29.675459	54	54	65
-49.151489	-20.121773	-29.933411	55	54	64
-48.932648	-20.133726	-30.156006	55	53	62
-48.274830	-20.171429	-30.858877	54	54	60
-47.614822	-20.215012	-31.673510	54	54	62
-47.173481	-20.244392	-32.222786	55	55	63
-46.732056	-20.258160	-32.475124	57	55	64
-46.511234	-20.263966	-32.580814	56	54	63
-46.069199	-20.276655	-32.812656	55	53	61
-112.048744	-17.816954	16.293491	21	20	22
-111.863419	-17.821112	16.219074	21	21	22
-111.491425	-17.829052	16.077353	19	18	22
-111.290245	-17.827929	16.102770	21	19	22
-111.078995	-17.823385	16.192839	21	20	23
-110.648117	-17.811350	16.428713	22	21	23
-110.256523	-17.812632	16.412840	21	21	23
-110.072212	-17.817228	16.330153	22	20	22
-109.459450	-17.810392	16.471905	20	20	22
-108.701309	-17.821768	16.273600	19	20	24
-108.338951	-17.833479	16.060617	22	20	25
-108.142502	-17.833961	16.055683	23	21	25
-107.722809	-17.825338	16.227028	23	21	23
-107.505394	-17.818264	16.364916	21	22	23
-106.903465	-17.814991	16.439323	22	22	23
-106.543533	-17.827862	16.204432	22	22	23
-106.352867	-17.830441	16.159891	21	20	24
-105.959404	-17.831165	16.154551	22	21	24
-105.762772	-17.831568	16.151131	21	20	23
-105.365486	-17.830872	16.172640	21	20	23
-105.163765	-17.829367	16.205265	20	19	23
-104.763504	-17.827515	16.248629	20	20	23
-104.562302	-17.826172	16.278193	20	20	24
-104.146400	-17.818312	16.435070	22	22	25
-103.369217	-17.823317	16.357233	23	22	27
-102.805939	-17.834793	16.152924	23	22	27
-102.200371	-17.829819	16.259438	21	21	23
-101.601768	-17.827490	16.315973	22	23	26
-101.012749	-17.828957	16.300800	22	21	26
-100.811745	-17.827560	16.331373	22	21	23
-100.413864	-17.826410	16.361452	22	22	26
-100.218399	-17.827250	16.349766	23	22	27
-99.829910	-17.829945	16.307220	25	23	28
-99.633392	-17.830364	16.303457	25	24	28
-99.235916	-17.829350	16.330986	25	24	28
-99.020432	-17.821815	16.477493	24	23	27
-98.617821	-17.818542	16.547701	23	22	24
-98.711189	-18.909533	-4.009687	30	29	32
-87.236588	-19.855373	-21.587608	18	15	23
-86.789337	-19.977055	-23.870747	15	14	16
-86.433372	-20.024931	-24.765251	15	14	16
-86.253098	-20.047857	-25.193413	15	14	12
-85.688950	-20.103540	-26.230587	15	13	17
-85.495049	-20.118824	-26.514444	15	12	16
-85.087570	-20.137325	-26.854412	15	13	14
-84.457092	-20.153328	-27.142603	16	16	19
-84.246307	-20.158377	-27.233269	16	16	21
-83.811615	-20.159929	-27.253328	16	16	20
-83.368416	-20.155787	-27.165882	18	16	17
-83.138351	-20.147945	-27.013269	17	14	16
-82.902168	-20.135839	-26.780203	16	12	16
-81.911453	-20.053698	-25.211586	12	11	11
-79.795944	-19.777067	-19.954824	11	10	10
-78.429115	-19.717489	-18.803419	15	15	17
-78.205643	-19.710398	-18.665085	16	16	17
-73.492760	-19.709133	-18.541542	16	15	16
-72.217171	-19.717619	-18.674456	16	16	18
-71.575172	-19.717958	-18.667248	19	18	19
-71.149277	-19.720291	-18.702196	16	16	18
-70.944611	-19.729939	-18.879646	15	14	16
-69.133018	-20.101976	-25.850901	15	13	17
-68.112221	-20.181622	-27.329905	16	14	17
-67.471603	-20.199068	-27.645067	18	15	23
-67.254539	-20.200743	-27.672043	17	16	20
-66.821419	-20.205488	-27.752266	16	14	15
-66.603882	-20.206669	-27.769913	15	14	16
-66.164238	-20.203079	-27.693003	15	14	14
-65.505730	-20.198584	-27.594376	14	15	16
-58.656807	-19.535269	-14.951915	18	16	17
-57.285706	-19.826036	-20.401281	37	35	60
-57.075642	-19.838224	-20.626471	51	49	58
-56.653442	-19.858673	-21.002840	52	49	59
-56.442924	-19.871323	-21.236691	55	52	63
-56.232754	-19.885643	-21.502052	56	53	60
-55.602585	-19.934620	-22.411507	57	54	61
-55.391563	-19.949715	-22.691467	56	55	65
-55.179234	-19.961325	-22.905691	55	55	66
-54.752502	-19.979338	-23.236052	56	53	62
-54.539673	-19.991232	-23.455647	54	54	64
-54.327011	-20.004578	-23.702625	55	53	62
-54.114101	-20.017893	-23.948982	56	55	60
-53.901020	-20.031494	-24.200733	55	54	62
-53.688068	-20.046707	-24.482843	55	55	63
-53.475063	-20.062912	-24.783653	56	54	64
-51.975082	-20.171480	-26.797478	57	54	64
-51.543606	-20.199707	-27.320169	57	54	67
-50.894306	-20.240383	-28.072834	56	54	66
-50.241882	-20.270151	-28.619869	56	53	64
-49.806751	-20.300488	-29.182241	56	55	66
-48.933136	-20.358603	-30.258718	54	53	62
-48.714046	-20.371721	-30.501244	54	53	61
-48.494740	-20.386003	-30.765707	54	53	60
-48.055363	-20.412802	-31.261305	55	54	61
-47.394367	-20.456770	-32.075752	56	55	65
-47.173538	-20.470770	-32.334846	55	56	64
-46.952740	-20.479412	-32.492996	54	54	63
-46.511749	-20.481804	-32.528732	55	54	61
-46.291019	-20.485603	-32.595642	55	53	61
-112.241959	-18.012192	16.321674	21	19	22
-111.880913	-18.023817	16.112200	21	22	21
-111.518059	-18.034964	15.911699	20	18	22
-111.315475	-18.033377	15.945530	18	20	22
-110.886780	-18.022099	16.165054	21	21	23
-110.680092	-18.019037	16.226509	21	21	23
-110.291733	-18.021513	16.188393	21	18	23
-110.099167	-18.023321	16.158684	19	18	22
-109.899048	-18.022507	16.178068	20	20	22
-109.689911	-18.018534	16.256605	21	19	22
-109.480850	-18.014559	16.335190	19	20	22
-109.083862	-18.013985	16.354204	20	19	24
-108.901237	-18.019312	16.258553	20	19	24
-108.726036	-18.027308	16.112953	20	19	22
-108.548592	-18.034555	15.981343	21	20	23
-108.158180	-18.036444	15.954243	23	22	25
-107.949471	-18.032534	16.031603	23	22	24
-107.527107	-18.022835	16.221487	19	23	22
-107.321815	-18.020077	16.277271	20	21	24
-106.942368	-18.025892	16.176603	23	20	23
-106.760376	-18.031668	16.072578	20	20	23
-106.376129	-18.035837	16.002790	22	20	24
-106.177238	-18.035427	16.014574	21	20	24
-105.781677	-18.035425	16.022902	21	20	24
-105.385765	-18.035282	16.033827	20	20	23
-105.184883	-18.034105	16.060005	20	19	24
-104.781395	-18.031057	16.125332	20	20	23
-104.576836	-18.028442	16.178415	21	20	23
-104.159218	-18.019882	16.346943	21	21	25
-103.958755	-18.018774	16.371832	22	21	25
-103.578423	-18.024519	16.272537	22	23	27
-103.387650	-18.027182	16.226812	22	23	27
-103.007294	-18.033024	16.125656	22	22	27
-102.816658	-18.035793	16.077969	22	22	27
-102.424713	-18.037153	16.060751	23	21	24
-102.026520	-18.036028	16.090080	24	20	25
-101.827652	-18.035547	16.103220	22	21	25
-101.438950	-18.038219	16.061453	22	21	26
-101.242043	-18.038527	16.059799	22	20	24
-100.832611	-18.032764	16.175932	22	20	23
-100.625732	-18.028963	16.251228	23	21	25
-100.223450	-18.026003	16.314899	24	22	26
-100.028198	-18.026947	16.301346	24	23	26
-99.638397	-18.029144	16.268473	26	23	28
-99.442451	-18.029812	16.260103	26	23	28
-99.029808	-18.022379	16.407495	23	23	27
-98.823280	-18.018528	16.483683	23	22	25
-98.445290	-19.089861	-3.509229	29	29	31
-98.029289	-19.089117	-3.486657	34	32	35
-97.822838	-19.089439	-3.488368	34	32	35
-93.376350	-19.895929	-18.451906	20	19	23
-88.517845	-19.937122	-19.119448	13	13	14
-88.295235	-19.932461	-19.027777	13	13	14
-88.077560	-19.930645	-18.989313	12	12	13
-87.895592	-19.949881	-19.344627	11	10	13
-87.555519	-20.003208	-20.333118	15	13	15
-87.384003	-20.029419	-20.818871	15	14	20
-87.078423	-20.105429	-22.231504	21	18	20
-86.224640	-20.246935	-24.855459	17	14	17
-85.848534	-20.283964	-25.538927	16	14	15
-85.463112	-20.315897	-26.127024	15	14	18
-84.850739	-20.342939	-26.619080	16	14	20
-84.428535	-20.352308	-26.785160	15	14	14
-84.218033	-20.357473	-26.877199	15	13	12
-83.783127	-20.358656	-26.890203	16	12	13
-83.108147	-20.345022	-26.621559	15	13	11
-82.403908	-20.310471	-25.961807	12	11	12
-81.910126	-20.269560	-25.187746	13	11	12
-80.855667	-20.136045	-22.673103	11	9	9
-80.590874	-20.100683	-22.007408	9	8	8
-79.560234	-19.975697	-19.652473	9	10	11
-79.091827	-19.946152	-19.091133	12	12	13
-78.872177	-19.942177	-19.012325	14	14	16
-78.431763	-19.933176	-18.835110	17	15	17
-78.209297	-19.926813	-18.711649	17	15	18
-77.767395	-19.916189	-18.504093	16	16	18
-77.117699	-19.910275	-18.380096	16	18	18
-76.710358	-19.927340	-18.690172	15	15	15
-76.496468	-19.927595	-18.690483	17	15	17
-76.277542	-19.923656	-18.612383	16	15	17
-73.925743	-19.926966	-18.625036	15	15	15
-73.719398	-19.934101	-18.753929	15	15	15
-73.500099	-19.929369	-18.660999	15	15	17
-73.275917	-19.919991	-18.481239	16	15	17
-72.426102	-19.926096	-18.577484	17	15	18
-72.220772	-19.934616	-18.732237	16	15	17
-71.801178	-19.943249	-18.884642	16	16	16
-71.585869	-19.942150	-18.859642	17	16	16
-71.369987	-19.940443	-18.823240	16	16	18
-70.417664	-20.066072	-21.148766	15	12	15
-69.117119	-20.300823	-25.504177	16	14	15
-68.709106	-20.331926	-26.076317	15	13	15
-68.505157	-20.348038	-26.372824	16	14	16
-68.095711	-20.379440	-26.950542	16	14	15
-67.886200	-20.389839	-27.140312	17	15	17
-67.457832	-20.399738	-27.316175	18	16	22
-67.241531	-20.402191	-27.357433	18	17	21
-66.808464	-20.406639	-27.431438	17	15	18
-66.150208	-20.402143	-27.333742	15	14	15
-65.489769	-20.394213	-27.171894	14	13	15
-65.268288	-20.389553	-27.080278	14	13	15
-57.494267	-20.024271	-20.098391	23	24	29
-57.078640	-20.060036	-20.757416	45	44	53
-56.867889	-20.071230	-20.962017	49	48	58
-56.656982	-20.082539	-21.168724	52	50	59
-56.025303	-20.123257	-21.915703	53	52	62
-55.815071	-20.139357	-22.211891	55	54	61
-55.181553	-20.183926	-23.030710	55	55	64
-54.542774	-20.217720	-23.648258	55	53	65
-53.477257	-20.288080	-24.939571	55	55	65
-52.620068	-20.342964	-25.946312	56	55	65
-52.190971	-20.376207	-26.557961	55	55	64
-51.760944	-20.411180	-27.201906	57	55	65
-51.328583	-20.437834	-27.690441	59	55	67
-51.111988	-20.450689	-27.925943	57	55	64
-50.895100	-20.462936	-28.150055	55	57	65
-50.460274	-20.483223	-28.519680	54	53	63
-50.025215	-20.509920	-29.009010	55	54	65
-49.807659	-20.528214	-29.345982	55	55	65
-49.589733	-20.545822	-29.670189	57	54	66
-49.371315	-20.559700	-29.924721	57	56	67
-48.933601	-20.582855	-30.347857	53	54	64
-48.714489	-20.596956	-30.606537	53	54	61
-48.495144	-20.612864	-30.898930	54	52	61
-48.055622	-20.641842	-31.430735	55	54	63
-47.835514	-20.654022	-31.653547	56	55	63
-112.070068	-18.217720	16.166592	20	20	20
-110.707642	-18.225389	16.052803	20	21	23
-110.325012	-18.229944	15.976425	22	21	23
-109.716949	-18.224838	16.083439	20	20	22
-109.510254	-18.221691	16.145933	21	20	22
-109.115089	-18.221823	16.151657	21	21	22
-107.553711	-18.229336	16.044859	22	21	22
-107.355591	-18.229212	16.051241	22	21	23
-106.973557	-18.234203	15.966770	23	21	23
-104.592201	-18.231133	16.072701	21	20	23
-103.988831	-18.227152	16.158800	22	20	24
-103.606400	-18.232203	16.073235	23	22	27
-103.408951	-18.232302	16.075500	23	21	26
-100.852364	-18.237665	16.028986	22	20	25
-100.642799	-18.232744	16.124374	24	21	25
-98.836426	-18.220753	16.383474	24	22	27
-98.624420	-19.283548	-3.274128	27	26	29
-98.415970	-19.282919	-3.258178	29	26	30
-98.217949	-19.287031	-3.330172	31	29	31
-93.781853	-20.097490	-18.232353	20	19	22
-88.090004	-20.151840	-19.120436	12	11	12
-87.904793	-20.169353	-19.440603	12	10	11
-87.373489	-20.237762	-20.695223	15	14	18
-86.906189	-20.347837	-22.721985	17	16	17
-86.737007	-20.377041	-23.258797	17	16	18
-86.378433	-20.423782	-24.116112	17	14	14
-86.195038	-20.444958	-24.504066	14	14	15
-85.816582	-20.480610	-25.155830	17	15	20
-85.625046	-20.497259	-25.459921	16	14	16
-85.244591	-20.532835	-26.110237	15	15	16
-85.040894	-20.542150	-26.278364	16	16	19
-84.826950	-20.544847	-26.323845	18	18	26
-84.398376	-20.549877	-26.408047	17	18	21
-83.973190	-20.557291	-26.536457	16	13	17
-83.752739	-20.555746	-26.503304	16	14	17
-83.528595	-20.551666	-26.423208	16	15	17
-83.302635	-20.546289	-26.319071	16	14	18
-82.845749	-20.531878	-26.043022	14	13	14
-82.616348	-20.523859	-25.889946	14	13	13
-82.148094	-20.500824	-25.454140	13	12	13
-81.902344	-20.480812	-25.078827	13	11	12
-81.647873	-20.454294	-24.583017	13	11	12
-81.387016	-20.422831	-23.995537	13	11	12
-81.122612	-20.388369	-23.352543	11	10	11
-79.098068	-20.164711	-19.173048	12	11	14
-78.874611	-20.157793	-19.040457	13	14	16
-78.428085	-20.143953	-18.775208	17	16	17
-78.207474	-20.138968	-18.678417	17	16	18
-77.991386	-20.137486	-18.646534	17	15	19
-77.776505	-20.136944	-18.632105	18	17	18
-77.341949	-20.131941	-18.530590	18	18	19
-76.503769	-20.147251	-18.796515	17	15	15
-74.137398	-20.138199	-18.580238	14	14	15
-73.498070	-20.140974	-18.618401	16	15	15
-73.059639	-20.131268	-18.429800	16	15	17
-72.846695	-20.132290	-18.444305	16	15	17
-72.222420	-20.149755	-18.754547	15	15	17
-71.800583	-20.156227	-18.865585	16	16	16
-71.586090	-20.155941	-18.855841	16	16	16
-70.960159	-20.173225	-19.162695	17	15	19
-70.059090	-20.359278	-22.586143	18	18	21
-69.872360	-20.391521	-23.178810	18	17	21
-69.680939	-20.419186	-23.686640	19	17	21
-69.296021	-20.473837	-24.689749	17	15	16
-69.100357	-20.498333	-25.138891	17	15	15
-68.694931	-20.532328	-25.759455	15	14	16
-68.490013	-20.547253	-26.031355	17	15	18
-67.867676	-20.584688	-26.711086	19	17	22
-67.441582	-20.596989	-26.929857	19	17	23
-67.226395	-20.600632	-26.992798	18	16	21
-67.010040	-20.602863	-27.029615	16	15	17
-66.793152	-20.604437	-27.054249	16	14	16
-66.355576	-20.602633	-27.011839	16	14	15
-66.133942	-20.597868	-26.919142	15	13	14
-65.689674	-20.586575	-26.701031	15	14	14
-65.468010	-20.581350	-26.599813	15	13	15
-65.246078	-20.575607	-26.489004	14	13	15
-60.688194	-20.190670	-19.273531	16	15	16
-60.470200	-20.183348	-19.133587	16	14	15
-60.033257	-20.165962	-18.802931	16	15	17
-58.963684	-20.166334	-18.787754	17	15	17
-58.748363	-20.163221	-18.725739	17	16	17
-57.494923	-20.239578	-20.112476	25	23	30
-56.871021	-20.293819	-21.103111	48	49	57
-56.238438	-20.330872	-21.775528	53	53	63
-56.027596	-20.344601	-22.025167	55	52	63
-55.817127	-20.360277	-22.310844	56	54	62
-55.395802	-20.393080	-22.908989	55	53	66
-54.758926	-20.432419	-23.623634	56	55	63
-54.546349	-20.446184	-23.873930	54	54	64
-54.333729	-20.460749	-24.138992	55	56	64
-54.120850	-20.475304	-24.403877	54	54	63
-53.693504	-20.500851	-24.867685	57	57	65
-53.479301	-20.512751	-25.083422	55	55	64
-53.265305	-20.526615	-25.335484	55	54	66
-53.051205	-20.541180	-25.600521	57	54	65
-52.836689	-20.554937	-25.850634	57	57	64
-52.621750	-20.567694	-26.082184	55	56	65
-52.406864	-20.582047	-26.343287	55	55	66
-52.192230	-20.599464	-26.661097	55	54	65
-51.977444	-20.617905	-26.997808	56	55	64
-51.762077	-20.634602	-27.302271	56	56	65
-51.546051	-20.648663	-27.557940	56	56	66
-51.329609	-20.661432	-27.789696	59	55	66
-50.678665	-20.697096	-28.436085	55	56	62
-50.243637	-20.720634	-28.862566	55	53	61
-49.153111	-20.796547	-30.244453	53	55	67
-48.934113	-20.808765	-30.466013	54	56	64
-46.732254	-20.932047	-32.701302	53	52	59
-111.356812	-18.441574	15.689314	21	19	23
-110.537926	-18.432140	15.878957	19	21	23
-109.949760	-18.434113	15.854784	21	21	24
-109.337440	-18.427448	15.989450	21	20	22
-108.956886	-18.432899	15.897247	19	20	23
-108.181091	-18.438623	15.808119	21	22	25
-106.985489	-18.435545	15.888923	22	20	23
-106.590645	-18.435860	15.891185	22	20	25
-105.206566	-18.436110	15.914790	22	20	25
-104.409561	-18.433836	15.972733	22	21	23
-104.022797	-18.437267	15.917681	23	21	25
-102.656258	-18.444426	15.814279	23	21	23
-102.079613	-18.451241	15.701084	22	22	25
-101.684479	-18.451469	15.704945	23	22	24
-101.486427	-18.451380	15.710607	22	22	24
-100.457611	-18.434732	16.036808	25	23	26
-100.254463	-18.432421	16.083319	24	23	28
-99.658798	-18.431231	16.117260	23	22	26
-99.266342	-18.432407	16.103680	25	23	28
-99.054085	-18.426096	16.223734	25	23	28
-93.592194	-20.323895	-18.460001	21	18	23
-88.519066	-20.365620	-19.121643	13	11	13
-88.305153	-20.366039	-19.124990	14	12	14
-87.735252	-20.410725	-19.932650	11	10	14
-87.549126	-20.428267	-20.250496	14	13	14
-87.366585	-20.448193	-20.612095	15	14	15
-87.203606	-20.480352	-21.198423	17	15	19
-86.890945	-20.553997	-22.542290	19	16	19
-86.719215	-20.581818	-23.048866	17	16	17
-86.540405	-20.605503	-23.479454	16	16	18
-86.356155	-20.626013	-23.851728	16	15	17
-86.169830	-20.645435	-24.204063	16	12	14
-85.981094	-20.663538	-24.532091	14	13	18
-85.791534	-20.681316	-24.854193	17	14	18
-85.603394	-20.700214	-25.196863	18	15	19
-85.224396	-20.736893	-25.861620	16	15	14
-85.019630	-20.745506	-26.015356	16	15	15
-84.587189	-20.747774	-26.048117	18	17	23
-84.373734	-20.750780	-26.098883	18	18	21
-83.725327	-20.754490	-26.153715	19	16	23
-83.498947	-20.748722	-26.043324	18	15	21
-83.271393	-20.742064	-25.916609	16	15	19
-82.818016	-20.729694	-25.680603	17	14	17
-82.132088	-20.706329	-25.238262	13	12	11
-81.381363	-20.634916	-23.913639	13	11	13
-81.119194	-20.601749	-23.300213	13	11	11
-80.856773	-20.567957	-22.675303	11	11	10
-80.595795	-20.534773	-22.061573	11	10	10
-80.335999	-20.502022	-21.455797	11	9	10
-80.077911	-20.470110	-20.865477	11	9	13
-79.827995	-20.443945	-20.380638	12	10	11
-79.578796	-20.417955	-19.899061	12	10	11
-79.333572	-20.394655	-19.466875	11	11	13
-77.795113	-20.365482	-18.900679	18	17	16
-77.136681	-20.352732	-18.653469	16	15	20
-76.714546	-20.357948	-18.740513	15	15	18
-74.135834	-20.350233	-18.546534	15	14	15
-73.709213	-20.351673	-18.564262	15	14	15
-73.494400	-20.350988	-18.547310	15	14	16
-72.859489	-20.358038	-18.663643	16	15	17
-72.436287	-20.362991	-18.745846	15	15	17
-71.383804	-20.381750	-19.068336	18	17	23
-70.966263	-20.393324	-19.272007	19	17	24
-70.773888	-20.416630	-19.695377	18	17	21
-70.584618	-20.443705	-20.187927	17	16	17
-70.403130	-20.479692	-20.844048	16	17	18
-70.224014	-20.518961	-21.560356	19	18	22
-69.856606	-20.589634	-22.848644	19	19	22
-69.665649	-20.617887	-23.362753	20	18	19
-69.280800	-20.672752	-24.360819	17	16	16
-69.085876	-20.698132	-24.822159	17	16	17
-68.886314	-20.718618	-25.193727	17	16	17
-68.682266	-20.734217	-25.475546	18	16	21
-68.476112	-20.747631	-25.717287	17	16	20
-67.426071	-20.794806	-26.560818	24	19	25
-66.558304	-20.799728	-26.633404	20	15	19
-66.117226	-20.792576	-26.493273	17	15	17
-65.009232	-20.765251	-25.969727	16	16	18
-64.780396	-20.748747	-25.662474	15	15	17
-61.335678	-20.412964	-19.435923	15	14	16
-61.119427	-20.409338	-19.365011	14	14	16
-60.905834	-20.410585	-19.383541	16	16	16
-60.038631	-20.389994	-18.988333	15	15	16
-59.397846	-20.392866	-19.027962	15	16	17
-58.969910	-20.393259	-19.026442	17	15	18
-58.754551	-20.390293	-18.967669	17	16	16
-58.326061	-20.389208	-18.939053	16	17	17
-58.115021	-20.396339	-19.065483	17	18	19
-57.906250	-20.409363	-19.300032	19	18	19
-57.699356	-20.427702	-19.632042	22	21	25
-57.493858	-20.450466	-20.045218	28	27	33
-57.288681	-20.475140	-20.493429	31	34	46
