-98.377968	-3.809017	-15.807472	22	20	22
-85.190643	-3.742293	-10.762663	62	60	75
-84.770798	-3.742929	-10.765248	61	62	79
-83.934624	-3.744907	-10.812526	59	60	72
-83.505920	-3.743739	-10.707755	59	60	74
-82.670830	-3.745943	-10.768459	61	60	75
-82.252518	-3.746899	-10.790177	61	61	80
-81.415436	-3.748735	-10.828964	64	62	75
-80.997185	-3.749728	-10.852818	64	65	80
-80.161171	-3.751850	-10.908641	64	66	82
-79.740685	-3.752361	-10.903795	65	62	77
-79.108276	-3.752727	-10.872712	65	63	82
-78.690918	-3.753962	-10.911001	66	63	81
-77.852654	-3.755621	-10.939227	67	67	80
-77.434334	-3.756658	-10.965697	63	63	85
-76.591064	-3.757081	-10.920426	66	66	82
-76.173950	-3.758441	-10.966057	66	64	84
-75.332245	-3.759234	-10.942797	66	65	82
-74.913979	-3.760319	-10.972106	65	66	87
-74.075256	-3.761919	-10.996853	65	63	82
-73.655403	-3.762588	-11.001394	62	63	81
-73.023605	-3.763002	-10.973225	64	65	83
-72.605904	-3.764300	-11.015161	65	65	80
-71.768021	-3.766204	-11.057919	65	66	82
-71.346718	-3.766433	-11.036325	65	64	81
-70.509827	-3.768701	-11.100692	65	64	83
-70.090118	-3.769444	-11.109690	65	64	80
-69.250664	-3.770930	-11.127585	64	62	81
-68.829308	-3.771106	-11.102908	65	63	83
-67.991135	-3.773061	-11.148635	65	64	80
-67.569099	-3.772957	-11.107306	66	64	81
-66.730553	-3.774805	-11.146714	66	66	81
-66.312958	-3.776421	-11.207439	63	64	80
-65.681343	-3.776768	-11.175359	64	66	80
-65.257195	-3.775666	-11.074820	64	67	87
-64.422165	-3.779122	-11.209574	68	66	85
-64.002998	-3.780181	-11.237298	65	66	81
-63.164757	-3.782408	-11.299090	67	66	84
-62.743011	-3.782250	-11.254626	70	68	85
-61.902424	-3.783328	-11.248315	65	67	84
-61.484138	-3.784954	-11.309612	64	67	82
-60.641506	-3.784869	-11.234348	64	61	82
-60.221783	-3.785714	-11.249342	63	64	77
-59.591022	-3.786262	-11.229162	61	64	77
-59.171669	-3.787363	-11.259316	61	63	73
-58.344078	-3.797657	-11.799103	58	58	64
-57.730770	-3.812080	-12.600879	59	58	68
-57.525921	-3.816969	-12.872911	59	59	67
-57.113960	-3.825547	-13.345837	60	61	65
-56.699425	-3.832701	-13.734348	59	59	68
-56.287823	-3.843195	-14.320568	61	62	68
-55.876434	-3.854985	-14.983479	63	63	69
-55.669323	-3.859960	-15.260410	65	64	72
-55.461468	-3.864460	-15.509205	68	69	76
-54.836864	-3.878406	-16.281860	92	88	96
-53.376823	-3.919723	-18.603437	124	123	124
-52.324291	-3.949294	-20.264399	130	127	132
-52.115269	-3.959892	-20.873672	129	129	132
-51.906353	-3.971902	-21.566477	129	130	130
-51.697777	-3.986082	-22.387625	128	128	126
-51.274769	-4.006004	-23.530489	125	125	127
-50.411850	-4.010958	-23.751524	127	124	127
-49.978359	-4.006142	-23.430578	122	122	124
-48.251270	-4.118005	-29.901682	119	117	120
-48.032185	-4.117893	-29.876783	120	117	120
-47.812836	-4.123181	-30.171227	119	117	119
-47.593075	-4.130011	-30.556772	120	117	120
-45.592854	-4.207560	-34.975914	128	125	128
-45.143429	-4.223983	-35.909645	124	125	126
-44.475670	-4.228512	-36.121822	127	123	125
-43.090897	-4.309499	-40.795532	114	114	119
-42.858486	-4.321481	-41.484745	111	109	114
-42.630604	-4.326225	-41.746269	111	108	112
-41.955780	-4.327570	-41.769596	125	124	124
-41.278576	-4.331533	-41.947475	133	131	134
-135.204681	-3.773304	-4.519203	44	43	54
-134.726242	-3.768559	-4.207868	43	42	54
-133.910782	-3.770856	-4.273980	43	41	49
-133.698822	-3.770748	-4.250647	42	41	47
-133.488998	-3.770818	-4.237714	40	41	49
-132.666870	-3.772561	-4.271498	43	44	50
-132.248322	-3.772791	-4.250921	43	42	50
-131.431808	-3.775032	-4.313718	44	43	50
-131.013062	-3.775241	-4.291934	44	44	52
-130.399734	-3.776852	-4.334952	43	44	52
-129.780457	-3.777944	-4.347682	44	44	53
-129.145370	-3.777621	-4.277834	43	45	51
-128.743774	-3.779357	-4.345165	41	46	51
-127.917366	-3.780752	-4.358596	45	45	50
-127.512566	-3.782219	-4.410210	45	43	51
-126.685555	-3.783570	-4.421068	43	44	50
-126.260506	-3.783174	-4.363952	45	43	48
-125.449585	-3.786028	-4.462461	43	41	47
-125.032677	-3.786386	-4.449368	42	43	46
-124.198959	-3.787104	-4.423262	43	45	48
-123.781326	-3.787383	-4.405584	44	42	51
-122.974358	-3.790677	-4.529737	42	43	47
-122.566124	-3.791878	-4.565746	43	42	50
-121.718620	-3.791234	-4.460275	45	44	53
-121.313667	-3.792762	-4.515395	44	44	50
-120.503242	-3.795797	-4.624372	43	44	48
-120.075874	-3.795091	-4.549283	44	47	51
-119.247345	-3.796312	-4.552489	43	46	55
-118.831367	-3.796745	-4.543802	42	44	53
-118.011162	-3.798827	-4.597219	42	47	52
-117.603249	-3.800105	-4.637721	42	43	49
-116.772652	-3.801119	-4.628864	45	44	52
-116.362572	-3.802180	-4.656723	44	42	52
-115.549278	-3.805059	-4.756513	45	42	51
-114.998909	-3.813744	-5.211209	39	42	52
-98.813599	-4.022333	-15.892278	25	23	26
-85.847519	-3.956529	-11.062778	56	56	75
-81.010719	-3.962654	-11.024125	62	62	80
-80.170593	-3.963923	-11.029182	64	64	79
-79.750481	-3.964546	-11.031046	63	64	80
-79.119415	-3.965263	-11.021277	61	62	77
-78.701492	-3.966414	-11.053656	64	62	84
-77.864845	-3.968559	-11.109379	63	63	81
-77.445229	-3.969321	-11.119289	64	63	86
-76.601074	-3.969568	-11.065281	66	65	85
-76.183884	-3.970966	-11.111927	63	64	84
-75.551666	-3.971357	-11.083308	65	65	84
-74.924240	-3.973054	-11.130186	64	66	85
-73.032852	-3.975640	-11.126002	63	62	77
-57.116581	-4.038550	-13.456007	60	60	64
-55.045601	-4.086079	-16.020395	64	64	70
-54.210613	-4.105576	-17.073500	95	91	101
-53.582428	-4.121245	-17.923332	117	113	117
-52.320393	-4.155877	-19.811817	125	124	127
-51.060802	-4.226985	-23.796959	126	125	127
-48.032696	-4.329205	-29.427378	119	117	121
-47.374676	-4.343387	-30.189335	121	119	122
-47.154617	-4.349769	-30.538357	122	120	123
-45.818893	-4.415159	-34.188744	129	124	125
-45.595734	-4.421455	-34.532585	127	124	126
-45.371494	-4.429808	-34.994526	127	125	125
-45.146732	-4.438348	-35.467232	126	124	125
-44.478611	-4.445116	-35.802216	128	124	125
-44.027111	-4.460111	-36.627579	130	127	129
-43.328182	-4.513066	-39.614693	123	121	123
-42.411022	-4.544613	-41.353775	112	109	113
-41.960697	-4.546577	-41.430260	127	124	127
-134.749191	-3.977399	-4.316482	44	42	51
-133.508575	-3.979403	-4.331293	39	43	49
-132.882584	-3.979905	-4.310355	44	44	54
-132.266479	-3.981277	-4.338737	44	42	51
-115.572212	-4.014658	-4.896753	42	42	49
-86.481895	-4.166393	-11.099990	39	37	56
-85.220848	-4.168200	-11.102172	58	60	74
-84.799973	-4.168690	-11.096611	60	60	78
-83.956039	-4.169192	-11.058540	61	59	72
-83.531754	-4.168928	-11.010505	61	58	75
-82.695610	-4.171083	-11.065508	61	59	80
-82.275642	-4.171753	-11.070026	60	61	79
-81.646011	-4.172831	-11.080953	62	60	78
-58.762173	-4.215348	-11.664719	60	60	63
-58.144917	-4.226739	-12.253165	58	59	63
-56.085606	-4.275118	-14.796383	59	57	63
-55.671303	-4.285343	-15.335537	60	58	67
-55.463200	-4.289855	-15.571464	61	59	67
-55.046688	-4.299318	-16.067902	59	60	67
-54.838169	-4.304161	-16.322302	61	59	68
-54.629494	-4.309120	-16.583172	62	61	67
-54.210999	-4.318536	-17.076778	70	68	76
-54.000881	-4.322556	-17.285025	78	76	86
-53.581787	-4.333135	-17.843607	99	97	104
-53.164932	-4.348971	-18.696276	110	111	116
-52.955307	-4.355942	-19.069565	115	116	117
-52.318951	-4.366717	-19.622089	122	119	123
-51.683517	-4.383222	-20.494955	126	123	126
-51.471363	-4.389258	-20.815788	127	124	126
-50.628117	-4.441320	-23.660255	129	128	132
-49.980255	-4.443713	-23.743217	127	122	126
-48.251873	-4.546003	-29.326307	120	119	122
-47.595119	-4.550886	-29.547800	121	119	120
-45.820854	-4.630837	-33.878433	126	121	127
-44.030251	-4.677025	-36.320244	130	127	130
-40.844715	-4.764983	-40.987900	129	127	129
-116.620941	-4.221642	-4.965189	43	43	51
-116.418678	-4.222517	-4.997406	43	42	51
-98.845100	-4.452083	-16.153261	30	29	31
-86.474968	-4.374983	-11.016681	33	32	43
-85.858124	-4.378711	-11.172639	59	59	75
-85.433762	-4.378481	-11.127857	60	61	77
-84.800461	-4.378792	-11.096611	60	61	79
-84.167732	-4.379205	-11.070951	60	60	76
-83.534622	-4.379513	-11.039523	60	60	73
-82.916595	-4.383210	-11.193717	59	58	78
-82.288109	-4.384597	-11.221383	61	63	76
-81.658646	-4.385771	-11.237397	63	60	76
-81.034462	-4.388216	-11.322984	63	62	80
-80.398659	-4.387883	-11.256462	63	62	78
-79.769753	-4.389214	-11.281084	63	63	80
-79.140396	-4.390446	-11.300258	65	61	81
-78.718819	-4.390757	-11.285122	62	64	88
-78.091293	-4.392478	-11.331051	62	64	81
-77.463737	-4.394224	-11.378332	62	64	81
-76.832336	-4.394948	-11.369664	66	63	81
-76.202461	-4.396089	-11.383839	64	64	80
-75.569824	-4.396443	-11.354994	65	65	84
-74.941231	-4.397958	-11.389629	63	63	84
-74.312660	-4.399507	-11.426115	65	63	84
-73.680710	-4.400039	-11.406979	66	65	86
-73.049896	-4.400910	-11.406443	64	63	80
-72.419830	-4.402018	-11.418797	62	65	82
-72.000778	-4.403088	-11.445132	65	65	81
-71.370567	-4.404170	-11.456089	66	62	78
-70.741371	-4.405612	-11.486691	61	64	79
-70.109749	-4.406206	-11.470989	66	62	81
-69.478386	-4.406876	-11.459395	61	61	82
-68.845329	-4.406879	-11.411427	62	63	81
-68.219780	-4.409780	-11.521702	65	64	80
-67.588448	-4.410453	-11.510315	64	63	82
-66.956528	-4.410856	-11.484183	64	64	82
-66.329323	-4.413275	-11.568102	65	64	82
-65.908913	-4.413934	-11.571983	64	68	79
-65.272758	-4.412357	-11.437770	67	66	85
-64.646461	-4.415318	-11.551250	68	65	86
-64.015472	-4.416094	-11.545511	70	67	82
-63.596870	-4.417660	-11.598896	68	65	84
-63.387852	-4.418608	-11.634541	67	70	86
-62.757084	-4.419548	-11.637715	71	71	87
-62.124828	-4.419639	-11.594566	71	71	90
-61.914925	-4.420138	-11.605818	70	71	85
-61.495579	-4.421433	-11.644372	69	67	86
-60.864529	-4.422186	-11.637333	62	65	86
-60.233627	-4.423012	-11.634305	64	66	82
-59.602070	-4.423369	-11.605688	63	61	77
-59.183331	-4.425220	-11.674563	61	62	76
-58.558372	-4.430593	-11.919379	59	59	63
-58.147530	-4.439100	-12.351127	59	58	62
-57.943165	-4.444471	-12.627821	58	58	64
-57.738544	-4.449851	-12.905032	57	57	67
-57.326786	-4.459127	-13.378498	59	58	67
-57.120182	-4.463425	-13.596698	57	59	66
-56.706810	-4.472468	-14.057355	58	58	66
-51.895981	-4.592229	-20.208630	126	121	126
-49.981136	-4.662442	-23.883850	126	124	125
-46.937668	-4.777300	-29.902754	122	120	122
-46.716766	-4.787563	-30.444445	122	121	123
-46.494247	-4.803042	-31.269873	121	120	123
-46.045696	-4.838210	-33.149536	124	121	126
-45.600082	-4.852417	-33.888706	124	121	125
-45.152992	-4.866735	-34.633884	122	121	124
-44.928745	-4.874301	-35.028580	124	122	124
-42.197414	-4.979732	-40.558212	116	115	117
-41.972317	-4.981184	-40.620110	125	124	127
-40.854774	-4.978321	-40.379272	130	127	129
-135.452194	-4.397688	-4.703461	40	39	50
-134.789215	-4.394870	-4.505095	43	43	52
-134.193375	-4.398138	-4.634293	41	43	51
-133.565796	-4.398516	-4.607967	43	44	49
-132.916061	-4.396829	-4.470485	45	44	52
-132.309341	-4.399125	-4.547361	43	43	48
-131.714859	-4.402594	-4.687358	43	42	49
-131.094193	-4.403615	-4.695607	44	42	51
-130.476242	-4.404897	-4.717913	42	42	49
-129.842300	-4.404641	-4.657508	43	42	51
-129.226242	-4.406105	-4.689570	43	43	48
-128.611343	-4.407691	-4.728239	42	43	48
-127.999123	-4.409551	-4.781553	38	42	51
-127.388130	-4.411547	-4.842240	42	43	52
-126.752426	-4.411081	-4.770557	43	43	49
-126.125237	-4.411453	-4.743937	41	43	50
-125.706757	-4.411660	-4.723979	42	42	50
-125.096077	-4.413708	-4.787413	45	44	55
-124.457573	-4.412898	-4.697325	42	40	50
-123.832680	-4.413477	-4.681828	43	43	49
-123.230324	-4.416419	-4.793272	42	42	49
-122.608810	-4.417363	-4.797413	44	43	51
-121.988930	-4.418482	-4.810925	41	42	50
-120.551552	-4.422086	-4.895763	44	44	51
-120.337410	-4.421643	-4.856448	44	43	50
-120.126755	-4.421577	-4.837403	45	45	51
-119.501083	-4.422065	-4.816997	45	44	52
-118.701881	-4.426624	-4.999621	45	45	57
-118.075058	-4.426996	-4.973037	43	44	51
-117.655334	-4.427029	-4.943774	44	45	52
-117.030533	-4.427613	-4.928576	45	43	51
-116.437752	-4.431899	-5.111950	43	43	53
-115.821526	-4.433506	-5.151591	41	41	51
-115.212494	-4.435974	-5.237432	41	41	48
-99.082253	-4.668224	-16.356968	30	29	32
-71.799469	-4.616534	-11.600963	62	62	79
-68.224998	-4.621974	-11.625195	64	63	78
-67.592781	-4.622332	-11.597504	62	63	79
-66.751984	-4.623691	-11.607385	66	64	85
-66.333717	-4.625327	-11.663214	65	64	84
-65.701324	-4.625554	-11.628516	64	64	82
-65.279457	-4.625547	-11.597013	66	65	82
-64.651505	-4.627860	-11.673183	68	66	92
-54.425095	-4.744757	-17.114161	57	58	63
-53.794090	-4.756998	-17.716448	60	60	65
-51.258644	-4.822569	-21.004967	124	121	123
-50.832764	-4.834844	-21.624165	122	121	124
-50.410351	-4.864882	-23.185251	132	130	130
-46.717377	-5.005309	-30.356256	122	122	125
-45.602619	-5.066258	-33.504761	122	119	124
-45.379616	-5.073069	-33.849312	121	121	123
-44.932106	-5.088001	-34.607780	122	120	123
-44.708252	-5.094361	-34.928371	122	120	123
-44.484451	-5.099879	-35.204376	122	120	124
-44.259766	-5.106745	-35.551735	122	122	126
-42.426590	-5.196847	-40.192493	112	109	112
-41.978539	-5.197324	-40.184650	126	126	128
-41.090137	-5.189007	-39.678177	131	128	130
-40.865589	-5.190178	-39.723644	131	128	131
-127.621689	-4.621060	-4.977728	42	42	51
-127.415985	-4.621536	-4.987545	42	41	50
-123.047401	-4.626459	-4.928133	43	41	50
-122.625687	-4.626301	-4.889699	44	42	50
-122.008331	-4.627717	-4.918483	42	43	52
-121.397827	-4.629899	-4.987371	42	41	49
-120.141769	-4.630380	-4.922021	46	44	57
-119.517723	-4.631053	-4.912008	46	45	53
-83.581474	-4.810401	-11.597992	60	60	73
-76.849739	-4.820142	-11.617763	62	61	82
-76.217827	-4.820798	-11.606306	65	65	83
-74.745018	-4.822790	-11.603416	62	64	76
-74.326080	-4.823943	-11.632914	65	63	82
-73.698303	-4.825912	-11.689564	64	63	82
-73.064903	-4.826056	-11.651541	62	64	85
-72.433014	-4.826672	-11.637963	61	63	80
-71.385262	-4.829589	-11.713443	61	64	82
-70.751381	-4.829472	-11.661860	63	63	83
-70.123207	-4.831454	-11.719157	65	64	81
-69.490852	-4.831864	-11.694947	61	65	78
-68.856674	-4.831509	-11.631008	61	63	77
-56.713623	-4.901374	-14.368829	59	58	65
-55.676800	-4.926547	-15.595104	58	57	62
-55.468693	-4.931547	-15.838508	59	57	64
-55.053787	-4.944036	-16.454002	57	55	61
-54.637550	-4.956352	-17.060513	58	56	61
-54.006767	-4.968676	-17.651968	58	57	61
-53.796310	-4.973065	-17.863647	59	57	62
-52.955029	-4.995269	-18.950531	60	62	66
-51.898441	-5.025233	-20.422905	93	92	101
-51.685699	-5.029837	-20.645531	101	101	108
-50.833393	-5.050945	-21.674986	120	119	123
-50.194115	-5.077905	-23.022095	128	126	129
-49.548119	-5.086954	-23.443247	128	128	129
-49.333073	-5.094255	-23.805088	128	128	128
-47.815998	-5.186074	-28.440491	123	120	123
-47.597168	-5.192591	-28.761497	122	120	121
-47.158657	-5.204958	-29.369028	124	121	120
-46.938721	-5.212741	-29.755415	124	121	120
-46.496376	-5.235101	-30.878960	121	120	122
-45.828075	-5.271131	-32.692688	120	119	121
-44.488476	-5.312868	-34.753071	121	119	123
-42.879120	-5.413630	-39.843891	112	112	111
-41.539593	-5.410272	-39.574184	136	133	138
-41.319901	-5.405333	-39.303211	138	134	138
-40.873962	-5.404344	-39.220062	132	130	133
-133.628662	-4.818727	-4.912608	43	41	45
-130.317703	-4.824315	-4.962917	42	40	50
-129.079544	-4.826775	-5.000422	41	42	47
-128.668884	-4.827811	-5.023921	41	41	47
-126.807472	-4.831106	-5.059982	43	43	53
-126.179291	-4.831388	-5.030300	41	45	48
-125.343109	-4.831897	-4.997534	44	43	48
-124.921928	-4.831810	-4.963735	46	43	50
-124.093842	-4.833176	-4.974700	42	44	51
-123.685036	-4.834435	-5.009624	43	42	49
-83.370186	-5.020719	-11.581627	60	59	76
-82.312843	-5.020874	-11.515567	61	60	76
-81.474831	-5.022938	-11.561065	63	61	80
-81.056328	-5.024115	-11.591125	63	64	79
-80.847359	-5.024781	-11.610104	66	62	76
-80.003532	-5.025371	-11.580861	62	61	79
-79.791565	-5.025239	-11.559458	65	62	77
-78.950974	-5.026667	-11.572684	62	64	82
-78.530380	-5.027300	-11.575214	62	63	74
-77.483383	-5.030184	-11.647390	64	60	81
-76.648094	-5.033247	-11.743389	63	63	82
-76.224609	-5.033047	-11.703729	66	64	82
-75.172096	-5.034384	-11.697618	67	64	81
-74.961937	-5.034758	-11.701784	65	65	80
-74.124443	-5.037292	-11.770991	65	63	82
-73.706093	-5.038723	-11.813853	65	63	82
-72.439682	-5.039189	-11.748864	62	63	82
-71.603813	-5.042470	-11.855873	63	63	79
-71.391747	-5.042174	-11.826134	61	63	76
-70.339882	-5.043777	-11.833442	62	62	81
-70.130478	-5.044474	-11.853922	62	63	79
-69.284424	-5.043926	-11.767180	64	63	81
-68.862556	-5.044072	-11.745090	64	63	79
-67.602394	-5.046774	-11.793244	64	64	78
-66.761475	-5.048259	-11.809315	66	66	85
-66.342896	-5.049894	-11.862462	64	64	82
-65.291855	-5.051894	-11.889853	66	67	86
-64.449966	-5.052979	-11.885698	69	69	85
-64.030113	-5.054101	-11.912930	67	67	88
-62.767700	-5.055957	-11.918262	72	73	88
-61.926453	-5.057411	-11.932760	77	76	96
-61.507832	-5.059428	-12.005210	71	71	88
-60.455616	-5.060943	-12.008028	64	63	78
-60.245335	-5.061359	-12.014301	62	65	81
-59.402527	-5.061769	-11.976070	63	64	78
-59.192780	-5.062593	-12.002995	62	61	80
-58.363674	-5.074417	-12.540972	58	58	63
-57.953747	-5.085083	-13.049877	58	56	63
-57.334709	-5.098922	-13.704115	57	59	68
-56.923023	-5.110185	-14.242994	59	58	66
-56.095127	-5.131201	-15.244310	56	58	66
-55.056538	-5.159682	-16.607168	56	56	61
-54.640076	-5.172193	-17.208611	57	57	64
-53.377399	-5.199181	-18.480537	58	58	64
-52.323212	-5.229497	-19.934803	63	65	69
-51.472851	-5.248609	-20.838604	85	84	94
-51.259949	-5.254056	-21.098269	93	93	100
-50.620972	-5.274959	-22.107063	114	113	121
-49.977581	-5.288501	-22.744650	123	121	125
-48.903561	-5.342360	-25.384005	130	129	130
-48.687237	-5.353508	-25.930777	130	129	132
-48.470364	-5.364102	-26.449530	129	128	129
-48.252995	-5.377801	-27.124781	126	126	127
-48.035030	-5.388643	-27.655935	125	125	126
-47.598114	-5.402247	-28.311058	124	120	124
-46.050919	-5.482725	-32.258934	121	120	123
-45.608040	-5.491608	-32.675686	121	120	122
-45.385506	-5.498553	-33.010185	122	120	123
-44.937969	-5.516520	-33.884403	121	118	120
-44.493320	-5.523430	-34.201618	122	119	122
-44.042938	-5.541377	-35.074642	123	126	127
-43.593128	-5.554898	-35.724674	126	126	128
-42.657249	-5.635079	-39.700298	111	109	112
-42.433964	-5.634510	-39.656013	112	110	114
-41.988117	-5.632517	-39.524403	128	122	127
-40.879990	-5.620917	-38.862392	133	132	135
-134.878326	-5.024633	-4.930067	41	42	47
-134.676041	-5.025439	-4.955945	41	41	47
-133.854095	-5.027419	-4.997468	39	42	46
-133.650955	-5.028151	-5.019640	41	42	45
-132.802704	-5.027508	-4.930370	43	41	47
-132.390579	-5.028384	-4.945440	43	41	46
-131.149506	-5.030546	-4.967358	44	42	50
-130.341049	-5.033948	-5.079764	42	40	49
-129.906982	-5.032563	-4.982097	44	42	49
-128.904633	-5.037734	-5.168304	41	41	48
-128.698212	-5.038150	-5.174726	41	40	46
-127.874680	-5.040051	-5.212242	41	40	45
-127.461708	-5.040876	-5.224768	41	41	48
-126.206963	-5.041639	-5.176974	41	42	49
-125.372070	-5.042303	-5.152875	42	41	47
-124.950455	-5.042168	-5.117556	43	43	46
-123.916580	-5.044060	-5.140329	41	44	50
-123.709366	-5.044389	-5.142426	43	42	50
-122.882492	-5.045935	-5.162237	42	42	48
-122.467133	-5.046490	-5.161294	41	40	52
-121.428940	-5.047896	-5.159870	43	44	48
-120.610451	-5.050436	-5.229152	44	45	52
-120.183167	-5.049583	-5.158141	45	44	54
-119.155991	-5.052299	-5.221918	44	44	51
-118.956841	-5.053604	-5.272540	43	44	52
-118.143173	-5.056800	-5.374439	42	43	49
-117.724342	-5.056944	-5.353056	45	41	51
-116.485634	-5.059561	-5.397526	43	41	48
-116.295982	-5.062105	-5.509760	44	42	50
-84.213295	-5.230119	-11.592592	60	59	77
-84.008698	-5.231828	-11.662762	61	61	76
-83.586533	-5.232108	-11.647839	60	59	76
-82.952454	-5.232304	-11.614338	61	61	77
-82.321892	-5.233368	-11.623808	62	63	79
-81.692665	-5.234781	-11.650550	62	60	78
-80.435638	-5.238047	-11.725701	61	60	82
-79.800041	-5.237768	-11.668756	61	61	80
-79.169289	-5.238798	-11.676568	59	61	78
-78.538612	-5.239855	-11.685658	62	62	78
-77.910599	-5.241694	-11.733450	60	65	80
-73.079216	-5.251445	-11.884578	65	64	82
-68.240891	-5.259278	-11.940887	65	63	79
-65.718506	-5.264424	-12.022483	66	66	83
-63.404865	-5.268668	-12.073945	68	68	87
-58.163860	-5.294703	-12.998204	58	58	64
-57.752243	-5.304695	-13.461704	58	58	68
-56.720280	-5.330737	-14.672459	58	57	66
-55.682514	-5.356874	-15.887506	59	56	63
-52.535694	-5.439132	-19.719629	59	58	64
-50.407146	-5.495361	-22.340672	104	102	108
-49.977753	-5.503395	-22.706623	117	113	121
-49.548565	-5.517598	-23.376045	123	121	125
-49.334171	-5.530286	-23.985590	127	125	127
-49.119308	-5.544191	-24.654911	129	128	127
-48.903641	-5.556094	-25.225727	128	128	128
-48.687382	-5.567321	-25.763241	128	128	130
-48.470581	-5.577825	-26.265188	127	129	128
-48.035522	-5.598137	-27.234707	126	127	127
-47.817360	-5.606671	-27.639629	124	123	126
-47.380501	-5.616711	-28.103750	125	125	126
-46.941822	-5.633295	-28.889641	121	120	123
-46.721481	-5.644187	-29.410452	122	119	123
-45.829990	-5.707186	-32.448586	120	120	122
-45.609264	-5.708888	-32.517284	120	121	123
-44.940594	-5.731118	-33.565250	122	119	120
-44.498001	-5.733860	-33.670078	122	121	123
-43.603733	-5.756303	-34.713177	126	124	126
-41.329166	-5.841055	-38.727249	136	135	138
-131.793427	-5.239119	-5.071264	39	40	48
-126.857140	-5.251109	-5.320371	41	41	51
-121.858444	-5.256297	-5.238568	44	44	48
-117.748306	-5.267308	-5.495338	45	42	50
-117.122810	-5.267870	-5.480922	43	42	49
-116.716209	-5.269567	-5.535497	41	42	49
-61.516666	-5.485807	-12.267465	73	72	87
-60.673931	-5.486699	-12.254493	65	63	81
-60.253300	-5.487670	-12.273290	64	65	82
-58.780750	-5.490985	-12.335049	60	59	66
-58.575443	-5.495862	-12.555658	59	57	64
-58.371983	-5.502558	-12.863865	58	58	64
-57.963383	-5.515232	-13.445537	59	60	67
-57.342106	-5.528077	-14.021404	59	60	66
-57.135509	-5.533237	-14.255571	59	57	67
-56.723179	-5.545188	-14.802346	59	54	66
-56.308910	-5.556166	-15.302229	59	56	65
-56.100883	-5.561048	-15.522938	58	56	66
-55.684593	-5.571311	-15.988366	58	56	63
-55.476444	-5.576858	-16.240984	58	55	62
-55.268375	-5.582821	-16.513664	56	57	62
-54.852264	-5.595879	-17.113319	57	56	61
-54.434830	-5.608705	-17.701719	56	56	61
-54.225254	-5.614469	-17.964720	56	55	62
-53.592514	-5.627557	-18.551512	56	57	63
-53.170967	-5.638542	-19.051214	56	57	61
-52.959877	-5.644127	-19.305508	58	57	64
-52.748512	-5.649656	-19.557076	59	56	65
-52.325394	-5.661480	-20.097038	60	58	63
-52.113186	-5.666787	-20.337860	59	58	64
-51.687576	-5.676109	-20.757475	59	58	68
-51.261868	-5.687589	-21.280680	63	62	68
-51.048756	-5.693725	-21.561296	64	64	70
-50.193485	-5.717837	-22.662865	88	87	96
-47.599731	-5.824263	-27.603102	125	123	124
-46.943649	-5.840942	-28.360809	122	122	124
-44.501400	-5.947017	-33.294239	122	119	123
-42.671013	-6.060331	-38.615879	111	109	113
-41.999504	-6.063653	-38.730988	126	125	127
-41.334110	-6.058068	-38.418633	136	132	136
-135.589066	-5.447196	-5.350090	41	42	48
-125.851845	-5.463734	-5.498113	41	41	47
-125.644218	-5.464038	-5.499012	41	44	46
-119.619652	-5.472385	-5.502073	41	43	51
-119.416328	-5.473225	-5.528402	42	43	52
-119.004265	-5.474231	-5.549014	43	45	49
-118.377068	-5.474586	-5.525217	42	40	53
-84.027756	-5.657214	-11.880380	58	57	74
-83.603493	-5.656991	-11.842548	60	58	78
-82.970139	-5.657416	-11.821630	60	60	79
-82.343674	-5.659663	-11.886686	62	59	81
-81.710609	-5.660158	-11.869092	60	58	81
-81.083923	-5.662410	-11.934351	62	59	81
-80.450729	-5.662868	-11.914962	66	63	79
-79.820152	-5.664058	-11.930162	60	61	77
-79.191292	-5.665766	-11.969769	59	60	79
-78.557213	-5.665933	-11.936705	62	63	82
-77.929741	-5.668098	-11.997811	63	62	78
-77.298363	-5.669086	-12.003443	63	62	82
-76.880295	-5.670654	-12.050056	65	66	79
-76.250671	-5.672236	-12.083721	66	65	81
-75.617622	-5.672705	-12.064871	63	64	80
-74.985825	-5.673576	-12.065002	64	63	81
-74.357353	-5.675607	-12.119753	66	63	80
-73.730202	-5.678161	-12.199186	67	66	86
-73.094734	-5.677740	-12.138406	63	62	80
-72.463005	-5.678657	-12.140686	64	64	79
-71.414894	-5.682057	-12.232657	62	64	83
-71.203606	-5.682095	-12.220820	62	65	81
-70.362206	-5.683736	-12.243556	62	63	77
-70.150780	-5.683704	-12.228425	64	64	76
-69.728065	-5.683671	-12.199617	62	63	83
-69.517143	-5.683834	-12.193634	62	63	82
-68.883072	-5.683719	-12.147325	61	62	85
-68.252846	-5.685295	-12.180624	64	62	79
-67.622971	-5.687073	-12.223449	67	64	83
-66.780052	-5.688008	-12.212943	63	65	84
-66.360275	-5.689310	-12.246967	66	68	86
-65.306572	-5.690427	-12.231419	65	66	84
-65.095459	-5.690440	-12.218437	65	66	82
-64.467461	-5.693446	-12.318981	66	66	87
-64.045273	-5.693502	-12.294376	69	69	88
-63.202522	-5.694501	-12.286900	67	64	84
-62.780834	-5.694793	-12.273402	68	69	88
-62.151489	-5.697286	-12.349779	75	73	96
-61.521698	-5.699615	-12.418471	72	68	85
-60.889420	-5.700278	-12.408831	66	61	83
-60.256943	-5.700759	-12.390594	61	63	81
-59.623428	-5.700353	-12.330639	64	65	79
-58.991138	-5.700823	-12.311935	60	57	75
-54.017094	-5.835845	-18.327873	59	55	63
-50.836723	-5.918778	-22.014900	62	59	67
-48.687431	-5.989665	-25.203068	119	114	122
-48.036465	-6.018190	-26.499832	125	123	123
-47.600616	-6.033604	-27.195122	126	122	124
-46.945282	-6.049489	-27.898321	123	124	124
-46.283314	-6.088012	-29.663595	121	117	122
-44.724277	-6.162447	-33.056412	120	119	121
-44.503525	-6.163108	-33.073151	123	119	123
-43.377953	-6.209515	-35.178513	123	121	124
-42.452034	-6.277214	-38.296017	112	109	114
-42.006454	-6.276670	-38.241726	126	124	128
-40.903088	-6.261899	-37.477364	127	126	129
-135.612198	-5.657040	-5.458797	41	42	47
-135.401779	-5.657054	-5.446263	40	43	47
-134.746902	-5.654602	-5.292543	40	42	49
-134.117584	-5.654812	-5.262628	41	42	51
-133.517197	-5.658108	-5.376068	41	43	48
-132.864197	-5.655766	-5.227558	42	41	49
-132.247665	-5.657336	-5.260823	40	40	46
-131.637909	-5.659657	-5.328934	43	42	49
-131.029770	-5.662175	-5.406255	42	42	48
-130.405533	-5.662930	-5.401612	42	42	49
-129.983963	-5.662827	-5.370372	41	41	48
-129.370392	-5.664772	-5.421053	40	42	52
-128.756424	-5.666687	-5.470314	43	42	45
-128.129578	-5.667145	-5.451902	39	41	47
-127.725647	-5.669053	-5.514002	42	39	47
-127.521187	-5.669724	-5.531916	40	39	49
-126.895409	-5.670307	-5.519323	40	42	48
-126.279213	-5.672005	-5.558492	41	40	49
-125.669144	-5.674439	-5.631826	42	42	47
-125.041847	-5.674848	-5.611119	41	40	47
-124.414421	-5.675232	-5.589277	41	39	47
-123.790802	-5.676066	-5.588319	40	41	46
-123.156120	-5.675549	-5.524679	42	42	50
-122.544144	-5.677801	-5.589512	42	41	48
-121.913712	-5.677784	-5.549104	42	40	49
-121.292412	-5.678893	-5.560927	42	43	47
-120.664764	-5.679204	-5.535708	41	41	46
-120.042465	-5.680183	-5.541517	43	41	46
-119.443390	-5.684148	-5.685755	43	42	51
-118.818825	-5.684863	-5.679244	44	41	49
-118.393562	-5.684177	-5.621036	41	41	53
-117.589165	-5.688847	-5.784700	42	43	50
-116.992729	-5.693317	-5.952314	42	42	50
-84.249596	-5.870214	-12.009164	59	60	74
-73.946381	-5.890337	-12.284470	66	65	85
-73.736954	-5.891092	-12.305954	66	64	84
-72.890457	-5.890852	-12.241718	62	64	85
-72.469986	-5.891767	-12.257225	63	64	81
-69.313110	-5.897458	-12.319804	65	61	79
-68.890709	-5.897562	-12.298039	61	60	82
-68.259193	-5.898651	-12.308265	63	62	81
-58.175266	-5.937287	-13.446755	58	56	65
-57.556950	-5.953404	-14.147341	59	58	65
-56.934425	-5.967177	-14.740086	57	56	63
-51.690609	-6.112071	-21.057993	59	57	66
-51.265064	-6.125507	-21.647682	58	57	65
-50.624317	-6.144536	-22.480461	58	59	66
-50.410221	-6.151010	-22.763973	59	59	68
-49.765652	-6.166424	-23.430626	65	66	72
-49.334843	-6.176561	-23.868629	75	75	84
-48.471104	-6.213196	-25.495127	107	107	113
-48.036892	-6.229773	-26.228367	121	116	120
-47.819283	-6.237360	-26.562782	121	118	121
-47.165554	-6.250418	-27.120758	124	123	124
-46.946594	-6.260047	-27.548784	125	124	124
-46.506149	-6.286560	-28.737461	123	121	124
-44.727337	-6.375387	-32.700954	122	119	121
-44.505554	-6.379233	-32.863491	124	121	124
-43.605892	-6.418103	-34.590252	127	123	128
-43.375546	-6.436776	-35.432468	123	120	124
-43.143673	-6.456827	-36.337795	118	117	120
-42.912083	-6.474703	-37.143414	115	113	115
-42.458431	-6.489916	-37.812855	111	109	113
-42.012627	-6.490456	-37.809589	127	123	128
-41.130322	-6.478545	-37.207603	133	132	135
-40.687073	-6.476536	-37.087559	131	129	131
-135.638397	-5.867319	-5.582396	42	41	44
-135.429337	-5.867480	-5.576791	43	42	44
-131.051605	-5.872074	-5.514429	40	41	48
-130.433990	-5.873596	-5.544869	42	40	47
-129.387192	-5.874143	-5.505194	39	42	50
-129.185806	-5.875169	-5.538870	39	41	47
-128.568222	-5.876709	-5.570137	39	39	43
-116.833275	-5.907870	-6.248664	41	43	53
-77.736389	-6.094739	-12.236237	63	61	80
-76.686592	-6.097428	-12.292521	63	65	79
-76.265999	-6.098295	-12.305646	66	64	80
-75.423462	-6.099577	-12.311497	65	63	83
-75.001083	-6.099820	-12.296494	63	63	82
-73.533249	-6.104532	-12.417904	64	63	83
-72.898438	-6.104414	-12.373669	61	64	84
-72.477188	-6.105077	-12.377600	65	63	84
-71.638710	-6.108049	-12.459509	62	65	81
-71.217064	-6.108575	-12.457282	60	64	80
-70.374039	-6.109736	-12.457660	65	62	83
-70.161774	-6.109365	-12.427995	65	62	83
-69.319138	-6.110661	-12.434469	64	63	82
-68.898567	-6.111658	-12.453415	62	61	83
-68.055908	-6.112955	-12.459907	63	62	82
-67.634346	-6.113491	-12.458117	68	64	79
-66.791588	-6.114732	-12.462132	65	66	84
-66.370422	-6.115465	-12.469161	65	66	83
-65.527359	-6.116538	-12.465614	68	68	79
-65.108200	-6.118409	-12.523880	63	64	82
-64.478172	-6.120581	-12.582683	69	67	84
-64.053726	-6.119398	-12.503594	64	67	80
-63.212021	-6.121320	-12.538194	64	65	81
-62.791672	-6.122642	-12.571721	71	69	87
-61.950096	-6.124792	-12.616621	65	68	83
-61.530029	-6.126429	-12.664294	60	63	80
-60.687138	-6.127777	-12.673092	64	65	85
-60.263638	-6.126819	-12.604136	66	62	84
-59.419987	-6.127405	-12.578681	59	63	78
-58.998814	-6.128235	-12.590096	59	57	71
-58.380814	-6.142527	-13.193509	59	57	62
-57.973671	-6.157810	-13.854353	60	57	66
-57.767784	-6.163605	-14.101774	58	59	66
-56.937134	-6.181576	-14.857243	57	55	63
-56.730385	-6.187624	-15.115948	57	55	63
-56.524078	-6.194477	-15.410851	58	56	63
-55.900928	-6.211888	-16.153936	59	56	64
-55.484116	-6.223257	-16.638512	58	58	62
-54.648571	-6.247362	-17.668945	57	56	62
-54.440189	-6.255152	-18.005762	57	57	63
-54.230640	-6.261588	-18.281700	57	58	64
-53.808598	-6.270727	-18.665890	57	56	65
-53.387093	-6.282282	-19.158577	56	55	62
-52.752949	-6.299428	-19.889084	57	59	65
-52.117081	-6.317580	-20.664623	58	57	66
-51.904858	-6.324254	-20.951092	57	58	66
-51.053303	-6.351366	-22.115505	56	56	64
-48.904163	-6.412599	-24.731451	70	72	79
-48.254490	-6.437625	-25.814613	94	93	102
-47.384426	-6.458227	-26.685726	117	117	118
-46.947544	-6.473069	-27.324957	123	124	122
-46.508286	-6.494522	-28.260672	121	121	122
-44.732052	-6.583200	-32.131062	123	120	122
-43.834660	-6.622893	-33.857204	126	123	127
-42.692238	-6.693174	-36.940903	111	109	113
-134.791016	-6.074257	-5.501566	40	44	48
-134.172775	-6.075699	-5.527890	40	42	47
-133.559830	-6.077740	-5.580814	42	42	47
-132.918640	-6.076615	-5.493073	41	41	47
-132.309326	-6.079078	-5.564732	39	39	48
-131.682678	-6.079580	-5.549277	41	42	47
-119.273781	-6.104625	-5.906367	43	41	46
-118.858307	-6.105245	-5.908757	42	41	46
-118.023903	-6.106012	-5.892503	45	43	52
-117.621666	-6.108456	-5.975737	43	43	51
-116.830383	-6.115252	-6.226768	42	43	53
-83.424026	-6.296938	-12.205521	55	58	75
-82.374062	-6.299429	-12.252094	61	60	76
-81.535889	-6.301993	-12.314516	63	63	77
-81.115005	-6.302764	-12.323180	59	59	74
-80.060242	-6.303924	-12.310972	61	61	75
-79.848183	-6.303810	-12.293264	61	58	80
-79.002403	-6.304074	-12.254241	64	63	78
-78.583122	-6.305347	-12.285060	62	63	80
-77.742638	-6.307309	-12.320920	62	60	77
-77.319427	-6.307306	-12.295456	63	63	81
-76.482841	-6.310647	-12.392114	63	64	81
-76.272270	-6.311004	-12.395162	64	63	82
-75.431396	-6.312947	-12.430164	65	62	81
-75.009285	-6.313322	-12.421350	62	65	79
-74.381058	-6.315716	-12.488880	63	64	82
-58.794743	-6.345122	-12.847327	60	58	66
-58.179520	-6.363109	-13.600338	57	57	64
-57.356213	-6.387530	-14.623403	58	57	63
-55.695587	-6.433612	-16.547522	57	59	64
-55.068527	-6.450213	-17.238968	56	55	62
-52.542984	-6.523137	-20.289986	59	58	65
-49.552029	-6.611530	-23.992422	56	59	66
-46.289627	-6.716761	-28.417967	117	116	119
-45.849190	-6.733284	-29.117126	120	117	119
-45.405243	-6.757625	-30.159416	121	119	120
-45.181889	-6.771892	-30.772520	122	120	122
-44.959480	-6.781299	-31.172289	122	120	121
-44.513092	-6.801247	-32.021496	124	120	123
-44.288719	-6.812676	-32.509964	125	120	125
-44.063442	-6.825171	-33.045155	125	123	125
-43.837296	-6.838493	-33.616592	127	122	127
-43.610039	-6.853044	-34.241940	127	122	126
-43.381622	-6.868783	-34.919357	124	120	121
-43.153484	-6.882599	-35.512417	119	114	118
-42.474380	-6.908216	-36.596645	109	109	113
-42.248066	-6.915436	-36.900120	115	114	114
-42.022842	-6.920344	-37.102142	124	123	123
-41.359276	-6.914959	-36.825989	144	140	145
-135.256714	-6.286793	-5.741698	41	40	45
-134.808380	-6.283712	-5.583080	40	42	49
-133.992996	-6.286687	-5.663305	42	43	45
-133.580597	-6.287648	-5.680532	41	42	47
-132.745636	-6.288407	-5.664378	42	42	45
-132.337921	-6.289916	-5.705414	40	41	49
-131.498047	-6.290095	-5.664042	38	42	49
-131.100174	-6.292774	-5.755957	42	41	48
-130.279266	-6.295202	-5.812371	42	40	50
-129.840759	-6.293069	-5.695087	42	39	51
-129.019745	-6.295485	-5.750980	38	39	46
-128.619675	-6.297971	-5.834449	41	41	47
-127.790550	-6.299440	-5.849185	40	40	45
-127.361839	-6.298431	-5.780776	39	40	47
-126.542580	-6.301119	-5.848428	40	41	48
-126.136497	-6.302919	-5.902098	40	41	49
-125.498795	-6.302031	-5.826636	40	40	47
-125.084084	-6.302746	-5.833155	42	40	44
-124.260986	-6.304992	-5.881627	42	40	48
-123.848183	-6.305960	-5.899137	42	42	48
-123.017464	-6.307242	-5.905696	42	41	49
-122.602829	-6.307977	-5.913083	45	44	49
-121.788544	-6.311444	-6.014542	42	41	52
-121.364464	-6.310931	-5.967716	41	42	47
-120.531288	-6.311893	-5.960411	41	42	48
-120.113686	-6.312233	-5.950615	42	41	49
-117.455734	-6.322338	-6.229719	41	41	55
-85.769272	-6.511502	-12.510373	58	57	75
-85.137993	-6.512748	-12.527050	59	59	76
-84.718201	-6.513874	-12.550955	58	60	75
-84.083954	-6.514316	-12.532878	55	57	71
-83.439629	-6.511881	-12.390585	56	58	73
-82.804108	-6.511861	-12.352607	61	60	77
-61.747005	-6.551764	-12.837745	61	69	81
-61.537106	-6.552787	-12.869421	63	67	83
-60.906506	-6.555281	-12.939817	64	65	79
-60.271099	-6.553937	-12.844903	60	61	84
-59.638187	-6.554528	-12.833352	59	61	75
-53.179058	-6.721113	-19.617250	58	57	63
-52.968132	-6.728271	-19.912605	59	58	66
-52.756859	-6.735291	-20.202084	59	57	66
-52.333130	-6.748499	-20.745129	58	56	64
-52.121021	-6.755494	-21.033424	57	58	65
-51.695835	-6.769120	-21.594326	57	57	66
-51.055443	-6.787486	-22.346436	56	57	63
-50.841602	-6.794041	-22.615746	55	57	63
-50.627495	-6.800558	-22.883379	56	57	64
-50.198555	-6.813918	-23.432669	58	58	66
-49.983601	-6.820091	-23.685472	59	58	64
-49.768349	-6.825946	-23.924604	58	57	63
-49.337299	-6.838993	-24.460268	56	58	64
-48.905277	-6.853042	-25.039003	60	60	66
-48.688889	-6.861075	-25.371679	61	58	65
-48.472176	-6.868983	-25.698967	63	59	66
-48.037861	-6.880934	-26.187357	63	64	70
-47.820385	-6.886017	-26.393164	67	66	75
-47.384888	-6.895494	-26.775106	80	77	88
-47.166794	-6.900895	-26.994551	88	84	98
-46.948162	-6.908955	-27.328283	98	96	104
-46.728870	-6.919354	-27.762510	107	106	111
-46.509308	-6.928829	-28.156992	111	111	116
-45.628376	-6.962090	-29.535362	121	118	120
-44.963387	-6.989514	-30.675459	121	119	119
-44.516895	-7.011528	-31.595724	123	119	123
-43.841469	-7.050162	-33.217106	127	124	127
-43.160076	-7.091364	-34.948513	118	116	120
-42.708103	-7.109057	-35.682686	111	110	115
-41.140652	-7.132519	-36.599709	143	137	142
-135.699005	-6.496849	-5.865939	39	37	43
-121.597633	-6.521748	-6.109701	42	41	48
-120.561455	-6.523722	-6.133681	41	40	50
-118.270531	-6.526487	-6.119402	43	41	49
-86.644920	-6.729542	-12.864362	40	43	60
-86.419067	-6.725888	-12.697606	39	43	65
-85.980225	-6.721914	-12.505271	57	56	73
-85.347542	-6.722779	-12.505597	58	59	76
-84.719360	-6.724896	-12.558868	59	61	76
-84.083954	-6.725000	-12.527019	56	58	71
-83.450859	-6.725743	-12.522160	55	53	68
-82.813950	-6.725353	-12.469375	59	60	72
-82.184372	-6.727110	-12.507461	61	59	74
-81.765060	-6.728424	-12.538849	60	59	81
-81.134911	-6.730058	-12.571672	60	60	78
-80.499672	-6.730112	-12.537726	60	63	76
-79.867630	-6.731158	-12.545697	59	57	75
-79.226768	-6.729306	-12.431167	64	61	76
-78.603638	-6.733290	-12.563329	61	60	78
-77.970360	-6.733921	-12.553759	59	60	75
-77.337708	-6.734756	-12.552814	65	62	80
-76.707603	-6.736499	-12.590277	64	63	83
-76.079453	-6.738993	-12.659410	64	64	82
-75.659592	-6.740287	-12.689969	61	62	79
-75.027252	-6.741297	-12.696393	62	61	76
-74.397926	-6.743484	-12.752575	64	62	80
-73.765747	-6.744588	-12.762991	63	62	82
-73.132629	-6.745318	-12.757593	59	63	79
-72.498184	-6.745473	-12.727917	60	62	78
-71.867271	-6.747111	-12.760903	63	63	76
-71.237488	-6.749287	-12.816577	62	62	78
-71.026413	-6.749514	-12.814080	62	61	77
-70.602867	-6.749324	-12.781905	61	63	79
-70.178612	-6.748771	-12.734447	62	61	78
-69.545204	-6.749276	-12.719555	63	64	80
-68.917946	-6.752790	-12.831722	64	63	83
-68.286179	-6.754171	-12.853806	63	64	80
-68.073433	-6.753527	-12.814545	63	63	80
-67.650757	-6.753654	-12.795772	64	65	81
-67.229973	-6.754775	-12.818985	66	67	77
-67.020470	-6.755824	-12.851198	67	67	80
-66.389137	-6.757493	-12.885427	67	67	87
-65.963921	-6.756139	-12.804163	67	68	86
-65.751701	-6.755654	-12.771647	70	68	85
-65.122490	-6.758576	-12.858751	68	68	89
-64.491325	-6.760426	-12.900636	70	69	85
-64.067947	-6.760016	-12.859241	63	64	79
-63.436691	-6.761858	-12.900784	67	64	82
-62.804306	-6.762981	-12.911961	64	62	81
-62.171021	-6.763454	-12.895769	65	64	80
-61.541348	-6.766657	-12.994679	64	64	79
-60.910709	-6.769305	-13.070195	63	63	82
-60.274815	-6.767666	-12.964874	63	63	83
-59.641392	-6.767951	-12.940729	58	61	76
-59.011753	-6.771743	-13.064468	58	58	74
-58.388046	-6.781867	-13.455149	56	57	62
-57.980396	-6.797858	-14.105181	55	56	62
-57.776012	-6.805761	-14.426296	55	55	65
-57.362122	-6.816859	-14.869943	56	57	60
-56.947876	-6.828555	-15.338756	55	54	61
-56.741737	-6.836009	-15.640832	56	57	63
-56.534805	-6.842842	-15.916711	58	57	64
-56.118011	-6.853725	-16.351164	56	56	64
-55.908928	-6.858673	-16.547569	55	56	64
-55.491383	-6.870260	-17.011597	58	56	64
-55.282673	-6.876642	-17.268415	57	55	63
-54.864578	-6.889518	-17.786695	58	58	64
-54.446781	-6.904564	-18.396339	60	57	66
-54.236496	-6.910468	-18.632929	60	57	66
-53.813332	-6.918726	-18.956509	58	58	67
-53.602089	-6.923967	-19.165115	57	56	66
-51.910130	-6.980786	-21.460886	57	57	66
-51.270050	-6.998685	-22.177973	57	57	64
-43.165340	-7.302407	-34.503529	119	113	118
-42.034210	-7.346836	-36.309647	124	123	126
-40.922497	-7.349488	-36.357864	141	135	140
-131.158356	-6.715133	-6.046655	42	41	49
-130.542740	-6.717050	-6.091397	44	42	50
-129.891174	-6.714501	-5.949924	41	40	46
-129.258118	-6.714223	-5.903159	40	41	46
-128.659760	-6.718318	-6.038747	41	40	47
-128.043106	-6.720128	-6.079018	40	39	46
-127.408119	-6.719594	-6.021586	41	40	46
-126.792320	-6.721522	-6.066836	41	41	47
-126.165779	-6.722063	-6.054214	43	39	50
-125.529411	-6.721302	-5.987348	42	41	49
-124.917923	-6.723818	-6.057050	41	40	47
-124.298508	-6.725298	-6.083587	42	41	44
-123.895782	-6.727666	-6.158840	40	41	46
-123.689987	-6.728258	-6.171782	41	40	48
-123.049591	-6.726910	-6.080467	41	39	48
-122.634079	-6.727554	-6.083879	42	42	46
-122.222488	-6.728738	-6.109755	40	39	47
-122.019073	-6.729661	-6.136526	39	40	47
-121.408073	-6.732347	-6.213238	40	40	47
-120.795265	-6.734807	-6.280601	43	42	47
-120.158035	-6.733832	-6.204844	42	41	51
-119.310783	-6.732820	-6.115833	41	40	48
-118.900284	-6.734188	-6.149405	41	41	51
-118.294525	-6.737711	-6.260986	41	42	48
-117.708405	-6.744168	-6.494684	40	40	51
-75.668198	-6.954258	-12.818366	64	61	82
-75.036919	-6.955753	-12.844831	63	60	79
-74.404907	-6.956985	-12.860455	62	62	81
-73.772743	-6.958165	-12.873855	64	62	81
-73.139938	-6.959087	-12.876629	62	62	80
-72.506638	-6.959794	-12.870504	61	61	76
-71.875435	-6.961414	-12.902125	62	62	76
-70.609291	-6.963017	-12.897685	64	62	82
-69.974854	-6.963150	-12.867800	61	62	80
-69.553055	-6.963776	-12.870109	63	63	81
-65.758156	-6.970133	-12.920807	69	67	86
-57.572132	-7.025988	-14.768768	55	55	61
-49.554348	-7.271249	-24.440193	56	58	64
-46.948124	-7.350407	-27.560596	62	63	68
-45.850349	-7.388565	-29.073608	91	92	99
-45.188187	-7.411347	-29.976589	111	111	115
-44.521263	-7.440415	-31.138651	115	116	118
-43.396648	-7.501480	-33.595192	121	117	120
-43.169468	-7.515489	-34.160492	118	112	116
-42.491913	-7.543494	-35.278072	110	110	111
-42.265881	-7.551825	-35.609177	114	112	117
-42.039852	-7.559574	-35.916260	124	121	128
-40.928463	-7.563202	-36.003986	140	135	140
-40.713554	-7.553037	-35.572647	142	137	141
-135.736710	-6.916685	-6.041797	40	40	45
-135.299591	-6.914761	-5.940136	41	43	47
-134.855835	-6.912016	-5.804978	41	41	48
-134.082016	-6.920180	-6.092967	40	40	47
-133.648209	-6.918612	-6.005907	42	42	51
-133.016205	-6.918509	-5.967313	40	40	47
-132.403900	-6.920821	-6.027441	41	43	47
-131.791733	-6.923172	-6.089147	40	41	46
-131.587646	-6.923955	-6.109725	42	40	48
-131.179794	-6.925570	-6.152784	42	40	49
-130.348923	-6.926911	-6.161760	40	41	47
-129.921677	-6.926080	-6.104844	41	40	46
-128.678162	-6.928433	-6.132269	41	40	47
-127.854485	-6.930705	-6.179226	39	38	46
-127.435066	-6.930853	-6.162387	39	40	46
-126.611946	-6.933220	-6.213274	40	41	47
-126.183334	-6.932138	-6.146141	42	40	49
-124.939903	-6.934528	-6.175034	40	41	48
-123.068954	-6.937335	-6.186605	39	40	49
-117.745193	-6.957595	-6.715842	41	42	51
-86.684433	-7.162185	-13.296983	47	46	54
-78.624947	-7.162060	-12.852768	62	60	79
-77.993835	-7.163607	-12.880924	60	61	80
-77.358711	-7.163712	-12.850567	62	62	77
-76.725967	-7.164667	-12.854730	61	61	79
-76.094810	-7.166228	-12.883461	64	63	78
-55.078571	-7.315880	-17.790251	58	56	64
-54.241055	-7.344805	-18.914354	57	58	66
-54.029743	-7.349709	-19.101143	57	59	66
-52.972382	-7.378601	-20.211950	57	58	66
-52.125351	-7.409334	-21.408630	58	56	61
-51.699474	-7.422779	-21.929150	56	55	65
-50.415958	-7.463967	-23.524878	59	58	65
-49.770416	-7.482441	-24.236780	57	59	64
-49.123055	-7.504041	-25.075024	57	57	63
-48.473232	-7.524571	-25.869858	58	58	65
-48.038750	-7.536866	-26.343391	59	59	67
-47.385189	-7.556880	-27.117176	59	60	64
-46.509621	-7.587793	-28.319592	61	60	67
-46.290081	-7.595028	-28.600224	63	63	69
-45.629868	-7.616616	-29.437252	76	76	81
-44.967327	-7.637808	-30.258171	98	99	107
-44.745403	-7.646624	-30.602573	105	104	112
-44.522579	-7.657137	-31.015591	110	110	114
-43.626926	-7.700032	-32.701488	119	119	119
-43.400249	-7.714782	-33.285645	118	116	118
-42.946957	-7.740546	-34.302853	112	109	113
-40.059216	-7.760946	-34.970463	141	137	139
-135.562836	-7.128891	-6.204946	41	41	45
-134.502579	-7.127931	-6.110357	42	40	49
-133.893494	-7.130674	-6.186702	39	41	50
-132.429214	-7.131755	-6.151541	38	41	47
-129.324463	-7.138243	-6.243402	40	42	47
-125.557831	-7.140595	-6.135981	42	40	47
-118.165062	-7.165544	-6.731469	41	42	51
-86.234718	-7.366096	-12.983432	44	48	72
-86.015182	-7.363976	-12.887641	51	55	77
-84.959473	-7.365317	-12.884579	62	58	72
-84.749542	-7.365944	-12.898289	61	56	73
-83.903008	-7.366416	-12.871859	59	59	68
-83.483414	-7.367763	-12.902935	57	56	71
-82.426758	-7.368780	-12.886989	58	61	80
-82.216743	-7.369401	-12.900432	59	61	83
-81.372025	-7.370389	-12.894565	59	59	75
-81.162689	-7.371241	-12.917216	58	61	77
-80.106888	-7.372503	-12.911002	60	59	77
-79.896255	-7.372931	-12.916768	62	60	82
-79.050575	-7.373556	-12.896496	60	60	74
-78.635376	-7.376579	-12.994251	60	59	79
-77.583092	-7.379160	-13.040546	58	62	77
-77.371025	-7.379086	-13.026293	60	60	76
-76.525291	-7.379696	-13.005430	64	61	73
-76.103493	-7.380404	-13.011022	64	64	80
-75.053391	-7.383952	-13.095791	62	62	83
-74.204865	-7.383378	-13.027804	61	61	85
-73.784851	-7.384847	-13.063675	63	62	82
-72.733696	-7.388151	-13.138715	66	63	81
-72.523148	-7.388688	-13.148784	65	62	80
-71.680016	-7.390435	-13.173123	60	61	79
-71.253922	-7.389187	-13.100942	61	61	80
-70.200050	-7.391365	-13.131150	61	62	83
-69.989334	-7.391833	-13.138485	62	62	81
-69.355125	-7.392202	-13.119352	62	64	82
-68.933601	-7.393103	-13.132626	61	64	83
-67.879402	-7.395179	-13.158759	63	64	80
-67.669197	-7.395955	-13.178339	63	65	84
-66.826797	-7.398236	-13.223903	67	67	82
-66.405396	-7.399290	-13.243274	67	66	84
-65.348167	-7.399654	-13.201368	66	67	83
-65.138062	-7.400569	-13.226481	66	71	86
-64.295044	-7.402625	-13.263067	67	68	84
-63.872723	-7.403119	-13.260169	67	68	87
-63.029854	-7.405386	-13.305176	66	62	83
-62.817772	-7.404954	-13.276730	63	62	82
-61.973713	-7.406362	-13.287592	64	64	81
-61.552288	-7.407568	-13.312977	66	63	81
-60.497204	-7.409393	-13.329128	65	62	80
-60.285198	-7.408872	-13.297167	61	64	80
-59.441299	-7.410464	-13.315319	62	64	81
-59.021091	-7.413032	-13.394761	60	62	77
-58.603817	-7.418830	-13.602486	57	59	58
-57.987381	-7.438945	-14.367325	55	55	61
-57.370277	-7.460930	-15.206292	58	57	64
-56.955746	-7.473367	-15.677436	56	58	63
-56.540146	-7.485605	-16.140612	57	58	66
-55.498608	-7.518310	-17.382057	57	58	64
-55.080715	-7.532052	-17.904772	58	58	63
-54.661930	-7.546003	-18.435713	57	58	66
-53.607883	-7.575607	-19.553570	58	57	64
-52.551357	-7.612748	-20.970160	57	57	64
-52.339413	-7.620679	-21.273365	56	55	63
-51.700623	-7.640676	-22.032349	55	55	64
-51.059731	-7.661095	-22.807941	56	56	62
-50.201759	-7.688696	-23.856833	59	57	67
-49.555599	-7.709337	-24.640953	56	56	64
-49.339748	-7.716653	-24.919582	55	56	65
-47.603504	-7.769835	-26.936073	60	58	65
-43.854305	-7.902991	-32.016872	112	111	113
-43.178455	-7.938984	-33.408215	113	113	113
-42.952045	-7.951473	-33.891434	110	110	110
-42.725849	-7.962531	-34.317886	108	106	109
-42.500214	-7.971646	-34.667355	108	105	110
-42.275196	-7.978917	-34.943707	112	109	113
-42.051094	-7.983993	-35.133041	123	120	124
-41.383602	-7.989305	-35.308128	145	138	141
-40.719646	-7.988453	-35.238998	143	141	142
-40.278057	-7.986555	-35.140171	142	137	139
-39.842560	-7.976604	-34.722385	142	137	140
-134.908691	-7.333899	-6.056798	39	40	47
-134.713852	-7.335840	-6.122126	40	40	47
-133.703812	-7.341125	-6.275106	40	42	48
-133.486740	-7.340286	-6.231144	39	43	49
-132.659027	-7.342057	-6.256914	41	40	46
-132.246613	-7.343132	-6.277213	40	42	48
-131.210281	-7.345148	-6.301649	40	40	46
-130.385925	-7.347390	-6.345908	41	42	49
-129.985565	-7.350081	-6.429744	41	40	47
-128.940430	-7.350975	-6.410015	39	40	45
-128.725281	-7.350328	-6.373652	39	40	45
-127.901070	-7.352633	-6.420378	41	40	46
-127.489128	-7.353816	-6.444913	40	41	48
-126.451736	-7.355756	-6.466336	42	41	47
-126.230598	-7.354250	-6.396222	41	40	47
-125.379211	-7.352779	-6.294607	40	39	47
-124.987511	-7.356813	-6.431129	40	41	44
-123.964256	-7.360774	-6.531891	41	42	47
-123.749611	-7.360141	-6.496102	42	41	49
-122.908607	-7.360105	-6.450836	42	40	47
-122.496918	-7.361360	-6.478197	39	41	46
-121.469200	-7.364752	-6.556607	40	39	44
-121.266769	-7.365897	-6.590616	40	41	44
-120.441071	-7.368133	-6.634566	40	39	47
-120.008156	-7.366231	-6.538023	42	42	51
-119.168327	-7.366308	-6.497223	42	43	47
-118.969208	-7.367981	-6.551954	44	43	48
-118.579910	-7.372732	-6.716486	42	41	48
-118.191658	-7.377694	-6.889271	40	41	49
-75.481918	-7.596835	-13.188564	62	64	79
-60.712673	-7.623779	-13.467007	66	64	82
-60.289757	-7.623837	-13.447226	64	63	77
-59.233891	-7.625213	-13.445743	62	61	76
-58.400711	-7.638839	-13.932412	59	56	61
-57.372883	-7.675703	-15.312936	58	56	64
-56.125389	-7.712525	-16.680437	58	58	66
-55.708740	-7.726224	-17.191643	59	58	66
-54.872753	-7.754112	-18.232979	55	56	61
-53.186714	-7.805513	-20.144756	56	56	62
-51.274761	-7.872931	-22.667862	56	57	64
-50.846992	-7.888363	-23.245949	56	55	63
-49.340408	-7.936830	-25.052895	56	56	65
-48.690968	-7.957527	-25.824238	59	57	66
-48.256760	-7.970866	-26.320534	60	60	66
-48.039299	-7.977231	-26.556820	60	59	65
-47.603642	-7.990901	-27.065910	59	59	65
-47.385437	-7.997792	-27.322620	58	58	62
-47.166981	-8.004711	-27.580418	58	58	62
-46.948181	-8.012475	-27.871046	57	58	62
-46.728985	-8.021102	-28.195236	57	57	63
-46.289742	-8.037826	-28.822941	59	56	65
-45.849667	-8.052662	-29.377205	58	58	65
-45.629341	-8.059570	-29.634457	59	59	66
-45.188374	-8.071748	-30.085218	61	61	69
-44.967560	-8.077838	-30.310648	63	64	70
