-49.770023	10.151908	-31.760183	144	145	150
-49.551064	10.156493	-32.093815	142	147	146
-49.111813	10.162958	-32.578758	144	145	155
-48.891628	10.164152	-32.683929	139	145	151
-48.230480	10.171834	-33.275799	141	146	149
-47.346069	10.183629	-34.169930	145	147	153
-46.680996	10.190269	-34.691948	147	151	156
-86.746490	9.848972	-21.702650	24	27	28
-86.588707	9.858199	-22.363976	25	27	27
-86.448273	9.870440	-23.233421	23	25	28
-86.289688	9.879764	-23.901621	21	21	23
-85.951553	9.895171	-25.014631	17	15	17
-85.781715	9.902880	-25.571615	16	16	16
-85.421913	9.915090	-26.464186	14	16	16
-85.219818	9.917438	-26.651241	13	15	17
-85.011482	9.918724	-26.764946	14	15	16
-84.403534	9.925742	-27.324347	15	14	16
-84.207054	9.929255	-27.591873	15	14	16
-84.007462	9.932250	-27.823708	15	13	16
-83.800430	9.933933	-27.964991	14	13	16
-83.590118	9.935043	-28.066643	14	14	15
-82.759628	9.941677	-28.624964	13	13	13
-82.538345	9.940822	-28.590918	13	12	13
-82.317024	9.939954	-28.555969	14	13	16
-81.855515	9.934566	-28.233757	12	12	15
-81.619942	9.930896	-28.005129	12	11	14
-81.382179	9.926754	-27.743868	12	10	11
-73.971298	9.809675	-20.439150	83	82	90
-69.977554	9.827320	-22.130314	31	31	31
-69.775719	9.830967	-22.407864	27	27	28
-69.209702	9.854416	-24.107714	19	18	20
-68.821411	9.867503	-25.064798	15	15	18
-68.622185	9.872668	-25.447794	14	15	18
-68.238350	9.888045	-26.563997	15	13	16
-68.048378	9.896628	-27.184185	15	13	17
-67.639175	9.904690	-27.793390	15	15	14
-67.423950	9.905309	-27.861349	15	15	14
-67.002747	9.909784	-28.221975	15	15	15
-66.793465	9.912567	-28.440147	15	15	16
-66.356255	9.911739	-28.432940	15	14	18
-66.134033	9.910019	-28.338697	16	15	18
-65.917755	9.910433	-28.392479	15	14	16
-65.704735	9.912063	-28.530745	15	14	16
-65.489136	9.912779	-28.605553	14	13	15
-65.267082	9.911085	-28.513149	14	13	15
-64.822052	9.907229	-28.295767	14	12	14
-64.375870	9.902745	-28.034767	14	13	14
-64.145187	9.897358	-27.685877	14	14	17
-63.910789	9.890312	-27.221886	15	15	18
-63.681908	9.885367	-26.903625	15	15	17
-55.592861	9.840959	-24.742559	138	138	144
-55.380959	9.844754	-25.031597	136	139	144
-54.737576	9.850262	-25.489786	141	139	150
-54.520744	9.849995	-25.496202	142	144	151
-54.089573	9.852186	-25.698801	143	146	150
-53.879089	9.859207	-26.212503	143	148	152
-53.670238	9.868739	-26.900986	145	149	153
-53.456856	9.873542	-27.260427	146	149	153
-53.242786	9.877912	-27.589760	144	144	153
-53.027710	9.881369	-27.855547	142	146	150
-52.592442	9.881907	-27.943361	146	149	152
-52.160793	9.888609	-28.460390	146	150	149
-51.946495	9.895247	-28.947824	144	148	149
-51.730789	9.900168	-29.315779	144	152	155
-51.513058	9.901828	-29.456600	142	152	156
-51.077431	9.905704	-29.777143	148	147	151
-50.860092	9.909368	-30.057570	145	147	152
-50.425140	9.918267	-30.728142	140	146	150
-50.207047	9.922310	-31.035126	139	145	150
-49.988518	9.925839	-31.306328	144	146	148
-49.769859	9.929927	-31.616507	143	146	148
-49.550995	9.934469	-31.958427	141	145	146
-49.111969	9.941402	-32.492386	145	145	154
-48.451271	9.945708	-32.868874	140	145	151
-48.230801	9.949412	-33.152496	142	149	147
-48.010036	9.953693	-33.476379	141	147	146
-47.789036	9.956755	-33.715317	141	146	148
-47.567902	9.958889	-33.889622	140	146	149
-47.124813	9.964978	-34.365253	145	151	152
-46.902905	9.968129	-34.610485	146	150	155
-46.681011	9.970204	-34.780811	150	151	156
-85.449394	9.702135	-26.787039	15	14	17
-84.448669	9.715552	-27.874590	16	14	17
-83.620934	9.722153	-28.449636	14	14	14
-83.192871	9.723062	-28.566261	14	14	12
-82.114044	9.723910	-28.756212	13	13	14
-66.591782	9.699394	-28.838928	15	16	18
-66.152519	9.697988	-28.789883	17	15	15
-64.832047	9.692537	-28.554125	15	14	16
-54.088154	9.633352	-25.565130	142	144	150
-50.424328	9.695613	-30.494860	140	144	150
-48.892056	9.721316	-32.532372	143	148	153
-86.301079	9.448942	-24.022367	20	20	22
-85.283401	9.492483	-27.404484	15	14	16
-84.888176	9.498502	-27.903404	15	15	16
-84.285316	9.506153	-28.550053	16	15	15
-84.074837	9.507168	-28.651947	15	15	15
-83.648705	9.508367	-28.794159	14	13	14
-83.212318	9.507840	-28.808645	13	12	15
-82.777084	9.507520	-28.838366	12	12	13
-82.565933	9.508500	-28.937754	12	12	14
-82.354858	9.509512	-29.039433	13	11	14
-81.910866	9.507669	-28.956404	12	11	12
-81.660561	9.501628	-28.535442	12	11	12
-73.536293	9.378435	-20.323561	83	86	87
-72.914482	9.382601	-20.711849	81	84	82
-70.183548	9.394312	-21.924698	41	41	40
-69.223450	9.425558	-24.380135	18	19	20
-68.662842	9.450499	-26.314693	15	15	15
-67.866837	9.471597	-27.990900	15	13	16
-67.657753	9.474068	-28.201509	15	13	15
-67.451469	9.477478	-28.482042	15	13	15
-67.036140	9.483676	-28.996887	14	14	15
-66.823265	9.485210	-29.137918	14	14	15
-66.388870	9.485550	-29.216858	17	14	12
-66.171852	9.485797	-29.262129	14	12	13
-65.286240	9.480759	-28.994524	14	13	14
-65.063782	9.479063	-28.895155	15	12	15
-64.843918	9.478270	-28.862915	15	13	15
-64.406242	9.477407	-28.852425	15	14	15
-64.185211	9.476147	-28.785414	14	13	14
-54.734879	9.413402	-25.258286	141	142	149
-54.518806	9.413743	-25.310507	141	143	150
-54.302349	9.413754	-25.338043	140	144	151
-52.805050	9.438078	-27.342066	144	147	150
-52.589375	9.440641	-27.560362	143	145	151
-52.157784	9.446368	-28.041925	144	145	152
-51.941849	9.449574	-28.308321	143	145	152
-51.727123	9.455280	-28.761623	142	143	151
-51.511295	9.459786	-29.125294	141	147	151
-50.858692	9.466469	-29.705597	138	146	153
-50.640942	9.469095	-29.928928	141	146	152
-49.769508	9.486300	-31.323263	143	149	150
-49.550453	9.489010	-31.552982	145	146	153
-49.112083	9.497205	-32.219925	141	148	152
-48.231441	9.504875	-32.902317	139	146	150
-47.789619	9.515860	-33.778347	141	142	145
-47.568413	9.518178	-33.979042	141	144	147
-46.904026	9.523289	-34.443295	145	152	154
-46.682262	9.524999	-34.598511	144	149	152
-140.642303	9.512987	-38.842789	24	23	26
-86.473289	9.226274	-23.505131	23	24	25
-85.990990	9.250670	-25.460636	17	15	16
-85.830536	9.259045	-26.131243	16	15	17
-85.661919	9.266254	-26.712444	15	15	15
-85.308296	9.278370	-27.698172	15	15	17
-85.120453	9.282802	-28.066172	16	15	16
-84.726662	9.288946	-28.593483	16	15	15
-84.322731	9.293620	-29.007856	15	15	16
-84.111458	9.294494	-29.102705	15	14	18
-83.896187	9.294728	-29.148415	14	14	18
-83.457085	9.293806	-29.132874	14	15	16
-83.234428	9.292825	-29.085154	14	14	16
-82.796486	9.292080	-29.083309	15	15	16
-82.587318	9.293370	-29.210161	14	14	15
-81.935516	9.293163	-29.277412	12	11	13
-73.750137	9.164098	-20.303799	80	84	85
-73.124977	9.167265	-20.629469	79	83	80
-70.175545	9.176920	-21.755733	43	44	42
-69.749001	9.177244	-21.835442	28	30	29
-69.555603	9.182745	-22.287161	25	26	27
-68.876801	9.232428	-26.230698	15	15	16
-68.687988	9.240133	-26.852983	14	14	15
-68.299957	9.253065	-27.906380	15	13	15
-67.878319	9.256701	-28.242477	16	14	17
-67.669594	9.259212	-28.464149	15	15	16
-67.466461	9.263474	-28.820950	15	14	14
-67.263771	9.267978	-29.196463	14	14	14
-66.192001	9.273407	-29.754784	14	14	15
-65.077873	9.265184	-29.258850	15	12	14
-64.857544	9.264309	-29.218987	15	12	13
-64.635941	9.262967	-29.143150	14	14	14
-64.194016	9.260670	-29.021217	14	14	14
-56.216385	9.173027	-23.236719	133	136	138
-54.948692	9.194139	-25.037519	139	141	152
-54.301540	9.195860	-25.253782	140	149	153
-53.448620	9.210138	-26.471193	147	145	153
-53.234882	9.213973	-26.796164	142	145	152
-53.020176	9.217024	-27.060444	145	145	153
-52.373432	9.224667	-27.736349	149	146	152
-51.509785	9.237899	-28.873863	141	146	154
-51.293030	9.240918	-29.135939	140	147	151
-51.075542	9.242968	-29.322845	142	148	152
-50.857700	9.244638	-29.480364	143	146	156
-50.422810	9.251263	-30.050117	143	149	150
-50.205669	9.256681	-30.498543	144	148	150
-49.987873	9.261360	-30.889523	144	151	154
-49.769287	9.264526	-31.163252	143	148	152
-49.550247	9.266850	-31.371696	142	144	152
-49.112186	9.275586	-32.105793	139	146	153
-48.892544	9.279315	-32.423302	143	146	152
-48.672405	9.280591	-32.550453	142	149	154
-48.452087	9.280468	-32.569057	139	147	150
-48.231762	9.282735	-32.773159	140	145	149
-48.011139	9.287672	-33.184650	141	144	148
-47.790081	9.293066	-33.631577	140	141	147
-47.568813	9.296475	-33.924503	139	144	148
-47.126095	9.299697	-34.231190	143	149	151
-46.904301	9.302253	-34.457874	144	151	152
-46.682602	9.303617	-34.592056	145	151	153
-141.118927	9.278064	-37.877113	22	21	25
-140.793365	9.284978	-38.478176	23	22	26
-140.648590	9.289598	-38.870045	24	24	27
-139.810699	9.291852	-39.162979	26	25	29
-85.505638	9.057438	-27.442076	14	13	16
-84.558777	9.077837	-29.213409	14	14	17
-83.266121	9.079070	-29.484171	14	15	14
-73.329613	8.950741	-20.445803	78	81	80
-72.915009	8.953281	-20.705734	77	79	77
-69.931267	8.953996	-21.158588	37	39	38
-68.106842	9.041507	-28.461260	16	14	15
-67.892418	9.042299	-28.553623	16	15	14
-67.480125	9.048756	-29.129190	15	12	15
-66.643829	9.059126	-30.076729	16	14	16
-66.207359	9.059043	-30.127800	14	15	15
-65.310951	9.051296	-29.621508	14	14	14
-64.871605	9.050142	-29.586624	14	13	15
-56.215584	8.956443	-23.172821	132	135	138
-55.161533	8.974482	-24.767958	141	145	151
-54.517132	8.978076	-25.143324	141	142	149
-54.086838	8.980389	-25.386959	138	140	152
-53.234169	8.995290	-26.702229	142	142	152
-52.803143	8.999390	-27.090124	143	143	150
-52.587749	9.001945	-27.324888	142	147	154
-52.156879	9.007900	-27.862459	144	149	153
-51.508121	9.016002	-28.602007	146	146	155
-50.205387	9.035647	-30.359785	146	150	151
-49.768986	9.042616	-30.979837	140	145	151
-48.892727	9.057885	-32.327934	143	145	151
-48.452389	9.059529	-32.518898	142	145	148
-48.232082	9.061024	-32.668671	140	146	149
-47.790638	9.069154	-33.383129	142	144	147
-47.347984	9.076158	-34.006916	140	143	147
-46.682865	9.082515	-34.607971	142	149	152
-141.155823	9.056967	-38.054588	22	22	25
-140.991348	9.060173	-38.346523	21	23	27
-140.123367	9.073673	-39.599945	26	26	30
-139.857468	9.070773	-39.392925	29	25	29
-92.262138	8.746591	-18.710386	53	55	54
-86.435135	8.788741	-23.052492	26	22	24
-86.283287	8.797369	-23.798096	21	18	20
-86.154884	8.809399	-24.826210	17	16	17
-85.871323	8.830072	-26.601732	14	15	14
-85.701340	8.836553	-27.169428	13	14	15
-85.364937	8.850268	-28.367800	15	14	15
-85.191704	8.856519	-28.916613	14	14	16
-85.000862	8.860266	-29.257595	14	13	16
-84.381744	8.864844	-29.727356	16	14	15
-84.171158	8.865783	-29.835165	15	15	15
-83.741974	8.866488	-29.953482	14	14	13
-83.306625	8.866280	-29.995819	14	12	15
-83.088684	8.866138	-30.013924	13	12	15
-82.643745	8.864444	-29.932779	13	13	13
-82.407242	8.861371	-29.707281	14	12	13
-73.543076	8.736266	-20.418341	77	80	80
-73.334557	8.737191	-20.524717	77	80	80
-73.123734	8.737649	-20.592163	78	80	81
-72.912537	8.738040	-20.654066	77	81	81
-69.897964	8.730975	-20.475319	48	49	50
-69.708176	8.736708	-20.982937	38	38	37
-68.923767	8.809728	-27.224327	15	14	15
-68.735565	8.817110	-27.870289	15	14	16
-68.124184	8.827675	-28.841827	16	14	15
-67.908241	8.828059	-28.903778	15	14	15
-67.696678	8.829666	-29.067854	16	14	15
-67.290955	8.837913	-29.816328	16	15	16
-67.085381	8.841415	-30.138876	15	14	15
-66.873039	8.843061	-30.306362	14	14	14
-66.656342	8.843483	-30.371517	15	14	14
-66.437958	8.843424	-30.396606	14	14	14
-65.996483	8.841904	-30.329689	12	14	13
-65.772911	8.840261	-30.222500	14	13	14
-65.548676	8.838380	-30.095303	15	13	14
-64.884323	8.835183	-29.918158	14	14	14
-56.643471	8.738829	-22.958452	105	112	125
-56.428360	8.738858	-22.990532	122	127	137
-55.789719	8.743733	-23.487875	139	138	144
-55.581203	8.748721	-23.935516	140	142	146
-55.372799	8.754111	-24.416920	139	144	145
-55.160004	8.756512	-24.647802	143	143	147
-54.945629	8.757845	-24.789293	144	145	152
-54.516121	8.760216	-25.047523	138	146	149
-54.301136	8.761364	-25.173561	141	145	150
-53.872246	8.765010	-25.538746	144	147	150
-53.658730	8.767997	-25.819035	145	146	152
-53.445583	8.771637	-26.154121	141	146	150
-53.232151	8.775317	-26.492601	139	143	152
-52.802422	8.780497	-26.986824	142	145	150
-52.586731	8.782516	-27.186045	139	148	152
-52.155704	8.787824	-27.691181	146	147	153
-51.939667	8.790248	-27.924541	147	148	153
-51.723553	8.792900	-28.177031	144	144	152
-51.507164	8.795510	-28.426031	146	146	155
-50.639904	8.807491	-29.551771	143	144	154
-50.422874	8.811624	-29.928677	143	143	153
-50.205215	8.815038	-30.245440	142	144	153
-49.768719	8.821001	-30.806318	139	146	153
-49.550224	8.824646	-31.142591	142	146	155
-49.331524	8.828848	-31.525627	146	144	152
-49.112408	8.832808	-31.888432	145	144	151
-48.892773	8.835435	-32.139233	142	146	150
-48.452663	8.838131	-32.426285	143	147	147
-47.791195	8.845504	-33.136574	140	145	149
-47.348728	8.852526	-33.787197	140	144	149
-47.127071	8.855775	-34.090652	141	144	151
-46.905148	8.858922	-34.385532	143	146	150
-46.239178	8.864208	-34.921169	143	148	152
-46.017597	8.864127	-34.944866	146	148	152
-45.795261	8.865673	-35.105259	145	147	151
-141.571136	8.832446	-37.893467	21	21	24
-141.171463	8.834467	-38.127636	22	23	25
-140.906174	8.844308	-39.027607	23	23	27
-140.780472	8.849669	-39.515202	25	23	27
-140.410049	8.853520	-39.905479	26	26	31
-139.632172	8.846300	-39.384411	29	25	30
-86.733788	8.555944	-21.523010	27	27	28
-86.594887	8.565735	-22.400419	26	25	26
-86.406654	8.569048	-22.717512	26	24	25
-86.049629	8.607452	-26.132427	16	15	16
-85.895828	8.615800	-26.885551	14	15	15
-85.558914	8.628743	-28.067482	14	14	14
-85.396065	8.636113	-28.736341	14	13	16
-85.033066	8.645880	-29.643721	15	14	14
-84.828163	8.647544	-29.818777	15	14	13
-84.408768	8.649570	-30.056213	14	14	15
-84.198830	8.650573	-30.174141	15	14	17
-83.988144	8.651484	-30.284065	15	14	17
-83.775764	8.652163	-30.373945	15	14	16
-83.562668	8.652749	-30.455841	15	14	17
-83.120964	8.651653	-30.423010	15	14	16
-82.891006	8.649740	-30.288372	14	14	16
-82.654427	8.646811	-30.065664	13	13	14
-69.865746	8.508873	-19.814117	58	59	63
-69.279190	8.573065	-25.520544	20	20	21
-69.117424	8.586253	-26.698874	16	16	17
-68.941612	8.596250	-27.599571	15	15	16
-68.553955	8.607793	-28.666063	14	15	15
-68.350807	8.611380	-29.009377	15	13	14
-67.920837	8.612633	-29.180662	15	14	15
-67.502182	8.616995	-29.622637	16	15	14
-66.228951	8.626600	-30.646135	14	14	17
-66.007507	8.625687	-30.597849	15	14	16
-65.564674	8.623836	-30.499077	13	13	13
-65.120865	8.621626	-30.369028	14	13	13
-56.213097	8.522895	-22.996111	134	134	135
-53.016682	8.559279	-26.640434	140	143	152
-52.585857	8.563393	-27.062363	142	147	149
-52.369930	8.565187	-27.250431	142	148	152
-51.506836	8.576166	-28.335655	143	149	153
-51.073208	8.580752	-28.799417	142	148	154
-50.856655	8.584209	-29.133158	143	144	152
-50.205162	8.594855	-30.158861	143	144	153
-49.550121	8.603352	-30.996792	145	146	155
-49.331451	8.607185	-31.363865	148	148	154
-49.112221	8.609850	-31.628679	148	148	148
-48.672825	8.613346	-31.997719	143	143	148
-48.452892	8.615794	-32.243660	142	146	149
-48.012306	8.620796	-32.744816	143	144	149
-47.570812	8.625286	-33.201241	142	144	149
-47.349632	8.628147	-33.483498	140	145	149
-47.128029	8.631699	-33.826317	139	144	150
-46.905937	8.635864	-34.222916	142	143	149
-46.683338	8.640428	-34.654465	142	147	150
-46.460808	8.643572	-34.961761	142	148	151
-46.238579	8.645139	-35.130806	143	146	152
-46.016792	8.645281	-35.174961	146	147	152
-141.475983	8.615850	-38.519634	22	22	24
-141.033829	8.627527	-39.654091	23	23	27
-140.894516	8.631909	-40.075840	24	23	28
-140.467117	8.632412	-40.185509	25	25	29
-140.207596	8.630095	-40.012192	26	25	30
-92.933289	8.323266	-18.987921	57	59	60
-92.708931	8.321793	-18.886568	56	58	58
-92.273697	8.320297	-18.814667	52	53	55
-84.855118	8.432008	-30.142897	14	14	16
-84.436760	8.434105	-30.397217	15	15	16
-83.384567	8.438758	-30.979879	16	13	14
-83.145073	8.435602	-30.726891	14	13	15
-70.495827	8.292890	-19.555077	73	75	85
-68.363640	8.395755	-29.285448	15	14	16
-67.312752	8.405232	-30.309431	14	14	17
-66.676270	8.409958	-30.836735	15	14	16
-66.243317	8.410975	-30.994307	17	15	15
-66.024010	8.410727	-31.004313	16	14	15
-65.357964	8.407657	-30.822800	14	12	14
-56.641834	8.306156	-22.835335	116	119	129
-56.424789	8.304980	-22.760126	124	124	131
-55.580048	8.315227	-23.823631	138	141	150
-55.371605	8.320086	-24.299431	140	142	148
-55.159763	8.322892	-24.587744	140	139	147
-54.945892	8.324432	-24.760620	143	140	148
-54.516178	8.326378	-25.002699	138	142	153
-54.301201	8.327393	-25.127632	137	142	151
-53.871014	8.329534	-25.387669	138	143	153
-52.801380	8.343433	-26.819069	140	144	150
-48.892349	8.387341	-31.419704	144	149	149
-47.792118	8.401073	-32.840389	143	143	148
-140.556808	8.412773	-40.627743	25	26	30
-92.966919	8.112836	-19.311871	58	59	60
-92.492523	8.107321	-18.857533	53	54	56
-92.300568	8.109292	-19.076273	51	52	54
-85.770561	8.191579	-27.974884	15	14	16
-85.073647	8.212901	-30.125692	14	14	16
-84.871895	8.214834	-30.342281	14	14	15
-84.461388	8.217863	-30.696384	14	15	13
-84.253647	8.219084	-30.845655	14	15	12
-84.048256	8.220635	-31.026188	13	14	13
-83.637932	8.223867	-31.399727	14	12	14
-70.496124	8.078807	-19.552601	73	76	86
-69.629875	8.075337	-19.355179	59	63	62
-68.962006	8.164722	-28.020588	16	14	16
-68.776993	8.171981	-28.744646	15	14	16
-68.573288	8.175077	-29.072969	14	14	15
-68.168503	8.182116	-29.810108	13	14	16
-67.332405	8.190692	-30.761795	16	14	16
-67.115128	8.190915	-30.817087	14	15	14
-66.904343	8.192795	-31.029955	13	15	13
-66.264908	8.196899	-31.522688	14	14	17
-66.043770	8.196233	-31.493217	13	13	15
-65.591782	8.192227	-31.180035	15	14	14
-65.364227	8.189733	-30.976524	14	13	13
-56.423660	8.088576	-22.680161	130	132	136
-55.995213	8.089478	-22.833368	139	141	147
-55.785572	8.092797	-23.183842	140	138	146
-55.577705	8.097448	-23.661703	143	143	146
-55.369682	8.102297	-24.158508	142	142	151
-55.158993	8.105686	-24.516008	141	143	151
-54.945759	8.107558	-24.728550	144	142	150
-54.730728	8.108298	-24.832850	142	142	151
-54.515629	8.109060	-24.939327	140	141	152
-54.300690	8.110023	-25.065008	138	144	149
-53.870907	8.112323	-25.352297	141	145	150
-53.441097	8.115091	-25.684376	140	146	154
-53.227722	8.118121	-26.007803	140	144	153
-53.014866	8.121958	-26.408499	140	144	151
-52.800785	8.124948	-26.728176	140	143	150
-52.369659	8.128634	-27.148451	144	142	150
-52.154388	8.131189	-27.426718	146	146	151
-51.939091	8.134047	-27.733879	146	148	152
-51.723434	8.136823	-28.033413	143	145	151
-51.507084	8.139027	-28.278164	143	147	152
-51.290115	8.140646	-28.467049	145	149	153
-50.855968	8.144498	-28.903679	144	146	156
-50.639553	8.148308	-29.302256	144	146	159
-50.422745	8.152102	-29.699419	146	147	156
-50.205032	8.154678	-29.980143	144	145	151
-49.986652	8.156203	-30.160160	146	148	150
-49.768143	8.157859	-30.352800	144	150	153
-49.330719	8.161839	-30.802198	145	149	153
-49.111561	8.163189	-30.965628	145	151	156
-48.233360	8.175703	-32.300987	144	146	152
-48.013023	8.178308	-32.584846	143	144	150
-47.792545	8.179461	-32.729568	142	142	148
-47.351028	8.182487	-33.088276	143	146	151
-47.129536	8.186065	-33.465351	144	146	153
-46.907261	8.191129	-33.985004	144	145	153
-46.461636	8.200065	-34.910351	143	148	154
-46.238911	8.202711	-35.198502	145	146	152
-45.792950	8.207367	-35.713902	145	149	152
-45.571011	8.207155	-35.728218	143	148	150
-141.453568	8.178410	-39.502487	22	22	25
-141.170029	8.186075	-40.318939	22	23	27
-141.046463	8.190864	-40.820274	23	23	28
-140.620331	8.191362	-40.939869	24	24	29
-92.505531	7.894765	-18.980883	52	54	56
-90.330902	7.887698	-18.625233	52	53	55
-85.280441	7.992377	-29.966711	15	14	15
-84.690697	7.999798	-30.808561	13	14	14
-84.069817	8.003588	-31.290537	13	13	15
-83.868668	8.005630	-31.528471	13	14	16
-83.428329	8.004899	-31.526861	13	12	15
-69.830025	7.858817	-19.065088	74	74	74
-68.799774	7.958322	-29.231318	15	14	16
-68.179985	7.965552	-30.058884	14	14	15
-67.783508	7.974529	-31.025568	15	14	15
-67.350143	7.975255	-31.169163	14	13	15
-66.921127	7.977096	-31.424038	14	15	15
-66.712509	7.979498	-31.699442	13	13	17
-65.823448	7.975805	-31.473274	14	14	15
-56.206299	7.871513	-22.561701	132	137	137
-55.783119	7.875389	-23.020056	138	140	144
-55.157207	7.887903	-24.379576	137	147	151
-54.515030	7.891769	-24.872688	142	143	150
-53.870792	7.895139	-25.316288	139	142	149
-53.227859	7.900796	-25.989580	140	145	151
-52.800667	7.907010	-26.683537	141	143	151
-51.939873	7.916598	-27.787329	142	146	156
-51.289852	7.921442	-28.379995	143	151	151
-50.204853	7.934464	-29.865227	142	143	149
-49.549335	7.938696	-30.397366	146	148	154
-49.111561	7.942018	-30.802538	146	148	153
-48.453583	7.949876	-31.699398	145	146	153
-47.792965	7.958007	-32.624096	138	143	148
-46.685055	7.974174	-34.429123	143	149	153
-46.016441	7.983162	-35.441269	145	148	153
-45.348454	7.986521	-35.887638	142	147	148
-141.424728	7.952909	-39.356918	21	23	24
-141.272659	7.956034	-39.713104	22	23	26
-141.158279	7.960997	-40.257126	23	23	27
-140.947800	7.971886	-41.443733	24	23	29
-85.078156	7.774756	-30.168430	15	14	14
-84.516838	7.785234	-31.371548	15	14	16
-84.302780	7.785594	-31.446190	14	14	16
-83.867569	7.785478	-31.508396	13	13	15
-70.496811	7.650661	-19.549511	78	80	83
-70.281326	7.650061	-19.523035	81	82	84
-70.057732	7.647905	-19.333401	80	79	82
-67.367722	7.759384	-31.572866	14	12	17
-66.725342	7.762404	-32.001865	15	16	16
-66.282509	7.761116	-31.941435	14	15	20
-55.992710	7.656539	-22.651094	139	139	145
-55.573143	7.662428	-23.345057	137	137	145
-55.364990	7.666629	-23.824503	140	143	147
-54.946152	7.674316	-24.708372	138	145	149
-54.731472	7.675177	-24.836126	138	146	150
-54.299255	7.675175	-24.909813	143	142	150
-54.084518	7.676193	-25.054079	137	141	149
-53.655743	7.679099	-25.434425	135	145	149
-53.441463	7.680859	-25.657097	139	144	150
-53.013969	7.685890	-26.261740	145	144	150
-52.585598	7.691206	-26.896709	143	147	152
-52.370815	7.693728	-27.200027	142	143	151
-52.155582	7.696081	-27.485390	141	145	151
-51.724201	7.700683	-28.045477	141	144	153
-51.507271	7.701910	-28.212244	141	148	152
-51.071461	7.702188	-28.316067	144	146	151
-50.854202	7.703487	-28.490574	143	142	152
-50.637875	7.706709	-28.867981	140	144	148
-50.421509	7.710574	-29.313307	140	143	146
-49.549355	7.718445	-30.294168	146	147	152
-49.111801	7.722129	-30.758348	143	148	149
-48.892620	7.723556	-30.946524	142	146	151
-48.453857	7.729067	-31.603964	144	143	149
-47.352165	7.738888	-32.830074	139	143	147
-46.463238	7.754772	-34.660473	144	148	153
-46.017696	7.759608	-35.247627	145	146	154
-45.348946	7.764315	-35.859364	141	147	146
-141.162888	7.736728	-40.275974	25	22	26
-85.506935	7.554998	-30.040485	15	15	15
-84.762787	7.568554	-31.684753	15	14	16
-84.325783	7.568227	-31.726887	14	14	14
-84.099342	7.567159	-31.648647	13	13	15
-70.283424	7.436317	-19.556377	72	74	71
-70.060600	7.434397	-19.382519	71	73	70
-69.838982	7.432667	-19.229649	75	75	75
-68.623909	7.528801	-30.158836	16	15	17
-68.412514	7.530043	-30.335175	16	15	17
-68.209969	7.533117	-30.714159	15	14	16
-68.012947	7.537404	-31.227230	14	12	15
-67.815071	7.541616	-31.732052	14	13	16
-67.168839	7.543563	-32.065289	14	13	14
-66.949829	7.543476	-32.094887	14	14	14
-66.725670	7.542261	-31.999857	14	15	15
-55.993916	7.441456	-22.699425	137	138	142
-55.783054	7.443590	-22.975100	138	138	144
-55.573849	7.446763	-23.366236	139	139	145
-55.365299	7.450516	-23.821922	138	141	146
-55.156292	7.454258	-24.276361	139	144	148
-54.946838	7.457997	-24.730692	138	145	149
-54.732983	7.459309	-24.915257	138	146	150
-54.516205	7.458879	-24.906315	141	145	150
-54.299122	7.458243	-24.874607	140	142	150
-53.869709	7.460263	-25.176838	141	141	147
-53.655788	7.462011	-25.410078	141	146	150
-53.442062	7.464081	-25.679171	142	144	150
-53.228172	7.466225	-25.956482	140	143	149
-52.800026	7.470905	-26.554928	140	144	151
-52.585777	7.473480	-26.880327	140	146	154
-52.371277	7.476122	-27.213264	141	145	151
-52.156052	7.478351	-27.500368	141	142	151
-51.940449	7.480470	-27.775192	140	143	152
-51.724262	7.482232	-28.010422	141	145	152
-51.507111	7.483089	-28.144981	144	148	153
-51.071121	7.482975	-28.210611	140	143	149
-50.853699	7.483860	-28.348442	141	145	149
-50.420689	7.489718	-29.079023	140	143	147
-50.203728	7.492796	-29.460934	140	142	149
-49.985977	7.494927	-29.737474	141	146	151
-49.767906	7.496917	-29.998444	143	146	149
-49.549683	7.499218	-30.294041	144	149	152
-49.331169	7.501507	-30.588352	143	148	153
-49.112194	7.502994	-30.793417	143	147	150
-48.892986	7.504259	-30.973850	142	147	151
-48.673656	7.506034	-31.211042	143	146	151
-48.454140	7.508510	-31.526320	143	144	149
-48.234318	7.511034	-31.847145	144	144	144
-48.014202	7.513168	-32.124531	142	144	144
-47.793888	7.514637	-32.327778	139	142	145
-47.573475	7.515489	-32.462288	140	142	145
-47.131992	7.518195	-32.843201	139	145	149
-46.687515	7.526868	-33.889511	144	147	154
-46.464798	7.530549	-34.339584	144	147	158
-46.019585	7.535065	-34.922871	147	150	156
-45.796421	7.537549	-35.239799	145	150	154
-45.573238	7.539585	-35.506729	144	149	151
-45.350597	7.540486	-35.647240	144	149	148
-44.906322	7.540547	-35.733940	143	151	152
-141.419220	7.504589	-39.322166	23	23	25
-141.270432	7.507509	-39.694427	24	24	25
-141.119476	7.519790	-41.170116	25	23	27
-140.911346	7.520176	-41.255096	24	24	28
-84.340012	7.349641	-31.898132	12	13	16
-67.621750	7.326500	-32.344414	13	14	14
-54.082314	7.240958	-24.835087	140	143	148
-53.867580	7.241864	-24.982481	140	147	147
-52.585175	7.255092	-26.784412	140	145	154
-51.506187	7.263448	-27.973724	144	148	152
-50.202618	7.271207	-29.135336	138	144	148
-48.893288	7.284583	-30.959761	144	145	150
-44.684177	7.318970	-35.810139	142	149	152
-84.341568	7.129601	-31.911409	14	13	17
-67.404076	7.106281	-32.398392	13	13	15
-54.732944	7.025662	-24.865124	144	145	151
-54.516068	7.025174	-24.847719	142	147	147
-54.297237	7.023533	-24.686558	139	146	150
-53.864395	7.022987	-24.705276	140	147	150
-53.444435	7.031250	-25.822592	141	143	148
-53.231113	7.033582	-26.156967	141	142	148
-53.015251	7.034266	-26.285833	140	142	149
-52.155033	7.041060	-27.307964	139	147	151
-51.938999	7.042411	-27.520317	140	146	152
-51.722340	7.043336	-27.679403	142	148	155
-50.635078	7.045483	-28.166231	142	145	148
-50.418282	7.047437	-28.454063	142	147	150
-50.201675	7.050243	-28.848381	141	147	152
-49.767693	7.056726	-29.745962	141	146	153
-49.549835	7.059405	-30.124746	143	146	153
-49.112572	7.062946	-30.655264	145	144	152
-48.454685	7.067283	-31.329582	142	147	152
-48.234951	7.068424	-31.516361	143	146	149
-47.574848	7.070837	-31.950569	140	145	149
-47.354538	7.071616	-32.092239	141	144	149
-47.133949	7.072882	-32.294785	144	146	151
-46.912773	7.075217	-32.631184	146	149	150
-46.468849	7.081106	-33.456581	146	148	154
-45.800106	7.089711	-34.666660	143	151	155
-45.576309	7.092714	-35.087032	147	150	154
-45.128780	7.097199	-35.737644	143	149	153
-72.404243	6.794504	-19.155603	78	79	78
-72.177475	6.792387	-18.922108	79	80	79
-54.294182	6.805151	-24.438225	140	145	150
-53.861382	6.804482	-24.441526	141	145	152
-53.228855	6.814617	-25.925968	139	142	149
-53.014290	6.816068	-26.164991	136	141	150
-52.799282	6.817362	-26.383123	139	141	151
-52.583900	6.818532	-26.584949	139	142	150
-52.369110	6.820337	-26.871025	139	146	147
-52.153809	6.821942	-27.130760	139	147	149
-51.937717	6.823064	-27.326181	141	146	153
-51.721027	6.823790	-27.469154	141	145	154
-51.504116	6.824434	-27.601101	141	145	154
-51.069469	6.825192	-27.794842	140	148	152
-50.851681	6.825160	-27.837013	141	145	150
-50.417358	6.827182	-28.199011	142	145	150
-50.201038	6.830071	-28.629822	142	148	154
-49.767529	6.836692	-29.603825	140	146	153
-49.549702	6.839085	-29.968876	141	145	152
-49.331322	6.840866	-30.252659	144	145	152
-49.112621	6.842496	-30.516367	145	145	154
-48.674412	6.845397	-30.996168	145	146	151
-48.454929	6.846422	-31.179482	145	143	150
-48.015438	6.848343	-31.529106	142	145	150
-47.795433	6.849347	-31.709612	139	144	150
-47.575275	6.850237	-31.875109	139	144	148
-47.354889	6.851386	-32.075115	139	144	149
-47.134239	6.852757	-32.304771	142	146	150
-46.913212	6.854539	-32.589260	146	149	150
-46.691830	6.856488	-32.895939	145	147	150
-46.470108	6.858511	-33.212685	147	149	152
-45.800900	6.867683	-34.576683	142	147	154
-45.576839	6.870873	-35.049175	144	149	157
-45.352974	6.873288	-35.418480	144	148	154
-45.129635	6.874723	-35.657249	142	146	153
-44.907211	6.874983	-35.739311	144	148	155
-44.685894	6.874096	-35.668537	145	147	155
-97.363441	6.549663	-9.063737	15	14	16
-92.879128	6.608169	-18.416277	60	59	62
-92.416893	6.605024	-18.073605	47	50	47
-72.641647	6.583897	-19.568224	73	77	78
-72.181084	6.579031	-18.980146	75	81	85
-55.139534	6.580828	-23.116699	143	143	151
-54.505066	6.586184	-24.023781	141	144	152
-54.075985	6.587281	-24.277771	142	146	153
-53.225616	6.595265	-25.608332	140	144	152
-52.583138	6.600305	-26.472330	139	141	151
-51.936348	6.603827	-27.121227	140	144	154
-51.503204	6.605312	-27.431240	142	144	155
-50.851467	6.606468	-27.744242	142	146	150
-50.201336	6.611598	-28.622759	140	146	151
-49.549828	6.619526	-29.900198	139	144	150
-49.112751	6.622458	-30.417210	143	143	153
-48.455189	6.625899	-31.056902	142	143	150
-47.795742	6.629495	-31.719126	137	144	150
-47.354939	6.632280	-32.216160	143	144	150
-46.691944	6.636409	-32.955120	146	146	150
-45.354149	6.650609	-35.281803	144	150	155
-44.908913	6.651769	-35.548317	147	150	153
-44.687233	6.651326	-35.535789	146	150	156
-97.166321	6.340955	-9.164988	17	15	16
-93.078964	6.393962	-18.275314	59	60	61
-92.873787	6.394181	-18.358820	58	60	62
-92.640831	6.392575	-18.169998	52	51	53
-92.407547	6.390936	-17.976017	47	47	47
-72.888649	6.373966	-20.144218	71	72	76
-72.651970	6.370984	-19.745659	74	77	79
-72.414474	6.367858	-19.325270	74	80	80
-72.180077	6.365058	-18.953876	75	79	88
-55.137451	6.364058	-22.961540	144	145	153
-54.503159	6.368949	-23.864971	143	147	152
-54.289028	6.369566	-24.011728	142	145	155
-54.075176	6.370392	-24.190401	143	147	154
-53.861847	6.371577	-24.423819	141	149	151
-53.648457	6.372850	-24.670637	144	149	154
-53.435421	6.374452	-24.967913	142	147	152
-53.222824	6.376478	-25.329880	140	145	150
-53.010349	6.378791	-25.735710	138	141	149
-52.796631	6.380564	-26.059153	141	142	152
-52.581703	6.381738	-26.291374	139	140	150
-52.150845	6.383841	-26.718313	139	145	151
-51.934849	6.384689	-26.900995	139	142	151
-51.718506	6.385397	-27.062054	141	145	154
-51.502300	6.386364	-27.262932	145	147	155
-51.286121	6.387545	-27.496397	144	144	153
-51.069221	6.388216	-27.651970	144	145	148
-50.851730	6.388393	-27.732199	143	146	149
-50.634430	6.388899	-27.862711	139	143	151
-50.418034	6.390770	-28.201962	138	145	153
-49.985565	6.396701	-29.215139	137	143	152
-49.768326	6.399161	-29.644646	140	142	152
-49.331848	6.402105	-30.201874	141	141	147
-49.113083	6.403184	-30.420441	141	140	150
-48.894089	6.404177	-30.625816	141	142	149
-48.674889	6.405150	-30.828304	141	145	149
-48.455486	6.405987	-31.009935	143	147	148
-48.235905	6.407009	-31.219862	140	144	146
-48.016098	6.408381	-31.483574	139	143	147
-47.354912	6.413289	-32.396072	145	144	150
-47.133995	6.414723	-32.669552	145	148	154
-46.691944	6.416492	-33.048115	144	148	153
-46.470837	6.417052	-33.187836	146	148	153
-46.248947	6.418576	-33.475224	148	147	152
-46.025703	6.421548	-33.984646	146	147	151
-45.801697	6.424848	-34.544250	144	147	152
-45.578091	6.427086	-34.941452	144	149	150
-44.465824	6.429155	-35.529644	143	149	151
-44.243233	6.429420	-35.624516	143	148	153
-97.396469	6.133284	-9.341726	16	15	16
-73.123924	6.162139	-20.503428	66	70	68
-55.974075	6.140588	-21.452877	141	143	149
-55.762978	6.141621	-21.679352	142	147	157
-55.553555	6.143347	-22.019859	144	147	155
-55.344124	6.145192	-22.380157	145	148	154
-55.135151	6.147351	-22.792368	143	150	153
-54.925705	6.149480	-23.199587	145	148	155
-54.714600	6.151087	-23.521002	144	146	157
-54.501373	6.151919	-23.714706	145	148	154
-53.861835	6.155020	-24.395910	145	148	151
-53.222359	6.159215	-25.258223	141	146	152
-52.580757	6.163649	-26.160370	140	140	149
-52.364872	6.164191	-26.306992	138	141	148
-52.149445	6.165146	-26.521570	140	143	153
-51.501553	6.167709	-27.116037	140	145	156
-50.852367	6.170713	-27.783882	142	142	147
-50.202690	6.175703	-28.780104	140	147	152
-49.550816	6.182120	-30.013210	141	141	152
-49.332333	6.183299	-30.265709	143	139	152
-48.016441	6.188298	-31.438938	142	142	148
-47.796329	6.189974	-31.774101	140	139	147
-47.575882	6.191715	-32.120094	139	140	147
-47.355129	6.193343	-32.447407	143	143	149
-47.134182	6.194670	-32.725143	143	146	150
-46.913120	6.195665	-32.947929	142	148	152
-46.692093	6.196216	-33.097172	142	150	155
-46.470974	6.196684	-33.232830	146	149	155
-46.249111	6.198003	-33.509445	146	148	153
-46.025967	6.200584	-33.995014	144	147	150
-45.802132	6.203408	-34.521053	144	148	152
-45.578762	6.205220	-34.879562	144	147	152
-45.356533	6.205609	-35.002361	142	145	153
-45.134567	6.205658	-35.068954	143	147	154
-44.911758	6.206352	-35.242416	143	149	153
-44.688572	6.207211	-35.443161	141	148	152
-44.465267	6.208011	-35.634300	142	147	153
-44.241936	6.208704	-35.807571	143	149	153
-64.261086	5.923814	-18.757252	46	47	48
-54.925621	5.933523	-23.170986	144	148	155
-54.075142	5.937534	-24.135601	143	147	153
-53.862103	5.938609	-24.389914	144	147	152
-51.932949	5.947787	-26.592468	143	144	150
-49.113762	5.964666	-30.434841	142	144	150
-48.236546	5.967055	-31.115295	142	142	150
-47.796768	5.969338	-31.651878	137	140	146
-46.692909	5.974799	-32.949680	142	149	152
-45.356915	5.984024	-34.991287	143	146	155
-44.242104	5.986879	-35.823555	144	147	155
-64.458839	5.708228	-18.316771	62	63	67
-64.248894	5.708389	-18.414162	58	59	62
-53.219746	5.724133	-24.965651	141	145	153
-53.006401	5.725362	-25.274670	140	146	152
-52.793243	5.726830	-25.630865	139	144	150
-52.578403	5.727606	-25.851095	140	143	152
-52.147472	5.728801	-26.221426	142	145	149
-51.931919	5.729511	-26.428751	144	146	150
-51.715981	5.730100	-26.612339	141	146	147
-51.500130	5.730869	-26.831575	139	145	147
-51.284428	5.731908	-27.103878	140	142	150
-50.852356	5.734092	-27.669743	136	141	147
-50.635727	5.735011	-27.918699	139	141	148
-50.202366	5.737564	-28.557756	139	143	151
-49.767963	5.740408	-29.254524	142	143	150
-49.332333	5.743508	-30.002201	139	146	150
-49.113758	5.744511	-30.268181	140	146	150
-48.675671	5.745707	-30.641056	140	144	150
-48.456348	5.746191	-30.805000	141	142	150
-48.236862	5.746710	-30.976044	141	143	148
-48.017197	5.747431	-31.186794	140	141	146
-47.797237	5.748625	-31.491140	137	141	147
-47.576965	5.749885	-31.808434	136	144	148
-47.356445	5.750979	-32.093338	139	144	147
-47.135830	5.751699	-32.304184	141	142	149
-46.915028	5.752384	-32.508232	141	145	152
-46.693993	5.753123	-32.723076	144	147	152
-46.027931	5.757118	-33.719280	144	146	153
-45.357265	5.762470	-34.984634	145	146	153
-45.134659	5.762938	-35.146568	144	147	149
-44.689625	5.763452	-35.386837	146	150	154
-44.467075	5.763620	-35.489689	142	148	153
-44.243408	5.764378	-35.709034	140	146	153
-69.879410	5.510920	-19.972172	73	77	75
-69.656021	5.509722	-19.787600	75	77	76
-65.083260	5.493800	-17.888893	63	67	63
-64.872635	5.493790	-17.959225	64	66	66
-64.451675	5.493832	-18.113522	68	69	73
-55.552578	5.497108	-21.897821	146	149	156
-55.341038	5.497812	-22.124296	146	149	157
-55.130360	5.498831	-22.419434	146	149	157
-54.495014	5.501373	-23.193623	146	149	156
-54.066521	5.501786	-23.431540	147	150	157
-53.852402	5.502101	-23.574062	147	149	157
-52.361755	5.510232	-25.863195	138	144	151
-51.714527	5.511598	-26.384472	141	144	150
-51.067699	5.514332	-27.204536	138	141	147
-50.635159	5.516160	-27.752771	140	143	147
-50.201778	5.518215	-28.350790	138	146	152
-49.767021	5.519986	-28.887312	141	145	149
-49.549545	5.521321	-29.253683	139	144	150
-49.113522	5.523985	-29.985586	139	143	148
-47.797729	5.527964	-31.308088	139	139	146
-47.136780	5.530273	-32.040016	141	143	149
-46.474010	5.532217	-32.692966	146	147	158
-46.252300	5.533247	-32.994328	147	148	157
-46.029644	5.534892	-33.430138	146	148	156
-45.805855	5.537146	-33.999458	144	149	155
-45.581676	5.539267	-34.539783	144	150	153
-45.135593	5.540920	-35.054344	145	145	152
-44.246040	5.541297	-35.443478	145	148	151
-43.796986	5.543228	-36.019989	140	145	149
-43.574924	5.542904	-36.025818	143	149	149
-64.871719	5.280365	-17.924896	64	66	65
-55.552361	5.281798	-21.863863	147	148	158
-55.130688	5.283402	-22.418098	146	148	158
-54.709148	5.285345	-23.055008	146	147	159
-54.066704	5.285823	-23.419342	148	150	159
-53.852539	5.286053	-23.557928	147	148	157
-52.791985	5.292095	-25.442753	144	146	154
-52.576355	5.292287	-25.572813	142	147	152
-52.144238	5.292449	-25.778784	141	144	151
-51.282433	5.294929	-26.716473	142	145	149
-50.850697	5.296535	-27.275339	142	142	148
-50.418148	5.298368	-27.889626	138	146	151
-49.766304	5.300185	-28.584738	140	144	150
-48.456760	5.305398	-30.362553	139	144	148
-47.357899	5.309006	-31.667477	140	144	147
-46.696018	5.310592	-32.309769	140	144	154
-45.359222	5.318566	-34.773163	146	148	154
-44.915733	5.318248	-34.866226	144	147	154
-44.694336	5.317874	-34.860153	143	147	156
-44.247993	5.318787	-35.255032	147	147	151
-43.575634	5.320720	-35.986267	144	147	149
-65.526741	5.069457	-18.294300	62	65	64
-55.975883	5.065836	-21.455509	143	147	153
-55.763153	5.065976	-21.586931	145	146	155
-55.551662	5.066414	-21.800663	146	149	157
-55.339985	5.066856	-22.015812	147	152	157
-55.129410	5.067602	-22.314434	144	147	155
-54.919270	5.068520	-22.660789	146	147	157
-54.708740	5.069424	-23.003519	146	150	159
-54.495853	5.069811	-23.203865	148	152	159
-54.281605	5.069890	-23.319073	148	152	156
-53.852451	5.069953	-23.523813	145	147	153
-53.426876	5.071239	-24.066366	146	150	156
-53.216347	5.072735	-24.573311	144	149	155
-53.004990	5.074117	-25.048864	147	148	156
-52.574741	5.074611	-25.373522	144	147	155
-51.926701	5.074704	-25.681877	140	143	148
-51.711559	5.075227	-25.920864	140	144	149
-51.496685	5.075995	-26.227772	139	146	152
-51.281563	5.076789	-26.541840	139	143	150
-50.849644	5.077908	-27.040567	142	142	149
-50.417385	5.079488	-27.667723	140	144	153
-50.200859	5.080328	-27.995213	140	146	153
-49.983562	5.080749	-28.206764	142	146	152
-49.548214	5.081429	-28.585411	142	145	149
-49.330730	5.082444	-28.961735	141	143	150
-49.113018	5.083707	-29.407097	140	143	149
-48.894760	5.084696	-29.776747	140	142	148
-48.675987	5.085135	-29.994194	138	142	148
-48.456970	5.085356	-30.150856	138	141	147
-48.237804	5.085881	-30.392097	140	141	149
-48.018368	5.086740	-30.726284	141	140	148
-47.798595	5.087623	-31.067009	139	141	144
-47.578609	5.088212	-31.326408	139	141	144
-47.358425	5.088704	-31.558994	141	143	145
-47.137939	5.089305	-31.822014	142	143	147
-46.917225	5.089876	-32.076553	140	144	148
-46.475815	5.090307	-32.388737	142	145	150
-46.032333	5.091828	-33.004288	141	147	153
-45.808533	5.093675	-33.614204	141	148	153
-45.584141	5.095518	-34.223530	143	150	153
-45.360588	5.096544	-34.605587	145	151	153
-44.917347	5.096142	-34.687378	144	147	149
-44.695850	5.095856	-34.704670	147	146	153
-44.473255	5.096042	-34.853367	147	146	155
-44.249084	5.096814	-35.165203	144	148	154
-44.023743	5.097924	-35.571682	145	147	152
-43.798672	5.098787	-35.909351	144	144	150
-43.353245	5.098601	-36.051998	143	147	153
-107.743027	4.812322	16.971977	97	102	101
-107.546097	4.812007	16.974075	96	99	99
-103.909317	4.808527	16.260717	87	92	93
-103.310783	4.807413	16.317085	76	76	82
-102.919395	4.806854	16.299265	84	87	90
-102.721466	4.806520	16.306751	97	103	103
-64.878845	4.854355	-18.091269	64	66	66
-54.067112	4.853935	-23.397924	147	151	157
-53.852364	4.853886	-23.490137	147	149	157
-51.925755	4.857215	-25.528408	141	142	149
-50.200481	4.861697	-27.835196	140	146	155
-49.112953	4.864279	-29.211147	138	141	150
-44.249805	4.875057	-35.117783	143	148	152
-42.907867	4.876304	-36.193375	143	148	150
-108.789154	4.618651	16.557619	67	72	77
-108.379822	4.617735	16.662289	66	73	83
-108.161797	4.617020	16.804779	71	75	89
-104.998383	4.611769	16.919909	75	77	83
-104.790077	4.611226	17.002829	76	81	89
-104.598404	4.611017	16.967854	78	86	91
-104.249252	4.611302	16.651800	80	87	92
-104.088379	4.611729	16.393438	77	82	84
-103.723068	4.611699	16.187237	75	77	83
-100.716019	4.605937	16.590025	54	55	61
-100.161331	4.605793	16.314468	51	54	64
-99.811264	4.606142	15.973358	86	90	94
-99.592163	4.605345	16.146141	85	93	93
-99.110451	4.602771	16.839314	86	90	95
-65.529457	4.642680	-18.342926	61	64	67
-65.091194	4.641234	-18.053364	62	67	65
-55.550907	4.635926	-21.713194	147	146	154
-55.339710	4.636232	-21.955364	148	145	155
-54.918934	4.637249	-22.592758	146	148	156
-54.708282	4.637793	-22.925156	146	150	158
-54.496094	4.638109	-23.171904	147	151	158
-53.852951	4.637989	-23.509222	147	150	157
-52.790249	4.640703	-25.174809	144	148	156
-52.574295	4.640586	-25.259047	143	147	154
-52.357876	4.640361	-25.302021	143	146	152
-52.140945	4.639994	-25.291365	142	147	150
-51.711098	4.640597	-25.777058	145	149	151
-51.496552	4.641160	-26.118965	145	151	150
-51.281445	4.641634	-26.427635	142	150	150
-50.416809	4.642880	-27.416426	141	147	153
-50.200237	4.643303	-27.706360	140	148	152
-49.765961	4.643925	-28.201742	141	147	153
-49.548454	4.644226	-28.445618	142	146	152
-49.330853	4.644680	-28.747963	142	144	151
-48.457424	4.646058	-29.792328	140	143	148
-47.799515	4.647598	-30.770334	135	139	146
-47.359280	4.648677	-31.443241	139	140	146
-46.917747	4.649752	-32.114899	143	145	149
-46.476151	4.649980	-32.464661	141	146	151
-45.810772	4.651163	-33.311100	143	147	154
-45.588165	4.651676	-33.639000	143	147	156
-45.365669	4.652011	-33.898880	143	147	154
-44.920818	4.652357	-34.295349	142	146	151
-44.697971	4.652574	-34.510719	143	148	152
-44.250668	4.653302	-35.054119	144	148	151
-44.026249	4.653770	-35.366043	144	145	150
-43.352165	4.654932	-36.209404	141	148	151
-43.129627	4.654688	-36.249153	141	148	150
-110.553970	4.424698	16.604952	41	46	48
-109.121513	4.421691	16.965858	43	46	50
-108.972984	4.422140	16.647537	43	48	51
-108.789734	4.422047	16.557619	43	47	50
-108.589592	4.421687	16.579666	43	46	52
-108.168243	4.420632	16.765398	63	68	77
-107.951057	4.419999	16.902998	73	77	86
-107.550453	4.419269	16.952360	74	75	82
-107.370552	4.419231	16.838686	73	74	80
-105.439552	4.416756	16.587238	46	48	55
-105.215950	4.416002	16.776258	47	48	57
-104.998947	4.415357	16.919909	48	48	60
-104.787117	4.414795	17.027870	48	48	62
-104.591278	4.414501	17.022612	49	51	60
-104.243294	4.414651	16.698553	72	78	82
-104.083122	4.414964	16.435318	77	82	86
-103.907700	4.415022	16.280464	75	78	83
-103.715157	4.414789	16.248640	75	76	81
-103.310371	4.413988	16.328215	47	47	53
-103.113892	4.413688	16.325079	49	51	57
-102.723122	4.413126	16.302713	55	54	65
-102.320488	4.412357	16.368227	50	53	60
-101.306206	4.410290	16.594793	53	56	60
-100.914177	4.409702	16.583490	53	55	62
-100.525192	4.409170	16.548597	54	55	61
-100.347687	4.409211	16.399883	51	54	62
-99.974129	4.408963	16.243368	52	56	67
-99.792892	4.408942	16.120956	74	79	84
-99.582596	4.408391	16.225298	86	90	93
-99.348976	4.407409	16.513950	86	90	93
-97.806831	4.405559	16.253656	61	56	89
-65.749672	4.429877	-18.499287	62	65	65
-65.531128	4.429270	-18.375017	61	64	64
-65.092773	4.427963	-18.084019	61	66	66
-64.878128	4.427559	-18.051695	64	65	67
-55.759853	4.420350	-21.332861	141	147	152
-55.545963	4.420149	-21.395058	142	148	153
-55.332325	4.419991	-21.476732	143	149	153
-55.121723	4.420261	-21.756941	144	150	155
-54.703613	4.421377	-22.583622	146	149	160
-54.491379	4.421543	-22.815649	147	148	159
-54.063931	4.421495	-23.105398	148	150	156
-53.851742	4.421767	-23.387142	147	150	156
-53.425278	4.422077	-23.843399	145	149	156
-53.211399	4.422172	-24.043646	145	150	157
-52.788044	4.423403	-24.927834	144	150	155
-52.573967	4.423632	-25.191027	146	150	155
-52.358437	4.423584	-25.325720	143	147	152
-52.142429	4.423451	-25.421261	144	148	152
-51.711666	4.423603	-25.806763	146	149	151
-51.496880	4.423934	-26.117868	149	152	154
-51.281555	4.424191	-26.395363	146	150	153
-50.849651	4.424540	-26.873283	140	143	151
-50.633602	4.424814	-27.159389	139	142	150
-50.200394	4.425225	-27.667158	141	146	152
-49.983429	4.425435	-27.923748	142	145	155
-49.766323	4.425712	-28.211561	143	146	154
-49.548935	4.425986	-28.498203	144	145	153
-49.331234	4.426229	-28.771030	144	145	154
-49.113235	4.426435	-29.026031	141	144	152
-48.676395	4.426648	-29.444149	141	143	151
-48.457661	4.426693	-29.625187	140	142	149
-48.019592	4.427103	-30.135838	137	139	143
-47.800106	4.427489	-30.476637	139	141	144
-47.580246	4.427942	-30.848907	140	140	146
-47.359940	4.428488	-31.264666	141	143	148
-47.139202	4.429058	-31.692282	143	144	147
-46.918278	4.429458	-32.040413	142	145	151
-46.476555	4.429626	-32.440941	142	145	153
-46.255306	4.429756	-32.663223	143	147	153
-46.033657	4.429969	-32.924534	142	147	154
-45.812016	4.430076	-33.136112	142	149	152
-45.368908	4.430022	-33.434258	142	144	150
-44.923641	4.430431	-33.950298	143	147	153
-44.700191	4.430755	-34.264915	144	147	152
-44.476162	4.431150	-34.612747	145	150	151
-44.251591	4.431593	-34.983776	145	150	152
-44.026909	4.431978	-35.327583	144	147	151
-43.802010	4.432337	-35.659706	142	146	150
-43.576885	4.432675	-35.982071	142	148	149
-43.352535	4.432798	-36.203068	142	150	150
-43.129768	4.432580	-36.263321	143	150	152
-42.909164	4.431957	-36.133308	141	148	152
-108.784698	4.225370	16.594940	43	47	51
-105.001190	4.218965	16.908012	47	48	59
-104.597069	4.218208	16.985378	49	51	60
-102.919266	4.216707	16.312437	51	52	60
-102.722359	4.216401	16.312386	51	53	62
-100.913445	4.213121	16.593204	53	55	61
-100.162407	4.212413	16.314468	51	54	64
-64.881409	4.214351	-18.127537	64	64	63
-55.546001	4.205183	-21.376364	141	148	153
-55.120464	4.204980	-21.654467	145	151	154
-54.492409	4.205998	-22.863701	148	148	159
-54.063416	4.205623	-23.040527	148	151	157
-53.210793	4.205812	-23.959431	146	150	158
-52.143555	4.206711	-25.510532	146	148	154
-51.496758	4.206605	-26.055975	148	152	153
-50.849335	4.206766	-26.763676	142	146	153
-50.417393	4.207145	-27.401028	141	145	151
-49.549271	4.207611	-28.501699	143	148	152
-49.113365	4.207637	-28.928646	142	147	153
-48.894985	4.207523	-29.065216	140	143	150
-48.239063	4.207573	-29.714443	135	140	145
-47.800674	4.207715	-30.213501	140	142	147
-47.360710	4.208375	-31.028059	142	143	148
-46.698330	4.209099	-32.091614	143	147	153
-46.477406	4.209104	-32.302456	144	147	153
-46.034454	4.209276	-32.824352	143	147	150
-45.371410	4.208677	-33.086708	141	145	149
-44.702755	4.209102	-33.974609	145	148	151
-44.027184	4.210289	-35.330708	144	148	152
-43.577782	4.210568	-35.924053	144	148	150
-42.909348	4.209890	-36.143444	144	145	152
-42.463867	4.209374	-36.250961	145	148	153
-93.136360	4.043188	-16.703423	116	118	152
-92.936546	4.043026	-16.831396	119	119	146
-56.178070	3.990393	-20.651226	139	143	147
-55.971146	3.990578	-21.086597	141	145	151
-55.760555	3.990537	-21.332861	141	147	152
-55.333023	3.990041	-21.476732	143	149	153
-55.122421	3.990040	-21.756941	144	150	155
-54.913719	3.990208	-22.180544	145	150	158
-54.703781	3.990309	-22.547785	146	149	159
-54.275475	3.989874	-22.746233	146	150	156
-53.850128	3.989749	-23.206686	146	150	155
-53.637516	3.989724	-23.469181	147	150	155
-53.423664	3.989600	-23.647972	147	151	156
-52.997303	3.989554	-24.178314	145	151	157
-52.787926	3.990011	-24.850540	143	150	154
-52.574474	3.990055	-25.173628	145	148	155
-52.360062	3.990018	-25.427931	149	148	158
-51.711910	3.989388	-25.752586	146	146	155
-51.496159	3.989259	-25.929171	145	149	153
-51.063934	3.988962	-26.250893	144	150	150
-50.633190	3.989118	-26.960670	143	146	151
-50.200619	3.989155	-27.570087	144	148	150
-49.983681	3.989110	-27.821688	145	146	151
-49.766651	3.989116	-28.116615	144	145	152
-48.458141	3.988482	-29.318769	138	143	149
-47.801105	3.988360	-30.092010	138	142	149
-47.140842	3.988708	-31.273563	142	145	148
-46.699554	3.988662	-31.822910	144	145	150
-46.257019	3.988662	-32.414143	144	148	152
-45.372780	3.987876	-32.918777	138	144	150
-45.150669	3.987806	-33.155083	141	144	151
-44.927914	3.987800	-33.447933	144	146	152
-44.704792	3.987807	-33.751633	143	146	152
-44.480320	3.987960	-34.183186	143	146	154
-44.254303	3.988260	-34.743393	144	145	153
-43.803356	3.988537	-35.583630	144	147	154
-43.131401	3.988176	-36.171112	147	147	151
-42.685043	3.987694	-36.352245	145	149	154
-93.535156	3.830833	-16.437851	87	90	125
