-10.255434	-1.423144	-39.215885	180	174	197
-9.357278	-1.425055	-39.272720	186	182	202
-9.137200	-1.424971	-39.234306	181	177	195
-8.240954	-1.426631	-39.267666	181	174	192
-7.788046	-1.428036	-39.338108	186	177	195
-6.880227	-1.431038	-39.496861	184	175	194
-6.655680	-1.431494	-39.508987	180	173	196
-5.763360	-1.432628	-39.493088	177	171	195
-5.317186	-1.433201	-39.485634	175	173	198
-4.658908	-1.432829	-39.359413	177	170	189
-4.223835	-1.432184	-39.238167	178	170	189
-3.311665	-1.435560	-39.431778	176	164	183
-2.857782	-1.436980	-39.503582	171	166	191
-2.179347	-1.438831	-39.585037	171	169	183
-1.730187	-1.439721	-39.607254	169	162	175
-0.864606	-1.438099	-39.334015	168	161	182
-0.398197	-1.440780	-39.523430	164	160	179
-0.158066	-1.442815	-39.682884	160	155	173
5.409492	-1.510441	-45.317352	100	99	114
6.670732	-1.523939	-46.421234	113	108	119
13.447984	-1.605174	-53.177250	146	136	143
-36.213509	-1.687778	-46.357784	103	101	118
-33.569561	-1.663641	-43.824772	102	100	112
-32.482040	-1.651850	-42.614182	104	100	114
-31.175945	-1.640365	-41.402538	98	99	108
-30.313955	-1.631346	-40.472649	104	101	111
-30.099783	-1.628878	-40.221092	106	99	114
-28.595436	-1.614721	-38.741447	146	146	186
-28.168447	-1.610432	-38.296997	172	165	194
-27.949848	-1.609648	-38.197193	176	170	186
-27.273321	-1.612465	-38.363079	187	180	197
-26.164318	-1.612652	-38.233826	189	183	206
-25.497101	-1.613242	-38.199280	186	181	194
-24.820068	-1.615989	-38.358711	194	184	206
-24.378246	-1.615735	-38.277504	197	186	198
-23.717310	-1.615045	-38.127945	188	182	200
-23.046478	-1.616444	-38.166195	177	174	184
-22.373617	-1.618224	-38.238609	182	180	195
-21.927662	-1.618883	-38.239510	186	178	201
-21.259533	-1.619721	-38.227341	181	177	190
-20.590111	-1.620807	-38.237446	187	176	193
-20.134562	-1.623209	-38.394836	181	178	190
-19.463226	-1.624591	-38.431454	182	175	190
-18.797188	-1.625041	-38.384384	181	178	209
-18.343742	-1.626961	-38.498440	188	181	202
-18.118265	-1.627697	-38.535320	186	185	211
-17.457163	-1.627332	-38.415142	183	174	195
-17.014563	-1.627426	-38.365337	182	174	194
-16.340729	-1.629186	-38.435852	187	175	195
-16.113548	-1.630174	-38.495331	183	180	197
-15.661565	-1.631751	-38.578526	187	180	203
-14.781036	-1.631261	-38.418175	185	180	198
-14.560912	-1.631153	-38.379379	185	178	207
-13.886315	-1.632976	-38.455490	185	179	197
-13.205000	-1.635748	-38.616646	178	181	203
-11.874590	-1.636578	-38.516438	183	175	199
-11.427095	-1.637433	-38.534847	186	173	195
-10.753987	-1.638962	-38.584553	179	176	192
-10.300922	-1.640555	-38.668999	181	174	195
-8.739745	-1.642792	-38.665791	177	174	199
-8.286903	-1.644303	-38.742893	182	175	196
-7.836173	-1.645529	-38.794441	184	176	192
-6.699262	-1.649786	-39.029968	182	173	200
-5.810813	-1.650553	-38.982327	173	170	193
-5.368546	-1.650713	-38.938465	178	176	197
-4.054720	-1.649751	-38.678246	177	173	184
-3.370780	-1.652422	-38.829887	174	167	186
-2.920789	-1.653501	-38.868301	173	169	190
-1.564970	-1.657338	-39.036869	170	165	179
-0.903919	-1.657393	-38.954754	167	161	181
13.205527	-1.834013	-53.081684	125	117	133
13.452285	-1.835795	-53.210449	135	126	128
-43.636368	-1.987651	-53.599033	252	255	239
-43.178570	-1.984596	-53.276608	149	153	125
-42.951061	-1.981881	-53.012619	130	126	122
-42.496872	-1.976399	-52.480259	123	118	142
-42.043079	-1.971485	-51.997269	128	122	148
-41.816139	-1.969369	-51.785278	118	119	132
-41.362526	-1.965421	-51.385971	107	106	118
-41.136162	-1.963335	-51.176620	109	103	118
-40.684364	-1.958932	-50.738121	109	103	121
-40.458691	-1.956801	-50.525040	109	104	124
-40.232979	-1.954837	-50.326370	106	107	123
-39.781033	-1.951619	-49.990540	109	102	117
-39.555038	-1.950179	-49.837284	105	99	115
-39.105473	-1.946131	-49.429840	101	100	117
-38.882637	-1.943152	-49.143559	103	98	113
-38.438774	-1.936660	-48.524971	101	98	112
-37.992565	-1.932045	-48.068836	104	99	113
-37.768814	-1.930246	-47.884693	102	99	118
-37.322983	-1.926090	-47.468353	108	104	129
-37.100899	-1.923756	-47.238140	106	102	121
-36.657349	-1.919117	-46.780159	105	102	118
-36.435902	-1.916803	-46.551735	104	102	118
-36.214699	-1.914478	-46.322376	105	104	118
-35.993713	-1.912157	-46.093330	105	105	127
-35.552387	-1.907528	-45.636597	110	109	124
-35.331718	-1.905356	-45.420559	108	106	123
-34.889988	-1.901425	-45.024254	108	103	122
-34.669586	-1.899392	-44.820271	112	106	124
-34.230518	-1.894891	-44.374809	109	103	117
-34.011200	-1.892683	-44.155838	107	104	115
-33.572292	-1.888599	-43.746651	101	98	107
-33.353367	-1.886477	-43.535149	98	100	110
-33.135181	-1.884164	-43.307228	100	97	114
-32.917652	-1.881701	-43.066334	103	100	115
-32.483082	-1.876849	-42.591095	104	100	113
-32.265495	-1.874641	-42.372292	105	102	119
-31.829657	-1.870651	-41.971596	106	108	123
-31.611536	-1.868815	-41.785011	105	104	119
-31.175800	-1.865157	-41.413109	96	99	105
-30.958889	-1.863118	-41.209000	102	100	115
-30.527979	-1.858341	-40.740776	106	105	117
-30.313593	-1.855738	-40.488136	104	101	110
-30.099287	-1.853184	-40.239754	107	101	115
-29.884562	-1.850821	-40.007965	105	102	118
-29.454226	-1.846540	-39.582676	106	102	115
-29.240013	-1.844219	-39.354568	110	107	120
-28.818274	-1.837933	-38.756607	115	115	144
-28.611082	-1.833914	-38.382195	130	132	192
-27.762312	-1.823956	-37.412220	171	163	181
-27.317333	-1.824551	-37.407761	181	172	182
-25.980328	-1.826849	-37.438705	195	188	191
-25.308163	-1.828835	-37.526215	184	180	178
-24.861227	-1.829862	-37.559029	193	178	189
-23.978304	-1.829488	-37.415424	192	177	191
-23.757339	-1.829464	-37.385590	183	180	194
-22.862268	-1.831778	-37.473511	175	173	182
-22.413706	-1.833122	-37.533508	178	174	183
-21.527378	-1.833600	-37.463409	182	177	195
-21.305113	-1.833863	-37.458248	180	176	188
-20.408360	-1.836396	-37.564957	183	175	186
-19.950792	-1.839360	-37.764301	173	173	181
-19.282543	-1.840357	-37.766556	181	178	196
-18.843122	-1.839924	-37.673706	181	177	198
-17.944653	-1.842598	-37.792446	184	174	195
-17.508690	-1.841613	-37.652180	178	170	188
-16.845268	-1.841827	-37.587269	182	178	189
-16.395958	-1.843162	-37.646435	186	178	192
-15.493160	-1.846457	-37.818436	184	181	190
-15.050507	-1.846666	-37.780781	181	175	191
-14.390610	-1.846360	-37.671242	188	181	188
-13.944050	-1.847213	-37.688957	182	177	190
-13.264496	-1.849962	-37.841713	182	178	193
-12.594690	-1.851192	-37.864025	187	175	184
-12.149090	-1.851870	-37.866684	182	174	190
-11.481502	-1.852769	-37.860638	182	174	191
-10.812555	-1.853866	-37.871555	178	176	187
-10.361053	-1.855375	-37.945515	180	172	190
-9.687501	-1.857092	-38.009548	180	173	186
-9.025436	-1.857225	-37.937752	181	176	197
-8.347075	-1.859565	-38.055202	177	178	194
-7.898238	-1.860651	-38.092880	182	175	184
-7.213697	-1.863732	-38.273750	185	176	193
-6.536080	-1.865862	-38.373085	178	177	189
-6.095325	-1.865871	-38.318428	176	174	190
-5.435824	-1.865708	-38.221298	181	178	195
-4.779218	-1.865226	-38.096878	178	174	188
-4.121824	-1.864885	-37.984543	181	173	187
-3.445300	-1.866863	-38.070866	179	173	191
-3.001614	-1.867302	-38.053043	179	174	191
-2.322397	-1.869560	-38.163326	177	174	190
-1.636185	-1.872586	-38.339226	172	167	176
-1.191329	-1.873139	-38.331177	175	165	181
-0.712996	-1.877461	-38.645592	167	162	178
-0.457088	-1.881472	-38.961025	156	151	165
-0.196712	-1.885947	-39.316143	138	134	145
0.062826	-1.890291	-39.660046	120	119	125
0.319263	-1.894256	-39.971489	111	108	116
0.823684	-1.901164	-40.506756	105	103	114
1.323716	-1.907485	-40.991684	103	105	114
2.077425	-1.917171	-41.736469	107	110	122
2.578635	-1.923369	-42.210632	119	114	140
3.087792	-1.930308	-42.748020	118	119	138
3.850681	-1.940429	-43.529247	108	106	122
4.366726	-1.947816	-44.104553	102	98	109
4.893127	-1.956147	-44.760490	100	96	109
5.407691	-1.963153	-45.303013	99	97	111
5.655181	-1.965630	-45.486519	103	99	110
6.149733	-1.970487	-45.845325	109	107	122
6.667040	-1.977535	-46.391071	114	112	133
6.928784	-1.981325	-46.686672	119	114	134
7.442520	-1.987867	-47.189072	128	118	140
7.943341	-1.993060	-47.576187	116	110	122
8.195919	-1.995840	-47.785351	115	104	120
8.718665	-2.003032	-48.342960	120	111	131
9.246629	-2.010620	-48.934242	118	113	132
9.766068	-2.017295	-49.447449	116	113	123
10.552475	-2.027814	-50.260239	124	119	136
11.081689	-2.035166	-50.830845	128	118	152
11.600363	-2.041446	-51.309952	124	122	152
12.398173	-2.052514	-52.168907	117	108	137
12.673801	-2.057033	-52.525921	118	109	127
13.214003	-2.064983	-53.147076	120	116	121
-38.661919	-2.167603	-48.781586	102	99	109
-28.423687	-2.047549	-37.565281	147	146	192
-28.218718	-2.042995	-37.161842	165	156	165
-28.009211	-2.039783	-36.869553	162	153	164
-26.937252	-2.031143	-36.021965	186	174	212
-25.798027	-2.040045	-36.625042	191	183	224
-25.571466	-2.041429	-36.712833	191	181	218
-24.900488	-2.043406	-36.796387	187	177	198
-24.237352	-2.043528	-36.726696	190	178	203
-23.794783	-2.043744	-36.691418	181	176	209
-23.127417	-2.044872	-36.704819	174	175	192
-22.453732	-2.047347	-36.829514	174	174	186
-21.792007	-2.047254	-36.742088	183	178	207
-21.348419	-2.047723	-36.727669	183	178	194
-20.679251	-2.049198	-36.769775	183	174	190
-19.992126	-2.054165	-37.100029	176	172	185
-19.318424	-2.056385	-37.203556	181	174	195
-18.888678	-2.054186	-36.968929	184	174	187
-18.217287	-2.055975	-37.036823	175	172	185
-17.561172	-2.054979	-36.875031	175	171	187
-16.899256	-2.055092	-36.804726	174	172	181
-16.451870	-2.056251	-36.847214	178	178	184
-15.775025	-2.058947	-36.989883	180	172	187
-15.102706	-2.060821	-37.064758	176	168	178
-14.442196	-2.060729	-36.977585	180	172	180
-14.002449	-2.060596	-36.913570	180	175	187
-13.103014	-2.063533	-37.049454	187	173	189
-12.653836	-2.064888	-37.108067	180	172	180
-11.979564	-2.066968	-37.199814	180	171	187
-11.537217	-2.067252	-37.170151	184	174	183
-10.651911	-2.067938	-37.120621	178	170	180
-10.202963	-2.069210	-37.172321	178	167	188
-9.538283	-2.069841	-37.144794	176	171	178
-9.095302	-2.070250	-37.125446	178	173	186
-8.639945	-2.072397	-37.249161	179	173	179
-8.188178	-2.074015	-37.329311	181	173	182
-7.739195	-2.075232	-37.376419	179	174	183
-7.052816	-2.078774	-37.588329	178	172	182
-6.606407	-2.079602	-37.603378	176	175	178
-5.730813	-2.079000	-37.447853	180	172	186
-5.290038	-2.079113	-37.404251	177	174	186
-4.634284	-2.078618	-37.284081	178	176	183
-4.194643	-2.078624	-37.231663	179	175	183
-3.304630	-2.080002	-37.239090	175	173	183
-3.086665	-2.079789	-37.195103	178	172	187
-2.867022	-2.079787	-37.168434	182	171	188
-2.178820	-2.083328	-37.380020	173	173	187
-1.716676	-2.086048	-37.550583	176	169	179
0.576580	-2.122302	-40.289230	106	105	115
1.830685	-2.139069	-41.532551	107	106	119
12.133177	-2.278569	-51.892426	117	119	141
-43.180161	-2.444506	-53.186375	151	152	125
-42.952106	-2.442187	-52.974731	130	123	123
-42.497265	-2.436888	-52.498764	127	121	135
-28.841221	-2.278012	-38.226608	103	102	115
-28.030481	-2.256266	-36.395279	142	133	165
-27.161131	-2.252378	-35.984261	199	183	242
-26.503942	-2.251106	-35.806728	200	201	251
-26.051403	-2.254053	-35.990028	207	209	255
-25.823893	-2.255811	-36.104233	212	209	255
-25.373230	-2.258152	-36.239300	213	204	244
-24.931118	-2.258328	-36.202324	198	206	236
-23.822933	-2.259530	-36.170506	183	187	239
-23.602274	-2.259549	-36.146511	188	179	237
-22.935196	-2.260793	-36.168999	187	189	233
-22.486708	-2.262456	-36.250137	182	188	225
-21.381321	-2.263093	-36.173428	197	190	229
-21.158237	-2.263655	-36.192619	199	186	227
-20.491720	-2.264757	-36.203762	186	186	225
-20.034468	-2.268117	-36.419441	195	184	225
-18.707525	-2.269005	-36.337265	187	182	229
-18.040329	-2.270195	-36.355373	185	177	226
-17.604687	-2.269269	-36.231133	183	177	227
-16.498079	-2.270317	-36.187115	185	183	224
-16.274511	-2.270935	-36.210735	188	182	224
-15.597655	-2.273851	-36.365608	178	177	221
-15.146460	-2.275746	-36.464951	183	172	213
-14.051044	-2.274872	-36.268715	183	185	227
-13.830566	-2.274950	-36.249504	186	182	223
-13.158068	-2.277017	-36.337063	188	172	224
-12.708210	-2.278620	-36.413258	189	171	213
-11.586168	-2.282124	-36.563713	191	179	211
-10.710484	-2.281487	-36.411758	181	173	195
-10.263606	-2.282572	-36.446907	185	171	212
-9.157704	-2.283583	-36.400078	177	175	202
-8.929416	-2.284831	-36.473431	182	175	202
-8.471574	-2.287479	-36.632217	180	174	194
-7.798531	-2.289418	-36.709438	179	175	197
-7.117165	-2.292493	-36.876575	179	176	193
-6.673886	-2.292987	-36.864883	180	177	192
-6.019215	-2.292337	-36.737373	178	170	212
-5.356818	-2.292777	-36.696075	175	169	199
-4.260082	-2.292598	-36.555202	174	174	195
-3.374775	-2.293539	-36.528202	170	171	199
-2.940998	-2.292886	-36.425999	174	169	215
-2.021703	-2.298114	-36.737701	169	168	198
-1.789383	-2.299709	-36.838303	170	168	202
-1.084788	-2.305357	-37.208328	171	149	187
-0.820980	-2.310739	-37.607994	172	151	183
-0.536479	-2.318586	-38.202209	146	141	159
4.880328	-2.407097	-44.650105	97	95	110
7.940734	-2.447875	-47.555557	120	114	139
8.457109	-2.454992	-48.064728	114	108	135
8.986866	-2.463396	-48.675163	117	110	127
9.763971	-2.473982	-49.431389	113	109	125
10.820409	-2.489804	-50.573860	124	115	138
11.353627	-2.498052	-51.171432	127	119	143
12.141107	-2.508990	-51.954590	119	119	147
12.954238	-2.522220	-52.917961	111	109	116
13.224118	-2.526456	-53.225368	115	110	116
-43.410248	-2.675482	-53.249989	224	218	232
-42.043247	-2.661911	-52.054813	118	112	127
-41.816708	-2.659065	-51.810852	112	109	120
-40.684711	-2.647195	-50.772461	107	100	115
-40.458851	-2.644878	-50.569302	104	99	111
-40.007599	-2.640343	-50.170517	105	102	119
-39.556862	-2.635998	-49.786419	102	98	111
-39.108730	-2.630414	-49.307312	99	96	112
-38.216145	-2.618726	-48.309513	99	97	112
-37.992077	-2.616716	-48.130119	102	99	110
-37.546017	-2.611816	-47.703812	105	104	122
-37.102894	-2.605768	-47.189594	105	102	116
-36.881260	-2.602987	-46.951107	105	100	114
-35.773457	-2.590605	-45.876091	107	104	131
-35.552582	-2.588102	-45.659161	114	105	128
-35.111446	-2.583111	-45.226425	109	107	118
-34.671257	-2.578075	-44.790375	110	109	133
-34.233795	-2.572233	-44.292553	106	106	117
-33.360832	-2.560938	-43.327164	102	98	119
-32.703384	-2.554488	-42.758305	105	105	119
-32.264698	-2.550685	-42.417187	115	106	132
-31.827585	-2.546551	-42.050861	112	106	134
-31.172396	-2.540657	-41.524944	102	98	112
-30.524063	-2.532963	-40.861351	104	105	115
-30.095673	-2.526925	-40.349510	105	102	122
-29.670401	-2.520203	-39.785480	102	100	112
-29.461193	-2.515881	-39.429878	105	99	113
-28.850824	-2.498243	-38.005692	100	97	107
-28.450256	-2.485270	-36.963593	100	97	94
-27.832905	-2.471727	-35.853622	160	155	219
-27.394470	-2.470874	-35.739426	215	188	255
-26.284088	-2.472883	-35.770927	226	215	255
-26.061893	-2.473312	-35.779350	236	240	255
-25.391329	-2.475628	-35.883205	243	239	255
-24.950773	-2.475475	-35.822582	233	238	255
-23.839809	-2.477558	-35.859726	192	197	255
-23.619783	-2.477447	-35.826824	206	191	255
-22.956385	-2.477943	-35.791519	199	203	255
-22.509085	-2.479454	-35.858109	199	210	255
-21.400578	-2.480950	-35.850388	210	217	255
-21.177645	-2.481522	-35.869713	213	212	255
-20.514599	-2.481982	-35.831612	212	209	255
-20.073097	-2.482191	-35.798779	232	209	255
-18.955343	-2.485625	-35.939053	218	204	255
-18.736298	-2.485387	-35.896488	209	207	254
-18.070053	-2.486521	-35.909935	200	210	255
-17.632359	-2.486017	-35.822617	201	195	255
-16.528179	-2.486767	-35.757988	209	209	255
-16.305979	-2.487179	-35.765091	212	210	255
-15.628729	-2.490357	-35.934525	205	197	255
-15.401559	-2.491656	-36.009197	214	186	254
-15.175305	-2.492776	-36.070278	213	187	248
-14.082986	-2.491427	-35.845570	208	200	255
-13.864141	-2.491247	-35.807461	216	202	254
-13.195829	-2.492750	-35.849045	201	195	254
-12.748128	-2.494106	-35.903694	208	184	247
-12.293043	-2.496670	-36.050514	211	190	255
-11.622913	-2.498395	-36.108944	216	190	245
-11.408228	-2.497556	-36.020653	201	190	246
-11.193283	-2.496773	-35.936615	197	195	244
-10.753350	-2.496846	-35.893440	199	185	235
-10.307150	-2.497918	-35.926498	192	190	246
-9.199875	-2.499304	-35.910389	186	191	240
-8.971556	-2.500627	-35.986851	192	195	240
-8.742444	-2.502059	-36.071602	187	193	239
-8.290013	-2.504020	-36.172352	196	193	236
-7.842532	-2.505222	-36.215202	194	191	236
-6.726193	-2.507838	-36.292736	184	189	233
-6.507413	-2.507713	-36.258869	181	192	240
-5.848945	-2.507666	-36.182327	187	185	242
-5.404844	-2.508368	-36.187119	189	183	238
-4.306694	-2.508475	-36.073685	187	189	236
-4.082372	-2.509141	-36.100079	190	185	239
-3.422728	-2.509344	-36.042576	177	184	239
-3.207306	-2.508824	-35.978779	172	182	241
-2.989639	-2.508610	-35.938187	179	185	246
-1.841473	-2.515336	-36.328270	183	179	233
-1.611067	-2.516752	-36.411655	192	176	225
-0.263041	-2.548269	-38.686298	112	112	117
0.835341	-2.574973	-40.618435	108	102	114
1.587179	-2.585666	-41.357506	108	106	117
2.327111	-2.594676	-41.968521	116	115	129
3.340277	-2.609503	-42.996620	118	112	134
4.092016	-2.619376	-43.672684	111	111	125
4.876097	-2.632743	-44.613827	98	96	111
5.655234	-2.645242	-45.488796	103	101	116
6.415289	-2.655321	-46.179768	113	108	123
7.176974	-2.665361	-46.867592	118	110	130
7.429562	-2.668515	-47.082211	123	117	137
10.023705	-2.706102	-49.685585	119	113	129
11.623940	-2.731950	-51.496269	125	124	152
12.677575	-2.747247	-52.556087	112	109	118
13.480556	-2.759740	-53.427940	128	121	116
-42.496563	-2.898641	-52.607449	118	106	121
-42.269569	-2.895617	-52.359154	116	110	125
-41.137661	-2.881026	-51.157059	104	101	116
-39.783001	-2.866642	-49.946609	101	98	112
-38.663433	-2.852104	-48.749748	97	96	107
-37.324333	-2.836607	-47.458450	106	103	115
-36.215385	-2.823087	-46.338223	106	101	122
-34.892391	-2.806633	-44.977745	108	106	129
-33.799393	-2.791455	-43.736279	102	98	111
-32.484077	-2.777903	-42.591690	109	106	134
-30.955395	-2.763054	-41.328201	104	98	122
-29.260067	-2.732641	-38.893372	104	100	115
-28.657591	-2.712277	-37.319763	95	92	94
-15.189629	-2.712139	-35.875443	244	199	255
-12.089698	-2.715846	-35.820126	222	202	255
-8.540751	-2.721251	-35.842884	229	215	255
-7.869959	-2.723089	-35.907688	220	210	255
-7.201133	-2.724604	-35.948772	210	213	253
-6.538260	-2.725219	-35.923794	207	202	255
-6.096674	-2.725588	-35.904114	200	203	255
-5.431363	-2.726578	-35.906654	222	203	254
-4.775153	-2.726271	-35.814060	200	207	253
-4.105992	-2.727824	-35.857864	195	198	255
-2.334757	-2.730107	-35.838520	192	189	255
-0.889650	-2.747162	-36.948826	135	137	157
-0.589574	-2.757664	-37.695328	116	118	122
0.028930	-2.780765	-39.341835	110	104	120
0.313413	-2.788970	-39.919712	112	103	124
0.579449	-2.794736	-40.318798	112	105	123
1.088594	-2.803206	-40.892452	107	101	117
2.568701	-2.821941	-42.123528	118	118	136
3.077870	-2.829932	-42.661701	123	118	136
4.351610	-2.849469	-43.974197	103	102	115
5.395537	-2.867510	-45.200336	98	98	108
6.669250	-2.885687	-46.412037	113	112	123
9.764585	-2.930945	-49.437202	113	107	120
12.410882	-2.972949	-52.268944	112	111	124
-43.411949	-3.135041	-53.144855	234	217	237
-43.181957	-3.134831	-53.106277	187	153	129
-42.952618	-3.133851	-53.012650	145	122	126
-42.496304	-3.129496	-52.654358	114	105	118
-42.269390	-3.126230	-52.397507	109	108	122
-42.043076	-3.122598	-52.114475	109	108	128
-41.817051	-3.118954	-51.830608	108	105	127
-41.364761	-3.112696	-51.336624	104	100	116
-41.138355	-3.110146	-51.131023	102	99	116
-40.685760	-3.105390	-50.744419	105	101	117
-40.459885	-3.102895	-50.542797	102	97	114
-40.234371	-3.100267	-50.331699	103	97	113
-39.784317	-3.094737	-49.889965	103	99	113
-39.559734	-3.091882	-49.662720	102	96	109
-39.335453	-3.088970	-49.431446	98	95	109
-38.887672	-3.083072	-48.963657	98	94	106
-38.663872	-3.080301	-48.742458	97	93	106
-38.439861	-3.077813	-48.541519	99	93	108
-37.991859	-3.073204	-48.165886	100	96	112
-37.768776	-3.070499	-47.949570	99	97	118
-37.324848	-3.064130	-47.448490	104	101	119
-37.102985	-3.061104	-47.209240	105	98	111
-36.658318	-3.055978	-46.796982	101	98	109
-36.436222	-3.053451	-46.593456	101	98	114
-34.018085	-3.020300	-43.974243	103	99	109
-31.174353	-2.989583	-41.485443	102	101	115
-28.862219	-2.940648	-37.747993	97	95	105
-28.257341	-2.921307	-36.302483	108	111	139
-1.167009	-2.961704	-36.415955	170	168	218
1.829613	-3.037430	-41.525871	113	111	127
2.562006	-3.045996	-42.063545	118	119	137
3.069763	-3.054076	-42.589531	119	115	136
3.327696	-3.058582	-42.885403	115	109	128
3.841889	-3.067276	-43.454666	111	107	124
4.357547	-3.076017	-44.027111	101	100	114
4.877099	-3.085104	-44.623856	102	97	110
5.135338	-3.089405	-44.905106	97	97	106
5.391872	-3.093465	-45.169247	98	96	109
5.647552	-3.097391	-45.423828	100	96	110
6.159934	-3.105276	-45.935402	107	104	119
6.668829	-3.112626	-46.409042	109	107	120
6.918530	-3.115694	-46.602898	113	112	131
7.419220	-3.121917	-46.996716	127	117	143
7.935462	-3.129878	-47.513317	112	111	125
8.197523	-3.134276	-47.801083	115	114	131
8.726263	-3.143513	-48.407646	118	111	127
9.251652	-3.152230	-48.977371	113	113	128
9.765987	-3.159559	-49.448959	112	104	116
10.549460	-3.171715	-50.238194	119	117	140
11.086980	-3.181382	-50.874634	122	114	133
11.627382	-3.191234	-51.524033	117	110	123
12.152514	-3.199263	-52.044552	116	112	143
12.409982	-3.202676	-52.262283	112	108	127
12.669071	-3.206243	-52.490932	108	106	117
12.933125	-3.210329	-52.756142	111	107	124
13.455215	-3.217766	-53.234631	132	126	116
-35.993660	-3.275019	-46.157742	104	100	115
-35.552887	-3.268705	-45.677799	104	105	121
-35.332806	-3.265574	-45.439621	105	104	121
-34.893581	-3.259189	-44.954967	106	107	130
-34.674454	-3.255934	-44.708321	110	113	142
-34.455540	-3.252692	-44.462631	107	110	124
-34.018417	-3.246217	-43.971878	100	100	106
-33.800060	-3.243052	-43.731594	99	96	107
-33.362099	-3.237606	-43.311890	98	98	116
-32.922401	-3.233278	-42.969368	104	102	119
-32.484543	-3.228456	-42.592838	108	106	148
-32.266903	-3.225620	-42.375324	109	105	132
-31.832144	-3.219999	-41.943825	111	107	126
-31.613882	-3.217670	-41.761318	110	106	117
-31.176779	-3.213452	-41.426594	103	101	115
-30.959578	-3.210915	-41.229820	106	103	119
-30.528801	-3.204694	-40.757248	107	105	123
-30.314310	-3.201378	-40.506905	107	102	126
-30.100195	-3.198014	-40.253265	108	104	124
-29.887108	-3.194367	-39.980122	106	102	127
-29.676332	-3.189986	-39.656517	105	100	125
-29.265469	-3.177811	-38.774395	102	100	112
-29.064615	-3.170360	-38.239548	102	97	109
-28.864677	-3.162775	-37.695511	99	94	105
-28.664118	-3.155580	-37.178391	98	94	95
-28.258526	-3.143172	-36.280708	113	113	149
-28.052034	-3.138393	-35.930019	150	148	233
-27.403318	-3.133981	-35.561043	202	200	250
-26.729454	-3.137634	-35.746952	229	222	240
-26.071548	-3.136371	-35.594719	208	221	255
-25.412340	-3.135619	-35.477627	226	209	255
-24.969671	-3.136082	-35.465908	217	206	255
-24.298903	-3.138659	-35.577797	221	212	253
-23.634401	-3.139469	-35.568172	223	218	255
-22.975224	-3.138898	-35.463562	207	200	255
-22.532265	-3.139464	-35.458969	221	206	255
-21.861937	-3.141798	-35.554081	251	206	248
-21.190266	-3.144396	-35.667339	234	198	254
-20.529247	-3.144376	-35.600681	248	216	255
-20.087736	-3.144586	-35.571560	247	217	255
-19.424530	-3.145143	-35.544594	203	217	255
-18.760557	-3.145894	-35.530891	208	220	254
-18.087608	-3.148627	-35.653347	214	224	255
-17.646173	-3.148851	-35.625225	234	220	255
-16.987772	-3.148416	-35.530151	206	219	254
-16.326746	-3.148586	-35.476643	223	207	255
-15.646712	-3.152654	-35.690670	238	205	254
-15.195678	-3.154833	-35.796730	232	205	255
-14.535532	-3.154803	-35.729458	212	206	255
-13.879220	-3.154074	-35.614288	247	223	254
-13.219235	-3.154107	-35.551338	224	216	255
-12.778179	-3.154348	-35.524467	220	205	240
-12.108982	-3.156127	-35.581314	222	215	237
-11.445264	-3.156892	-35.568634	200	201	255
-10.786025	-3.156873	-35.502239	208	200	255
-10.339280	-3.158149	-35.546326	234	207	250
-9.666152	-3.160556	-35.646194	222	220	255
-8.994988	-3.162584	-35.720093	221	224	253
-8.334970	-3.162726	-35.664753	248	229	255
-7.889361	-3.163757	-35.692020	217	205	250
-7.228480	-3.164071	-35.648479	220	209	255
-6.554891	-3.166432	-35.745094	232	211	255
-5.884521	-3.168246	-35.804276	244	214	255
-5.445793	-3.168172	-35.755848	216	206	249
-4.790143	-3.167717	-35.659641	209	217	246
-4.115914	-3.170102	-35.757923	223	223	254
-3.458890	-3.169896	-35.678806	223	215	255
-3.021804	-3.169642	-35.618088	210	211	250
-2.117616	-3.173512	-35.796253	221	206	255
-0.897861	-3.190813	-36.871635	147	146	178
-0.604498	-3.201107	-37.554157	123	122	128
-0.290892	-3.214131	-38.423397	116	111	123
0.017890	-3.226369	-39.238815	114	107	123
0.304228	-3.235399	-39.834671	114	107	122
0.826238	-3.246288	-40.535748	106	103	122
1.332057	-3.254798	-41.073990	110	104	119
2.068643	-3.264339	-41.660763	114	115	126
2.558786	-3.270455	-42.035084	116	117	142
2.809154	-3.274178	-42.267632	118	113	142
-33.361454	-3.463654	-43.339973	98	97	116
-1.675840	-3.395779	-35.783115	199	195	255
-1.180510	-3.404025	-36.287254	180	178	237
12.665309	-3.665676	-52.462460	113	105	116
13.189672	-3.673899	-52.962334	119	109	118
-43.411201	-3.829008	-53.310436	215	194	176
-43.181870	-3.827662	-53.202168	164	141	124
-42.952999	-3.825830	-53.062485	135	117	125
-42.044922	-3.811391	-52.044083	117	113	129
-41.819004	-3.807240	-51.754517	108	109	124
-41.140381	-3.797427	-51.056717	104	99	114
-40.687843	-3.792104	-50.670441	101	97	120
-40.461960	-3.789352	-50.471478	98	98	123
-39.786850	-3.779914	-49.798275	104	99	113
-39.562500	-3.776562	-49.560600	102	96	112
-39.338276	-3.773300	-49.328766	100	94	110
-38.442280	-3.761263	-48.467026	94	95	107
-37.995625	-3.755196	-48.033100	97	95	107
-37.329113	-3.744852	-47.302006	101	99	114
-37.106785	-3.741817	-47.085052	101	99	109
-36.883968	-3.739228	-46.896954	99	97	110
-35.994450	-3.728933	-46.148502	102	101	118
-35.551773	-3.723229	-45.738491	103	102	119
-35.111397	-3.716705	-45.275574	105	100	121
-34.674442	-3.708851	-44.726833	113	103	130
-34.456257	-3.704982	-44.456253	109	106	120
-33.580448	-3.692303	-43.554775	97	97	111
-33.360893	-3.689690	-43.365372	99	98	116
-33.141094	-3.687280	-43.189156	106	101	122
-32.702297	-3.682333	-42.828476	102	102	115
-32.267570	-3.675881	-42.370720	103	103	120
-31.834858	-3.668941	-41.881565	106	102	118
-31.181915	-3.660906	-41.301228	105	100	120
0.294858	-3.681643	-39.747883	114	106	119
1.069408	-3.697712	-40.716976	105	104	119
1.574784	-3.706617	-41.247063	108	104	127
2.317408	-3.717509	-41.883938	112	114	133
2.809973	-3.724272	-42.276512	117	119	136
3.060334	-3.728186	-42.506924	117	116	131
3.576983	-3.738138	-43.103760	115	111	130
4.100117	-3.748827	-43.747681	108	101	115
4.614937	-3.758210	-44.307808	104	100	107
4.872577	-3.762878	-44.586330	99	99	108
5.652308	-3.777582	-45.466621	100	97	113
6.424839	-3.790993	-46.263889	107	103	120
6.933425	-3.798919	-46.730240	116	109	134
7.688513	-3.809575	-47.350727	112	111	133
8.208817	-3.818735	-47.895954	114	106	128
9.002866	-3.833960	-48.808647	106	106	118
9.522447	-3.842687	-49.325863	107	105	126
10.036117	-3.850547	-49.787495	109	109	123
10.822536	-3.864107	-50.593117	113	115	132
11.357812	-3.874343	-51.206661	111	111	129
11.890170	-3.884080	-51.788067	109	107	123
12.148956	-3.887996	-52.017838	111	105	126
13.437331	-3.906520	-53.098675	123	118	113
-42.498215	-4.049519	-52.598824	110	106	123
-42.271740	-4.045227	-52.309280	112	107	125
-40.236248	-4.015954	-50.291080	104	98	118
-38.890293	-3.995543	-48.890366	98	95	108
-38.666740	-3.992165	-48.658443	97	96	106
-37.774822	-3.978639	-47.730232	101	95	111
-36.439434	-3.961092	-46.510136	106	99	116
-36.217316	-3.958322	-46.316586	106	103	120
-34.892052	-3.939798	-45.036087	106	99	134
-34.019569	-3.923888	-43.960003	103	101	117
-32.484112	-3.904838	-42.627792	104	103	122
-31.618299	-3.890637	-41.659527	103	103	118
-30.967360	-3.881721	-41.042080	106	103	122
-30.752262	-3.878127	-40.797382	108	102	127
-29.891630	-3.864809	-39.884945	107	103	125
-29.679497	-3.860504	-39.595928	104	99	120
-29.068233	-3.838651	-38.170002	100	98	112
-28.668468	-3.822059	-37.093121	101	95	103
-27.845219	-3.799584	-35.609352	198	188	255
-27.409363	-3.797564	-35.443771	211	192	255
-26.511507	-3.802609	-35.680569	190	195	247
-26.071524	-3.802086	-35.608639	197	194	255
-25.191839	-3.801090	-35.467880	206	203	239
-24.969841	-3.801518	-35.475010	198	192	240
-24.079458	-3.803936	-35.547535	252	203	255
-23.635757	-3.804676	-35.554516	206	194	244
-22.754980	-3.804258	-35.449936	217	211	255
-22.532303	-3.804875	-35.468887	231	224	255
-21.637997	-3.808285	-35.603313	218	213	255
-21.194220	-3.809031	-35.610664	210	222	255
-20.314661	-3.808432	-35.494843	242	204	254
-20.094275	-3.808429	-35.475105	254	199	255
-19.206560	-3.810021	-35.496071	208	212	255
-18.759796	-3.811530	-35.551022	201	203	255
-17.873545	-3.812731	-35.547554	207	205	254
-17.653030	-3.812783	-35.531204	213	209	255
-16.765335	-3.814337	-35.549763	209	204	232
-16.323557	-3.814637	-35.529324	214	202	254
-15.424284	-3.818760	-35.708141	230	198	235
-15.202281	-3.819147	-35.712669	230	194	240
-14.314814	-3.820571	-35.723099	230	210	254
-13.870961	-3.821307	-35.729820	239	214	254
-12.990592	-3.821258	-35.648422	219	202	253
-12.770296	-3.821298	-35.631374	208	203	255
-11.884758	-3.822371	-35.619911	210	211	237
-11.441104	-3.823087	-35.625435	210	195	249
-10.558990	-3.823514	-35.573727	207	211	255
-10.334197	-3.824448	-35.612354	227	216	254
-9.433125	-3.828474	-35.784916	223	202	253
-8.995224	-3.828093	-35.722050	237	206	253
-8.112254	-3.828704	-35.681881	215	211	255
-7.888738	-3.829364	-35.703419	209	208	255
-7.001040	-3.830842	-35.717228	210	200	255
-6.547865	-3.833213	-35.825737	224	208	255
-5.667602	-3.833375	-35.757618	216	212	252
-5.451023	-3.832829	-35.704029	212	222	254
-4.571898	-3.832873	-35.628616	206	210	255
-4.121228	-3.834754	-35.706604	225	210	255
-1.440502	-3.841929	-35.918491	204	193	255
-0.607955	-3.868687	-37.523777	138	128	138
0.008507	-3.895510	-39.152412	118	113	128
1.827497	-3.935646	-41.509586	113	108	128
5.128901	-3.993575	-44.851711	100	98	113
5.392306	-3.999108	-45.175484	100	97	110
6.685188	-4.022839	-46.549892	110	108	125
7.192019	-4.030685	-46.997250	114	111	134
8.475157	-4.051934	-48.216740	110	108	132
10.302698	-4.084436	-50.094101	111	109	118
13.435377	-4.136516	-53.084015	123	116	112
-43.872047	-4.290836	-53.393677	255	255	255
-43.183018	-4.287864	-53.153397	140	132	118
-42.954197	-4.285848	-53.010937	123	113	120
-42.498981	-4.279107	-52.561272	110	103	118
-42.272446	-4.274768	-52.277534	110	105	124
-41.366951	-4.259833	-51.290173	108	101	119
-30.322588	-4.095280	-40.319397	108	102	123
-30.106934	-4.092096	-40.106960	108	101	120
-29.270010	-4.069969	-38.687508	101	99	115
-28.870090	-4.052508	-37.589825	101	96	110
-28.467375	-4.036923	-36.606148	100	97	112
-3.444087	-4.059599	-35.833439	220	200	254
-2.990013	-4.062021	-35.941864	199	193	251
-1.906648	-4.059511	-35.695774	211	197	254
-1.179507	-4.070457	-36.299782	194	171	249
-0.900914	-4.079821	-36.845959	166	149	202
-0.292495	-4.106393	-38.411709	127	113	131
4.346321	-4.203597	-43.931656	101	98	112
8.213843	-4.274863	-47.938496	113	111	130
8.475711	-4.279885	-48.221783	113	108	125
8.739519	-4.285135	-48.518738	108	106	121
9.266146	-4.295385	-49.097572	104	102	113
9.785526	-4.304515	-49.608852	109	107	118
10.309356	-4.314106	-50.147839	112	109	119
10.573007	-4.319081	-50.428062	111	112	126
10.835509	-4.323868	-50.696999	113	112	126
11.096575	-4.328433	-50.952499	110	109	127
11.619625	-4.337587	-51.464893	107	104	122
12.142653	-4.346611	-51.969372	111	104	125
12.404185	-4.351078	-52.218918	107	102	119
12.668293	-4.355846	-52.486519	102	99	111
12.933646	-4.360740	-52.761719	104	101	107
-42.046535	-4.500293	-51.991135	107	103	122
-41.819874	-4.496666	-51.757767	105	103	122
-41.366554	-4.490211	-51.338272	108	102	117
-41.140068	-4.487137	-51.137589	104	100	114
-40.687389	-4.481302	-50.754780	102	95	119
-40.461288	-4.478429	-50.566063	103	96	121
-40.235531	-4.475400	-50.368107	102	100	120
-39.785366	-4.468620	-49.929672	104	97	110
-39.561001	-4.464872	-49.689331	101	95	108
-39.113815	-4.456645	-49.165543	98	94	112
-38.890923	-4.452263	-48.887886	99	96	111
-38.668316	-4.447871	-48.609550	99	93	110
-38.445816	-4.443613	-48.339222	97	92	108
-38.223270	-4.439600	-48.083401	96	93	109
-37.777420	-4.432721	-47.639435	100	97	115
-37.553940	-4.429936	-47.456100	100	99	124
-37.106850	-4.424839	-47.117424	107	101	118
-36.884048	-4.421948	-46.927940	104	99	117
-36.440296	-4.415301	-46.497837	105	102	118
-36.218605	-4.412064	-46.287975	110	105	121
-35.996593	-4.409165	-46.098042	109	104	121
-35.552200	-4.403950	-45.752613	107	101	127
-35.330803	-4.401009	-45.560234	104	100	118
-34.892021	-4.393095	-45.055687	106	102	125
-34.674572	-4.388227	-44.749706	107	106	126
-34.457561	-4.383281	-44.439095	109	105	131
-34.021622	-4.374951	-43.910191	107	101	116
-33.361427	-4.366796	-43.372929	103	99	113
-33.141232	-4.364329	-43.208672	104	100	120
-32.921528	-4.361692	-43.034420	110	105	126
-32.484772	-4.355356	-42.623352	110	104	123
-32.267887	-4.351604	-42.383381	113	102	122
-31.835220	-4.343912	-41.892483	105	102	117
-31.618401	-4.340465	-41.670547	107	99	117
-31.401155	-4.337316	-41.466217	107	102	118
-30.967661	-4.330840	-41.047134	111	102	127
-30.752174	-4.327177	-40.812542	110	107	130
-30.321932	-4.319833	-40.342422	108	105	131
-30.106724	-4.316347	-40.118317	107	102	120
-29.892710	-4.312448	-39.869907	102	99	115
-29.681601	-4.307432	-39.555721	101	100	113
-29.271500	-4.292815	-38.657196	104	99	114
-29.070980	-4.283940	-38.115658	102	98	112
-28.871025	-4.275050	-37.573284	99	96	109
-7.891042	-4.272609	-35.680370	208	199	255
-7.222548	-4.274242	-35.721207	187	199	255
-6.549052	-4.276785	-35.815475	193	190	251
-5.887524	-4.277092	-35.778465	202	207	246
-5.449419	-4.276781	-35.723572	224	210	251
-4.789552	-4.276836	-35.671799	218	203	246
-4.116609	-4.279216	-35.756481	214	206	255
-3.439594	-4.282261	-35.880138	211	197	245
-2.989781	-4.283997	-35.945251	195	199	255
-2.335308	-4.283142	-35.840160	201	206	255
-1.676643	-4.283038	-35.779148	208	192	255
-1.174986	-4.293305	-36.344440	191	172	251
-0.895513	-4.303074	-36.898872	168	151	203
-0.596474	-4.315954	-37.635601	139	125	137
-0.288318	-4.330202	-38.452442	120	113	127
0.014196	-4.343408	-39.208187	112	108	127
0.299189	-4.353673	-39.791428	110	104	121
0.824570	-4.366807	-40.524368	104	101	117
1.331752	-4.376838	-41.075256	110	100	117
1.833848	-4.385905	-41.569565	111	106	118
2.574850	-4.397350	-42.184597	128	111	145
3.068100	-4.404714	-42.578945	117	108	128
3.318680	-4.408957	-42.808975	111	107	126
3.831803	-4.419155	-43.369293	108	105	117
4.343031	-4.428907	-43.903378	102	99	118
4.598023	-4.433633	-44.161572	101	97	107
5.122576	-4.445135	-44.798012	98	96	109
5.652190	-4.457201	-45.467430	98	95	107
6.172185	-4.467677	-46.043579	104	99	111
6.691924	-4.477955	-46.608089	110	103	117
6.948681	-4.482588	-46.860622	114	105	128
7.201863	-4.486672	-47.081062	114	107	131
7.452868	-4.490416	-47.281487	118	108	134
-28.670397	-4.489295	-37.064350	98	95	98
-28.467793	-4.481624	-36.607124	97	96	117
-28.056768	-4.469099	-35.854050	152	153	255
-27.411671	-4.462246	-35.408062	202	186	245
-26.738382	-4.466291	-35.586166	215	210	246
-26.070648	-4.468165	-35.639954	201	196	255
-25.412619	-4.466615	-35.497677	201	191	254
-24.970287	-4.466906	-35.478691	214	192	255
-24.298254	-4.470204	-35.613937	198	197	250
-23.636389	-4.470096	-35.554241	213	196	247
-22.975691	-4.469680	-35.476974	205	198	252
-22.524698	-4.472697	-35.613960	221	205	237
-21.851994	-4.475936	-35.745804	214	214	255
-21.192274	-4.475251	-35.653122	209	206	253
-20.530617	-4.475204	-35.596981	206	204	254
-20.089401	-4.475232	-35.562931	231	217	245
-19.432384	-4.473986	-35.438210	221	210	255
-18.763399	-4.476069	-35.503902	219	211	243
-18.096134	-4.477652	-35.540981	221	209	254
-17.653059	-4.478234	-35.538651	213	200	233
-16.981205	-4.480955	-35.640774	215	200	254
-16.318745	-4.481266	-35.605118	210	196	255
-15.651645	-4.482738	-35.635838	216	199	255
-15.208112	-4.483420	-35.639236	205	203	255
-14.551028	-4.482504	-35.533501	193	192	247
-13.881788	-4.484478	-35.592880	209	198	237
-13.214850	-4.485893	-35.620319	206	209	254
-12.769573	-4.486974	-35.646507	216	212	254
-12.103224	-4.488234	-35.665051	216	200	247
-11.440999	-4.488592	-35.632160	211	202	255
-10.779561	-4.488807	-35.591080	200	201	253
-10.334615	-4.489804	-35.612411	224	203	248
-9.660884	-4.492588	-35.718018	235	201	255
-9.005715	-4.491546	-35.605194	211	201	248
-8.341195	-4.492439	-35.602825	204	200	255
-0.288956	-4.553246	-38.447258	122	116	130
13.214187	-4.828076	-53.152115	109	103	109
13.489545	-4.834504	-53.499348	120	114	109
-43.184387	-4.978595	-53.113140	136	124	122
-42.956150	-4.975455	-52.919750	123	115	124
-42.274464	-4.963375	-52.190968	113	106	124
-42.047276	-4.959945	-51.981438	112	106	123
-41.819897	-4.957036	-51.800991	104	103	119
-40.687218	-4.940767	-50.802719	107	100	118
-40.461338	-4.937443	-50.599209	104	101	121
-40.010506	-4.930457	-50.173290	100	99	113
-39.561794	-4.922225	-49.677967	102	100	110
-39.338223	-4.917716	-49.408360	99	96	106
-38.001621	-4.891251	-47.824104	100	98	115
-37.330360	-4.882971	-47.308598	104	102	118
-34.020435	-4.827819	-43.965973	112	102	114
5.909142	-4.915372	-45.731762	99	97	109
6.431198	-4.926641	-46.320858	108	101	115
7.203616	-4.941605	-47.096867	111	109	130
8.224533	-4.959698	-48.028366	125	112	144
8.484973	-4.964913	-48.299515	111	104	119
10.589143	-5.008261	-50.558006	108	103	118
10.851771	-5.013449	-50.827419	108	104	120
11.363393	-5.021770	-51.252529	108	104	123
12.130783	-5.034031	-51.877857	105	107	117
13.217561	-5.058817	-53.178329	107	103	110
-43.871494	-5.216888	-53.591206	235	242	251
-41.139343	-5.177606	-51.245701	106	99	118
-39.786682	-5.154871	-49.905594	98	98	110
-38.670258	-5.131646	-48.556824	96	95	108
-37.777885	-5.116349	-47.656540	101	100	119
-37.107784	-5.107306	-47.113449	106	101	114
-36.885143	-5.104011	-46.917191	105	100	115
-35.774593	-5.087703	-45.945274	102	101	116
-35.553154	-5.084376	-45.747356	104	102	126
-35.112183	-5.076859	-45.304741	105	104	116
-34.674473	-5.067834	-44.780354	109	110	121
-34.456371	-5.063094	-44.505810	111	107	123
-33.141052	-5.041630	-43.237717	101	100	120
-32.704731	-5.034224	-42.801495	107	103	124
-32.269512	-5.026689	-42.358337	107	101	118
-31.834709	-5.019387	-41.927937	106	100	115
-30.748180	-5.002693	-40.936829	115	107	126
-30.533491	-4.998382	-40.685898	109	106	121
-29.893620	-4.984193	-39.865074	103	101	111
-29.683382	-4.978317	-39.529297	100	100	113
-28.670439	-4.934616	-37.074142	95	93	99
-27.843153	-4.910165	-35.680603	175	175	247
-27.407795	-4.907499	-35.502422	193	188	247
-26.291500	-4.912087	-35.667187	229	199	248
-26.070692	-4.912043	-35.647968	204	198	253
-25.194040	-4.909546	-35.445450	195	198	255
-24.972948	-4.909664	-35.435036	194	199	255
-23.634562	-4.914485	-35.595581	217	194	241
-22.746141	-4.916276	-35.625496	211	204	246
-22.520956	-4.917725	-35.687176	209	202	254
-21.412270	-4.919300	-35.688576	202	208	248
-21.193417	-4.918722	-35.640434	220	211	254
-20.312658	-4.918159	-35.542835	225	217	255
-20.093718	-4.917665	-35.499313	215	211	255
-18.764725	-4.919334	-35.489056	216	222	254
-17.872763	-4.922116	-35.572559	226	204	247
-17.649210	-4.922952	-35.601086	217	202	238
-16.535519	-4.925954	-35.679733	221	200	231
-16.316360	-4.925602	-35.643902	204	198	254
-15.426432	-4.927691	-35.689880	207	202	242
-15.205219	-4.927884	-35.683567	200	195	254
-13.881098	-4.928313	-35.606197	192	207	238
-12.995141	-4.929432	-35.599689	193	198	242
-12.772736	-4.929931	-35.609898	192	202	223
-11.662327	-4.932024	-35.639351	213	201	255
-11.441443	-4.932166	-35.630291	215	196	249
-10.556937	-4.932975	-35.607048	200	192	255
-10.334221	-4.933534	-35.620522	214	207	255
-9.005530	-4.935206	-35.610458	211	205	254
-8.114519	-4.937429	-35.663609	213	202	239
-7.889450	-4.938461	-35.702675	214	196	244
-6.779540	-4.940382	-35.722782	211	192	247
-6.555397	-4.941201	-35.750294	210	196	252
-5.663687	-4.943467	-35.805752	210	199	253
-5.441282	-4.943924	-35.813759	233	201	249
-4.115995	-4.944904	-35.766239	202	195	248
-3.222408	-4.947474	-35.838100	197	199	248
-3.000074	-4.947911	-35.844986	198	199	246
-1.902138	-4.947588	-35.743946	213	199	255
-1.677027	-4.948534	-35.778305	212	195	251
-0.002483	-5.011043	-39.052525	111	109	127
1.080524	-5.045138	-40.825577	105	99	116
1.584848	-5.055386	-41.344852	106	103	117
2.335010	-5.069373	-42.048950	115	114	126
3.335633	-5.087566	-42.962917	117	111	134
4.090963	-5.101632	-43.670856	104	104	119
4.346138	-5.106800	-43.932713	106	99	113
4.864055	-5.118239	-44.515835	99	94	104
5.386298	-5.130193	-45.126602	100	96	108
6.688065	-5.158667	-46.577076	107	101	117
6.945883	-5.163834	-46.838665	114	105	122
7.456849	-5.173327	-47.316391	108	109	123
8.752688	-5.199253	-48.628651	108	100	115
9.010990	-5.204192	-48.877796	105	105	121
9.266854	-5.208728	-49.105152	104	104	116
10.054017	-5.225058	-49.933960	117	109	131
10.323392	-5.231461	-50.261909	110	102	119
11.367998	-5.251799	-51.289223	108	106	121
11.620869	-5.255587	-51.476109	108	103	116
12.389559	-5.268248	-52.106632	103	102	118
12.931590	-5.280776	-52.747120	104	102	113
13.473158	-5.293062	-53.374550	115	110	109
-41.366444	-5.410296	-51.428917	106	98	118
-38.447285	-5.355791	-48.323917	97	96	107
-36.219128	-5.320908	-46.310162	101	100	121
-34.893291	-5.298957	-45.048611	105	106	119
-33.796925	-5.278957	-43.907455	101	100	109
-33.359043	-5.271487	-43.479107	99	97	113
-32.486851	-5.255971	-42.592152	108	105	119
-31.615965	-5.241593	-41.765667	100	97	114
-31.180246	-5.235167	-41.392822	107	101	123
-30.318960	-5.218457	-40.443382	107	104	121
-30.105700	-5.213571	-40.168602	108	101	116
-29.070869	-5.176755	-38.140579	101	97	111
-28.870907	-5.166797	-37.597954	100	95	107
-28.262934	-5.141784	-36.227093	116	116	143
-24.298252	-5.135968	-35.625870	199	200	252
-19.878750	-5.137789	-35.395828	206	205	245
-19.215004	-5.138437	-35.381153	209	206	255
-18.989910	-5.139790	-35.436222	224	212	255
-14.540665	-5.150588	-35.679836	193	213	240
-9.664934	-5.157296	-35.675159	216	216	255
-4.774056	-5.167198	-35.838684	208	194	255
-1.197494	-5.177689	-36.130512	176	180	236
-0.925026	-5.187274	-36.618477	157	161	206
-0.628072	-5.201233	-37.336502	130	133	154
-0.318089	-5.217429	-38.172127	116	114	140
0.553661	-5.254743	-40.085709	105	103	118
2.587240	-5.299350	-42.300022	118	110	129
12.387806	-5.497759	-52.093349	104	102	116
12.925117	-5.509906	-52.697533	104	98	111
13.452824	-5.520484	-53.219265	114	110	109
-43.871449	-5.679739	-53.665302	237	244	244
-43.184128	-5.672184	-53.225590	129	124	118
-42.956360	-5.667841	-52.984818	115	112	119
-42.502491	-5.657635	-52.424812	111	109	123
-42.048756	-5.648860	-51.938843	110	106	119
-41.821552	-5.645458	-51.746750	112	101	118
-41.367249	-5.639275	-51.394630	108	102	120
-41.140560	-5.635921	-51.205040	110	102	119
-40.688190	-5.628673	-50.798046	105	101	114
-40.462376	-5.624967	-50.590321	104	103	117
-40.236931	-5.621075	-50.373035	105	102	120
-39.787716	-5.612178	-49.881031	100	99	116
-39.563824	-5.607358	-49.615891	96	95	110
-39.340157	-5.602575	-49.352707	97	94	108
-38.893379	-5.593219	-48.837200	97	94	108
-38.670258	-5.588646	-48.584896	95	96	108
-38.447136	-5.584308	-48.344688	96	98	109
-38.223904	-5.580279	-48.120464	100	100	116
-37.777645	-5.572620	-47.692673	112	109	125
-37.554974	-5.568667	-47.472420	113	108	126
-37.110264	-5.560780	-47.032967	105	99	117
-36.887821	-5.557162	-46.830021	106	97	117
-36.442467	-5.550747	-46.466583	104	100	118
-36.219913	-5.547646	-46.290371	107	102	123
-35.997841	-5.544320	-46.102531	109	104	128
-35.555401	-5.536851	-45.684864	107	106	132
-35.334637	-5.533014	-45.470711	107	106	123
-34.893887	-5.525236	-45.037155	108	104	122
-34.674290	-5.521043	-44.804764	111	106	119
-34.235565	-5.512798	-44.347218	108	104	117
-33.796200	-5.505509	-43.939007	100	101	109
-33.359222	-5.497264	-43.481602	101	99	111
-33.141487	-5.492894	-43.240147	103	101	118
-29.271088	-5.410321	-38.695541	97	97	111
0.273212	-5.467931	-39.550339	106	103	117
1.333166	-5.499250	-41.092476	104	102	112
1.834554	-5.509383	-41.580025	105	105	122
2.586575	-5.524261	-42.294746	117	107	133
3.086272	-5.533689	-42.746014	114	112	128
3.837819	-5.547896	-43.426147	109	111	127
4.346729	-5.558534	-43.939255	100	100	116
4.606885	-5.564764	-44.242500	100	95	107
4.869043	-5.571286	-44.560646	95	95	105
5.129633	-5.577489	-44.862492	96	96	109
5.643121	-5.588458	-45.392342	97	95	105
6.161340	-5.600045	-45.953850	103	98	113
6.682895	-5.612005	-46.534397	109	106	121
6.939744	-5.617270	-46.787964	110	106	123
7.194840	-5.622207	-47.024738	116	108	126
7.450244	-5.627157	-47.262169	115	109	126
7.968727	-5.638190	-47.795029	107	103	114
8.497230	-5.650670	-48.401901	109	103	122
8.759377	-5.656502	-48.684456	108	103	121
9.017099	-5.661586	-48.928635	110	107	128
9.271821	-5.666156	-49.146469	108	106	121
9.789337	-5.676470	-49.642208	112	110	126
10.322107	-5.689020	-50.252445	112	108	123
10.586511	-5.694918	-50.538208	114	107	122
10.847218	-5.700200	-50.792400	113	104	121
11.105171	-5.705019	-51.022842	112	107	129
11.617537	-5.714010	-51.450653	109	104	120
12.131118	-5.723062	-51.881485	105	103	116
-34.015804	-5.735367	-44.150955	105	101	113
-32.923889	-5.714231	-43.009495	104	102	120
-32.485542	-5.707613	-42.645332	107	102	126
-32.266579	-5.704339	-42.464977	108	104	123
-31.830740	-5.696919	-42.060593	105	103	116
-31.613636	-5.692923	-41.844036	102	101	119
-31.180222	-5.684849	-41.406811	110	105	135
-30.964134	-5.680654	-41.180298	116	110	140
-30.533920	-5.671595	-40.693680	116	113	132
-30.319542	-5.666876	-40.440884	110	103	118
-30.105606	-5.662058	-40.183147	107	100	116
-29.892668	-5.656872	-39.906860	106	99	118
-29.681870	-5.650764	-39.584324	104	97	113
-29.270536	-5.634076	-38.714531	98	98	112
-29.069729	-5.623728	-38.178970	99	98	115
-28.870161	-5.613043	-37.626530	100	98	111
-28.670057	-5.602857	-37.099197	98	94	106
-28.262850	-5.586362	-36.239426	117	115	142
-28.053802	-5.580840	-35.946499	148	154	210
-27.403984	-5.574871	-35.600254	195	184	255
-26.735949	-5.577001	-35.660961	199	199	250
-26.071884	-5.577444	-35.636898	206	206	255
-25.415789	-5.574762	-35.455887	216	216	249
-24.973312	-5.575067	-35.440342	189	197	244
-24.298079	-5.579906	-35.637070	198	207	255
-23.631880	-5.581216	-35.656532	213	196	255
-22.967863	-5.581729	-35.635998	216	196	238
-22.520823	-5.583622	-35.700191	206	188	255
-21.857950	-5.583746	-35.660107	207	203	246
-21.201012	-5.581927	-35.522549	215	200	255
-20.536926	-5.582581	-35.509087	209	208	255
-20.096973	-5.582134	-35.455875	221	206	248
-19.659193	-5.581035	-35.369865	203	207	243
-19.437881	-5.581267	-35.366096	215	214	250
-18.989542	-5.583506	-35.447617	224	204	255
-18.764805	-5.584782	-35.496246	214	201	254
-18.101311	-5.585308	-35.476398	197	210	254
-17.658117	-5.585927	-35.476601	209	196	253
-16.982634	-5.589958	-35.632622	208	195	236
-16.317617	-5.590893	-35.633282	211	196	232
-15.653728	-5.591518	-35.618408	190	192	248
-15.209563	-5.592376	-35.630592	216	194	232
-14.537851	-5.595124	-35.722149	200	201	249
-13.881252	-5.593817	-35.610428	221	205	254
-13.217222	-5.594522	-35.599598	202	195	254
-12.772325	-5.595565	-35.621056	203	198	249
-12.106400	-5.596755	-35.634506	211	196	254
-11.446170	-5.596536	-35.577332	195	202	255
-10.774146	-5.599216	-35.665466	240	197	248
-10.330266	-5.599981	-35.673019	225	212	255
-9.667188	-5.600481	-35.651859	221	223	237
-8.994777	-5.603156	-35.739704	212	197	255
-8.327640	-5.604577	-35.764729	199	201	248
-7.887610	-5.604454	-35.727768	216	198	249
-7.225339	-5.604794	-35.698654	202	189	234
-6.558571	-5.606135	-35.719696	212	193	236
-5.885145	-5.608895	-35.811707	201	197	249
-5.444066	-5.609034	-35.787922	221	194	255
-4.784353	-5.608866	-35.733353	221	201	245
-4.122599	-5.609154	-35.701630	202	203	232
-3.463382	-5.608949	-35.645237	213	198	247
-3.013426	-5.610936	-35.713974	220	201	249
-2.344619	-5.612658	-35.754021	197	194	255
-1.685545	-5.612461	-35.698040	214	196	252
-1.207958	-5.619733	-36.031181	193	191	233
-0.638248	-5.644524	-37.240833	137	131	145
-0.326725	-5.661836	-38.091568	119	113	131
-0.019564	-5.678164	-38.893040	108	107	120
0.270663	-5.691148	-39.527126	106	105	117
0.545901	-5.701199	-40.014442	109	105	119
0.812124	-5.709475	-40.412918	110	101	114
