-3.823593	-17.029661	-48.226898	65	60	74
-3.593794	-17.030869	-48.248211	65	58	70
-2.906855	-17.033329	-48.285645	67	66	84
3.462596	-17.037855	-48.214958	70	66	84
3.693981	-17.039583	-48.248104	70	66	80
10.352247	-17.146786	-50.514442	92	89	98
10.608159	-17.156574	-50.731003	95	92	101
11.892163	-17.205971	-51.824028	93	90	101
12.160512	-17.219591	-52.127728	92	88	98
12.929866	-17.247761	-52.750053	93	94	100
13.733085	-17.286674	-53.616783	95	91	99
14.293221	-17.320351	-54.370583	94	92	99
14.819163	-17.342260	-54.856552	94	92	100
15.298985	-17.348747	-54.991592	88	91	100
-43.657715	-17.447165	-53.578743	91	87	101
-42.747875	-17.399092	-52.468502	90	90	102
-42.521675	-17.384974	-52.143513	91	88	103
-40.708969	-17.312323	-50.453865	86	82	94
-40.031803	-17.287197	-49.868164	87	82	95
-39.578781	-17.276543	-49.615299	84	80	95
-39.127323	-17.263460	-49.307678	81	78	91
-38.451752	-17.242830	-48.823528	65	64	73
-37.541855	-17.237360	-48.675491	47	44	58
-37.086452	-17.235893	-48.630089	45	45	54
-35.945770	-17.236597	-48.615292	44	43	54
-35.034500	-17.235291	-48.561230	47	45	55
-34.579151	-17.234341	-48.527500	46	45	58
-33.668457	-17.232742	-48.466873	48	45	57
-33.439713	-17.233900	-48.486851	48	47	58
-32.522594	-17.241125	-48.625351	48	47	57
-32.294525	-17.241253	-48.622086	48	47	60
-31.153431	-17.242891	-48.628353	48	47	59
-30.926601	-17.241556	-48.592087	49	48	59
-30.242416	-17.242069	-48.585251	51	46	58
-29.785143	-17.243725	-48.610310	49	47	59
-28.650059	-17.239101	-48.475349	48	48	60
-27.739637	-17.238293	-48.432571	48	48	60
-27.285028	-17.237368	-48.399414	47	48	58
-26.373890	-17.237539	-48.378738	49	48	58
-26.147459	-17.236328	-48.345291	49	49	58
-25.233829	-17.238914	-48.379105	51	49	60
-25.005360	-17.239603	-48.388493	51	47	61
-23.863499	-17.242533	-48.423935	48	48	59
-23.635612	-17.242697	-48.421494	47	46	59
-22.953163	-17.242218	-48.392281	49	45	58
-22.497614	-17.242413	-48.384422	46	46	55
-21.346375	-17.252512	-48.581497	46	45	56
-20.434433	-17.253347	-48.575832	51	48	59
-19.985302	-17.248762	-48.460159	51	49	59
-18.847858	-17.248323	-48.419613	50	49	63
-17.928471	-17.254543	-48.535355	53	50	64
-17.471590	-17.255651	-48.548073	51	49	61
-16.566484	-17.252167	-48.444969	54	50	62
-16.340117	-17.251398	-48.421532	50	52	64
-15.425641	-17.254169	-48.459488	54	52	66
-15.195207	-17.255989	-48.494392	51	49	62
-14.045821	-17.263109	-48.624214	52	51	63
-13.816486	-17.264162	-48.641842	49	49	62
-13.137028	-17.262222	-48.579712	55	52	65
-12.687192	-17.259163	-48.498493	54	53	66
-11.565636	-17.250208	-48.266033	54	52	62
-10.635593	-17.261599	-48.498268	54	51	63
-10.179022	-17.262510	-48.506569	53	52	61
-9.281650	-17.255928	-48.333717	52	52	63
-9.053255	-17.256483	-48.340115	53	52	60
-8.144015	-17.256441	-48.314655	51	53	60
-7.913055	-17.258316	-48.350811	52	51	61
-6.759608	-17.266771	-48.510681	62	58	72
-6.530566	-17.267597	-48.523197	62	59	71
-5.864233	-17.259874	-48.330826	57	55	66
-5.415940	-17.256853	-48.250492	60	59	74
-4.257505	-17.267416	-48.457870	59	60	68
-3.339738	-17.271397	-48.523041	61	58	70
-2.883764	-17.272017	-48.524765	64	62	79
-1.987168	-17.266376	-48.373249	62	61	71
-1.762373	-17.265299	-48.342842	64	62	70
-0.842498	-17.270180	-48.428318	67	63	74
-0.383559	-17.272139	-48.460190	65	61	79
0.522004	-17.270744	-48.404335	68	65	83
0.745490	-17.269182	-48.363033	67	68	84
1.643025	-17.264603	-48.235401	73	73	104
1.870650	-17.264832	-48.234463	74	73	102
3.021412	-17.271114	-48.345345	69	73	84
3.255585	-17.273966	-48.403458	70	70	85
3.948269	-17.278481	-48.486778	68	67	90
4.394649	-17.275368	-48.404419	69	64	80
5.532330	-17.276249	-48.393703	62	57	76
6.429550	-17.272078	-48.275299	51	51	61
6.881662	-17.271378	-48.247326	50	48	61
7.811989	-17.279713	-48.410515	49	50	58
8.049856	-17.283710	-48.494400	60	58	65
8.789111	-17.304876	-48.952538	83	80	94
9.296922	-17.324135	-49.373821	85	86	97
9.555917	-17.335487	-49.623238	88	89	102
10.597425	-17.382002	-50.645760	95	90	100
11.109206	-17.401583	-51.074219	92	90	103
11.364104	-17.410917	-51.278172	91	89	102
12.672055	-17.468079	-52.533970	92	93	102
14.019502	-17.536526	-54.043564	91	92	100
14.835254	-17.578856	-54.977661	90	94	100
-45.036194	-17.716227	-54.469635	88	85	96
-44.344700	-17.706673	-54.237858	91	86	98
-43.886517	-17.688461	-53.818893	92	89	99
-38.221054	-17.477150	-48.947987	50	48	56
-37.537086	-17.475657	-48.896484	46	44	55
-37.081097	-17.474861	-48.866596	44	44	53
-35.939327	-17.476414	-48.870983	44	43	52
-32.057217	-17.482044	-48.893642	47	46	60
-31.144840	-17.482088	-48.870426	47	48	57
-29.776178	-17.482521	-48.843754	47	48	57
-29.093321	-17.481215	-48.796432	47	48	58
-21.792217	-17.488594	-48.767433	48	46	56
-19.518593	-17.485487	-48.637646	50	49	59
-13.569352	-17.504379	-48.901688	55	52	66
-12.002566	-17.488708	-48.510044	58	55	73
-4.697848	-17.502527	-48.624760	62	60	80
5.092552	-17.510036	-48.532578	65	65	83
9.804008	-17.571617	-49.783115	87	85	96
12.412552	-17.687527	-52.303127	90	90	100
12.922445	-17.705606	-52.693474	94	92	101
13.459280	-17.732689	-53.284195	94	91	100
14.029817	-17.770880	-54.122177	95	94	101
14.313104	-17.789095	-54.521568	92	91	100
14.853713	-17.816372	-55.116562	91	92	101
15.345430	-17.826887	-55.338390	94	90	97
-43.886890	-17.919121	-53.812717	94	88	97
-43.658501	-17.908072	-53.562546	91	87	97
-43.203346	-17.882223	-52.979458	89	87	98
-42.749619	-17.855268	-52.371933	89	87	97
-42.522903	-17.842915	-52.093025	89	86	99
-42.296131	-17.831749	-51.840328	89	86	99
-42.069138	-17.822206	-51.623550	89	86	97
-41.387371	-17.800024	-51.115501	89	85	96
-40.935665	-17.779493	-50.650009	86	84	95
-40.710514	-17.768208	-50.394714	84	83	94
-40.259239	-17.750248	-49.986065	86	82	93
-39.579250	-17.734556	-49.621490	79	76	87
-38.898193	-17.723764	-49.365181	61	60	69
-38.443569	-17.718754	-49.242554	49	47	54
-37.760319	-17.714840	-49.138210	45	44	55
-37.075996	-17.713575	-49.092331	45	43	53
-36.389194	-17.717020	-49.150478	44	43	54
-35.932705	-17.716793	-49.133503	45	43	53
-35.022278	-17.712439	-49.013474	44	44	53
-34.565128	-17.713552	-49.026108	47	44	52
-33.880833	-17.713060	-48.997299	47	47	56
-33.424335	-17.713249	-48.989517	46	46	56
-32.735622	-17.719004	-49.098679	47	46	54
-32.277077	-17.721828	-49.149094	49	47	56
-31.590113	-17.724758	-49.195835	49	45	56
-30.910963	-17.717974	-49.028149	46	46	55
-30.456028	-17.716373	-48.980854	48	46	55
-29.768133	-17.720493	-49.053902	47	48	56
-28.400879	-17.718973	-48.984486	46	48	60
-27.715647	-17.720053	-48.990437	51	47	59
-27.258553	-17.721048	-49.000465	47	47	56
-26.346045	-17.721375	-48.983788	48	45	56
-26.118517	-17.720896	-48.967239	50	48	56
-25.206852	-17.720575	-48.936302	48	47	55
-24.979530	-17.719975	-48.917068	47	47	57
-23.836056	-17.723204	-48.958488	48	46	58
-23.608099	-17.723198	-48.952381	47	46	56
-22.927351	-17.720604	-48.877258	49	48	59
-22.468653	-17.722986	-48.917873	48	46	59
-21.545626	-17.732054	-49.094097	48	45	58
-21.316830	-17.732695	-49.102253	48	46	57
-20.633337	-17.732363	-49.077030	53	48	58
-19.954973	-17.728254	-48.968464	53	51	60
-18.815454	-17.728361	-48.940994	51	51	62
-17.900667	-17.730755	-48.969944	53	54	65
-17.671383	-17.731752	-48.985977	56	52	66
-16.535290	-17.729687	-48.910614	54	53	68
-16.307985	-17.729364	-48.897537	54	57	71
-15.622817	-17.730570	-48.906212	55	54	64
-15.164052	-17.732643	-48.940018	56	57	68
-14.471222	-17.738625	-49.054081	53	50	63
-14.008302	-17.743145	-49.141834	53	51	61
-13.330641	-17.739576	-49.045223	56	52	68
-12.661427	-17.731148	-48.841473	59	53	69
-12.436664	-17.729422	-48.797443	63	56	71
-11.983758	-17.728024	-48.754692	56	54	65
-11.523821	-17.730740	-48.802673	54	50	64
-10.594605	-17.741291	-49.011505	52	49	61
-10.364583	-17.742582	-49.034004	52	51	62
-8.776074	-17.739676	-48.928188	52	51	59
-8.102323	-17.734840	-48.803722	53	54	66
-7.875137	-17.734640	-48.793350	54	52	64
-7.414299	-17.737619	-48.847122	56	54	68
-6.714054	-17.746590	-49.026978	56	56	65
-6.486470	-17.746557	-49.020309	56	55	69
-5.824937	-17.735872	-48.766914	57	56	69
-5.372423	-17.734646	-48.727940	58	59	75
-3.981295	-17.747307	-48.971283	59	55	72
-3.296064	-17.748516	-48.980087	61	58	79
-2.837525	-17.750124	-49.003609	58	57	70
-1.933829	-17.747152	-48.914284	61	58	69
-1.707131	-17.746790	-48.900322	63	61	71
-0.788312	-17.750786	-48.964584	68	63	78
-0.559598	-17.751328	-48.970589	66	62	75
0.794655	-17.746742	-48.833801	71	67	80
1.019794	-17.745770	-48.806389	69	67	79
1.247584	-17.745945	-48.804302	68	63	80
1.932483	-17.747128	-48.812504	75	70	95
2.611748	-17.745955	-48.768818	71	72	87
3.070260	-17.747551	-48.792091	72	71	85
3.993806	-17.753347	-48.896000	68	65	82
4.440950	-17.750296	-48.816837	64	61	73
4.889245	-17.747766	-48.749218	65	61	83
5.814883	-17.754280	-48.868935	62	59	79
6.263748	-17.752039	-48.807659	56	53	66
6.714339	-17.750513	-48.762142	51	52	62
7.639119	-17.756536	-48.871025	47	47	59
8.100761	-17.759211	-48.918030	48	47	53
8.564652	-17.762693	-48.982853	62	60	72
9.292852	-17.779791	-49.341614	82	82	91
9.542073	-17.787794	-49.511921	85	84	94
9.794251	-17.796820	-49.704777	86	83	96
10.314624	-17.820494	-50.214302	89	87	98
10.580988	-17.834436	-50.515408	88	90	100
10.846546	-17.847982	-50.807789	90	89	99
11.108421	-17.860102	-51.068764	90	88	100
11.365839	-17.870537	-51.292595	93	88	101
11.623614	-17.881021	-51.517525	93	90	101
12.149864	-17.905548	-52.045731	91	89	101
12.411494	-17.917149	-52.295242	90	89	100
12.668086	-17.926895	-52.503899	91	88	101
14.039999	-18.005266	-54.199787	95	92	101
-38.895229	-17.959980	-49.528412	53	52	59
-38.438877	-17.958345	-49.480900	48	46	55
-29.074062	-17.960165	-49.278919	47	46	57
-19.487558	-17.965555	-49.149300	54	50	63
-12.193033	-17.967384	-49.000973	55	51	64
-11.502563	-17.971607	-49.075459	55	50	65
-9.663350	-17.981184	-49.237324	50	49	60
-8.529574	-17.978354	-49.146175	51	51	60
-6.027085	-17.977158	-49.055435	56	54	68
-5.347887	-17.975285	-48.996960	58	57	70
-4.651480	-17.981976	-49.125244	59	56	71
0.143904	-17.989101	-49.157242	66	64	86
1.505986	-17.987682	-49.091080	66	65	81
1.961347	-17.987823	-49.082394	72	69	89
2.868587	-17.986671	-49.033794	75	72	95
3.096835	-17.987000	-49.035065	77	73	92
4.467892	-17.989609	-49.056702	61	60	72
4.918319	-17.987810	-49.005775	64	62	77
6.516931	-17.990517	-49.023663	55	53	68
6.743372	-17.990147	-49.009750	54	52	66
14.602788	-18.271919	-54.966770	92	92	101
-44.805717	-18.412273	-54.512516	87	84	97
-44.345745	-18.399624	-54.227226	92	87	99
-43.431828	-18.354588	-53.229805	89	87	97
-43.204853	-18.339457	-52.896748	88	86	97
-37.749325	-18.196026	-49.655396	46	44	55
-37.065331	-18.192593	-49.563702	46	44	55
-36.606647	-18.195604	-49.617203	46	45	54
-35.920868	-18.195852	-49.605099	47	43	54
-35.238987	-18.189686	-49.454361	47	45	55
-34.781418	-18.190788	-49.466526	47	45	56
-34.092915	-18.195692	-49.555065	46	46	57
-33.408134	-18.194788	-49.518112	50	46	58
-32.949398	-18.197433	-49.563625	48	46	57
-32.261169	-18.201359	-49.631023	48	48	58
-31.575958	-18.201115	-49.608311	49	47	57
-31.122164	-18.197195	-49.511982	47	46	56
-30.210218	-18.195301	-49.447769	48	46	56
-29.751661	-18.197506	-49.483810	47	47	58
-29.064163	-18.200302	-49.526768	48	47	57
-28.607561	-18.200186	-49.512630	48	47	58
-27.922318	-18.200443	-49.500759	49	48	58
-27.235144	-18.202747	-49.533096	51	46	58
-26.777479	-18.203783	-49.543835	47	45	56
-26.092533	-18.203793	-49.526623	49	49	56
-25.409029	-18.202496	-49.481155	49	45	59
-22.668039	-18.204483	-49.454357	49	47	56
-22.435602	-18.208050	-49.525600	50	48	59
-21.746061	-18.212057	-49.594730	50	50	60
-21.293154	-18.209181	-49.520988	48	48	60
-20.611296	-18.207052	-49.457565	49	49	60
-14.440759	-18.215397	-49.480991	52	51	61
-13.979167	-18.218891	-49.544830	51	50	60
-10.786926	-18.218914	-49.464046	49	47	61
-10.324191	-18.222820	-49.536758	49	47	54
-9.640495	-18.222687	-49.516464	49	50	62
-8.960281	-18.220671	-49.455551	48	51	58
-4.166080	-18.225338	-49.434433	56	55	69
-3.479314	-18.226965	-49.452126	60	59	71
-3.018241	-18.229588	-49.497150	61	61	75
-2.331864	-18.230980	-49.509769	63	59	75
-0.968570	-18.229389	-49.440659	69	65	89
11.634946	-18.344389	-51.607281	93	91	101
11.899076	-18.357304	-51.879883	92	88	96
12.932858	-18.399889	-52.774685	92	88	99
14.037454	-18.466206	-54.181004	94	91	101
14.320328	-18.484846	-54.577026	92	92	102
15.120890	-18.523287	-55.388130	89	90	97
15.362278	-18.527111	-55.464703	91	89	97
-45.267761	-18.647499	-54.608398	86	83	96
-43.887890	-18.611698	-53.807472	88	87	100
-42.751614	-18.541695	-52.280582	90	85	96
-42.297504	-18.519991	-51.804649	90	86	98
-42.070423	-18.510492	-51.595627	90	84	97
-41.163143	-18.475655	-50.827194	86	85	94
-40.936855	-18.466766	-50.631241	85	84	94
-40.710396	-18.458952	-50.458328	83	81	93
-40.028862	-18.443995	-50.121040	72	70	81
-39.344681	-18.438044	-49.976513	51	51	58
-38.658726	-18.437160	-49.940369	47	45	56
-38.429546	-18.438116	-49.955063	46	46	54
-37.515755	-18.435665	-49.879669	45	44	54
-37.059399	-18.433619	-49.824387	46	44	55
-36.372551	-18.435225	-49.841534	45	44	55
-35.915543	-18.434679	-49.818375	46	43	54
-35.004745	-18.428511	-49.663498	48	45	57
-34.775219	-18.430105	-49.691853	50	45	57
-33.857109	-18.436098	-49.797058	49	47	57
-33.400478	-18.435299	-49.768475	50	45	59
-32.712044	-18.439192	-49.834518	47	47	54
-32.254597	-18.439579	-49.831348	48	47	58
-31.343281	-18.435770	-49.726929	46	47	58
-31.115538	-18.434795	-49.700344	47	46	56
-30.200584	-18.436068	-49.704609	51	46	56
-29.742134	-18.437862	-49.731518	49	48	61
-29.053991	-18.440994	-49.781265	48	49	57
-28.596861	-18.441179	-49.773754	50	49	59
-27.682341	-18.441898	-49.766159	49	49	61
-27.453293	-18.442528	-49.773884	50	47	62
-26.537771	-18.444309	-49.789047	48	46	58
-26.081085	-18.444126	-49.773636	50	49	58
-25.396986	-18.443026	-49.732895	49	47	59
-24.942745	-18.440645	-49.670540	47	48	57
-24.034462	-18.436050	-49.549419	51	48	58
-23.575701	-18.438028	-49.580215	48	46	60
-22.885508	-18.442680	-49.662457	47	48	58
-22.420809	-18.449558	-49.798019	50	47	58
-21.734964	-18.450207	-49.794647	50	49	59
-21.283211	-18.446194	-49.697418	51	49	59
-20.374109	-18.443035	-49.606998	51	48	58
-19.916304	-18.444088	-49.618027	50	48	57
-19.228605	-18.446392	-49.650070	51	48	60
-18.774708	-18.444498	-49.598129	50	49	61
-17.869392	-18.439152	-49.460987	51	48	60
-17.639194	-18.440651	-49.487270	51	49	60
-16.718954	-18.446095	-49.580700	49	49	59
-16.260820	-18.447369	-49.596474	50	47	59
-15.570399	-18.451412	-49.665665	52	49	61
-15.117022	-18.449469	-49.612682	50	50	61
-14.195004	-18.455627	-49.721359	49	48	58
-13.965505	-18.456484	-49.733952	51	48	58
-13.069825	-18.445934	-49.485653	50	48	58
-12.614910	-18.445244	-49.459442	50	47	59
-11.924687	-18.449013	-49.522789	51	47	58
-11.463072	-18.452345	-49.582512	52	49	58
-10.537894	-18.459951	-49.722073	49	46	57
-10.306460	-18.461885	-49.757683	49	48	56
-9.394352	-18.461744	-49.731766	48	48	55
-8.941270	-18.460043	-49.683960	48	49	57
-8.267633	-18.454308	-49.544277	48	48	59
-7.814456	-18.452829	-49.501247	50	47	58
-6.892667	-18.458204	-49.593147	53	49	65
-6.665164	-18.457966	-49.582355	52	50	64
-5.756457	-18.456408	-49.526192	52	52	64
-5.295589	-18.459005	-49.570190	54	53	64
-4.606439	-18.461742	-49.611485	56	53	73
-4.143804	-18.465132	-49.672417	60	56	69
-3.224012	-18.469076	-49.733753	59	58	69
-2.992562	-18.470776	-49.764309	59	59	74
-2.083637	-18.469416	-49.712357	60	57	69
-1.635535	-18.465780	-49.623306	63	60	73
-0.945673	-18.468702	-49.668530	63	62	77
-0.491095	-18.468172	-49.645752	64	63	87
0.413286	-18.465025	-49.555710	67	67	86
0.640353	-18.464701	-49.543076	70	65	89
1.553206	-18.465488	-49.537014	68	66	84
2.008399	-18.465353	-49.522667	68	63	75
2.698379	-18.468273	-49.567860	76	69	88
3.154457	-18.468525	-49.561783	73	71	92
4.072089	-18.471348	-49.599171	72	68	97
4.301384	-18.471998	-49.607346	67	68	87
5.211647	-18.471737	-49.578884	60	61	77
5.673031	-18.474173	-49.619438	64	64	79
6.348205	-18.470978	-49.534092	61	61	75
6.795696	-18.467859	-49.456116	60	58	80
7.021153	-18.467003	-49.432137	56	54	73
7.716235	-18.471834	-49.518063	46	49	59
7.948916	-18.473808	-49.554497	46	48	56
8.865948	-18.476316	-49.585155	52	51	57
9.326122	-18.478191	-49.613701	66	65	74
10.326065	-18.511763	-50.307186	86	86	96
10.588813	-18.524773	-50.579048	94	86	96
10.851786	-18.537769	-50.850605	92	89	98
11.114788	-18.550678	-51.120316	94	90	96
11.378070	-18.563595	-51.390171	93	88	97
12.433177	-18.615034	-52.464661	91	90	99
12.684719	-18.623220	-52.633575	91	88	101
13.464088	-18.656305	-53.322159	90	88	100
14.026749	-18.693306	-54.099976	92	92	98
-42.524712	-18.761068	-52.045818	89	85	97
-41.616543	-18.723295	-51.223179	85	83	97
-39.569206	-18.678780	-50.229530	52	50	59
-38.654755	-18.676060	-50.149284	46	44	56
-38.425411	-18.677153	-50.166759	45	44	56
-37.509850	-18.677460	-50.150589	45	43	55
-37.053249	-18.675335	-50.094250	47	44	55
9.827497	-18.724516	-49.974899	77	75	88
14.017085	-18.920704	-54.026859	93	88	98
14.300361	-18.939899	-54.426468	91	87	98
14.848464	-18.971317	-55.078369	92	86	95
15.341973	-18.983006	-55.313751	92	88	95
-45.267780	-19.115004	-54.709492	81	81	90
-45.036781	-19.113434	-54.670952	86	84	95
-44.346268	-19.095619	-54.280598	90	89	99
-43.888519	-19.073614	-53.808064	91	87	101
-43.660549	-19.059866	-53.514244	90	85	100
-43.205982	-19.030079	-52.878651	91	88	101
-42.751755	-19.004038	-52.321621	90	84	94
-42.524647	-18.992617	-52.076630	88	85	95
-42.297653	-18.981674	-51.841667	86	85	98
-42.070683	-18.971504	-51.622875	87	84	96
-41.388878	-18.948132	-51.116215	84	82	98
-40.707111	-18.929108	-50.700737	77	76	87
-40.479488	-18.924633	-50.601353	72	69	82
-40.251423	-18.921665	-50.533573	64	60	73
-36.591362	-18.913225	-50.267208	46	43	56
-35.905167	-18.912462	-50.234417	45	45	54
-34.993134	-18.906836	-50.094177	47	45	57
-34.763542	-18.908209	-50.117378	48	46	57
-33.845142	-18.913441	-50.204624	50	48	57
-33.387432	-18.913631	-50.197411	49	48	59
-32.928185	-18.916107	-50.238106	48	48	58
-32.243702	-18.913477	-50.166241	47	46	57
-31.331581	-18.909742	-50.065678	46	46	56
-31.101398	-18.911709	-50.101273	48	47	56
-30.179752	-18.920303	-50.258953	49	45	57
-29.722561	-18.919941	-50.240158	48	45	57
-29.034771	-18.921825	-50.262878	49	48	57
-28.576090	-18.923227	-50.281040	48	48	58
-27.661541	-18.922873	-50.251266	49	48	59
-27.432737	-18.922989	-50.248123	50	48	59
-26.516161	-18.924904	-50.265888	50	50	60
-26.059221	-18.924482	-50.245892	50	48	59
-25.372972	-18.924759	-50.234921	49	47	60
-24.919935	-18.920683	-50.138386	48	46	55
-24.695744	-18.916502	-50.045235	49	47	57
-23.090733	-18.921309	-50.106804	50	48	59
-22.395550	-18.929630	-50.264297	51	46	61
-21.712515	-18.927315	-50.199043	50	49	61
-21.261269	-18.922449	-50.086040	49	48	57
-20.807142	-18.920124	-50.026199	48	45	55
-20.578974	-18.919897	-50.015827	51	46	55
-19.886942	-18.925211	-50.110344	48	46	57
-19.197323	-18.928463	-50.161667	48	47	57
-18.747602	-18.922958	-50.035271	49	48	56
-18.294050	-18.920509	-49.972855	49	46	59
-17.606958	-18.921961	-49.986485	49	47	58
-16.917799	-18.924871	-50.030693	49	47	57
-16.459686	-18.925833	-50.039646	49	47	59
-15.997872	-18.929359	-50.102306	50	48	59
-15.538154	-18.931372	-50.133263	50	49	59
-15.084950	-18.928944	-50.071293	48	49	58
-14.397474	-18.930540	-50.087971	48	47	57
-13.934855	-18.934404	-50.157673	51	46	58
-13.027314	-18.930622	-50.056206	47	47	55
-12.798371	-18.931021	-50.058945	49	48	59
-11.882540	-18.932642	-50.070557	48	46	56
-11.422038	-18.935022	-50.109219	48	47	59
-10.731363	-18.938471	-50.164646	48	47	57
-10.271967	-18.940100	-50.187580	50	46	57
-9.359820	-18.939461	-50.151894	48	46	57
-9.132149	-18.939106	-50.138908	48	48	58
-8.228807	-18.933657	-50.002590	49	49	56
-7.774168	-18.932693	-49.971268	51	50	61
-7.314450	-18.934547	-49.998901	51	50	59
-6.626282	-18.936522	-50.023491	53	50	61
-5.705164	-18.940987	-50.094574	53	51	60
-5.474650	-18.942204	-50.114483	52	51	66
-4.563458	-18.941412	-50.075607	57	53	68
-4.101270	-18.944399	-50.126930	60	54	77
-3.406689	-18.949440	-50.215679	59	57	72
-2.945523	-18.951801	-50.253891	60	57	69
-2.040069	-18.948231	-50.156902	59	56	70
-1.817543	-18.945515	-50.094532	60	57	70
-0.899929	-18.947979	-50.123795	57	58	72
-0.442462	-18.948568	-50.124962	61	59	73
0.234789	-18.945316	-50.040226	63	62	77
0.690521	-18.945154	-50.025688	66	66	84
1.367869	-18.942116	-49.945450	65	62	79
2.054764	-18.943445	-49.956528	65	61	76
2.521091	-18.948036	-50.041405	68	63	83
2.982678	-18.950483	-50.081429	66	65	80
3.209666	-18.950037	-50.066517	63	64	82
3.663260	-18.948999	-50.033676	65	66	87
4.353297	-18.951612	-50.071613	68	65	83
5.270188	-18.953712	-50.093224	63	61	81
5.501536	-18.955120	-50.117096	59	57	74
6.402707	-18.950724	-50.002918	60	57	73
6.846198	-18.945711	-49.886978	58	58	72
7.540058	-18.949873	-49.957294	50	48	54
8.241037	-18.956789	-50.085148	49	47	55
8.918785	-18.954447	-50.019497	48	47	57
9.374479	-18.954435	-50.008106	51	51	56
9.608425	-18.956799	-50.051926	59	55	65
9.848477	-18.961504	-50.144718	67	65	78
10.602755	-18.988443	-50.691093	87	86	98
11.122562	-19.012495	-51.182632	90	85	97
11.387278	-19.026201	-51.463535	90	87	98
11.655615	-19.041168	-51.770756	92	88	97
11.924421	-19.056200	-52.079319	92	87	96
12.441286	-19.078217	-52.528305	92	91	96
12.934356	-19.091139	-52.787163	92	89	96
13.455819	-19.114275	-53.259476	92	87	98
-40.248608	-19.159836	-50.716885	57	53	63
-39.561359	-19.159174	-50.686600	47	46	56
-39.104210	-19.156359	-50.617146	47	47	58
-38.875771	-19.154755	-50.578350	45	45	59
-38.417561	-19.154881	-50.569927	47	46	55
-37.728897	-19.158087	-50.619865	46	47	54
-37.041431	-19.158604	-50.614037	45	45	52
-36.585880	-19.153620	-50.499607	46	42	53
-35.900127	-19.151390	-50.436802	46	45	55
-35.215717	-19.147167	-50.332668	46	44	57
-34.757587	-19.147776	-50.334259	48	46	57
-34.068283	-19.152065	-50.406677	49	47	56
-33.380959	-19.153046	-50.410446	50	48	58
-32.921467	-19.155584	-50.452065	49	47	57
-32.237999	-19.151031	-50.341106	46	45	55
-31.554276	-19.147293	-50.247017	48	46	58
-31.093477	-19.151590	-50.325127	49	46	58
-24.004179	-19.151304	-50.148293	49	48	57
-23.773533	-19.153217	-50.182434	49	48	57
-20.565096	-19.160418	-50.254520	50	47	54
-18.732069	-19.164032	-50.285355	50	48	58
-18.046221	-19.164211	-50.272526	48	46	59
-17.588545	-19.164679	-50.271214	51	47	57
-16.901892	-19.165497	-50.271622	48	46	56
-8.432623	-19.176569	-50.297260	50	47	60
-7.753872	-19.173058	-50.208023	51	50	62
-7.064419	-19.175587	-50.243893	53	49	64
-6.603184	-19.178116	-50.285263	55	51	64
0.035432	-19.187775	-50.325680	58	61	74
0.718978	-19.187298	-50.299313	65	64	81
1.618940	-19.181532	-50.157978	63	60	73
1.848733	-19.182304	-50.168465	63	59	74
3.688236	-19.188854	-50.260052	64	66	79
6.207361	-19.193211	-50.289719	60	56	74
6.874512	-19.186214	-50.128471	55	53	67
7.335587	-19.188313	-50.160877	50	48	56
8.722140	-19.195795	-50.282738	50	47	59
-44.117554	-19.548773	-54.085968	92	88	103
-38.871380	-19.395546	-50.813278	47	44	58
-38.413132	-19.395224	-50.795750	47	45	55
-37.724533	-19.397583	-50.827847	46	46	55
-37.035927	-19.399792	-50.856827	45	45	55
-36.580002	-19.395018	-50.747925	45	44	55
-33.143471	-19.395723	-50.680679	49	46	56
-32.913921	-19.396513	-50.691452	49	46	57
-30.621469	-19.399826	-50.704983	48	46	58
-30.390383	-19.402523	-50.754894	47	46	56
-29.704920	-19.400633	-50.699795	49	45	58
-29.247105	-19.400505	-50.686275	49	46	58
-28.555506	-19.406057	-50.783890	48	47	58
-27.870562	-19.403828	-50.721783	49	48	59
-27.411848	-19.404753	-50.729893	50	46	58
-26.723581	-19.406334	-50.745979	51	46	57
-26.037642	-19.405481	-50.712173	49	48	57
-25.579268	-19.406069	-50.713326	50	46	57
-22.602243	-19.407846	-50.679066	49	46	58
-22.371044	-19.409956	-50.716888	49	48	57
-21.910786	-19.412220	-50.752480	49	47	59
-19.624435	-19.410841	-50.669746	49	47	56
-19.394274	-19.411957	-50.687210	48	45	57
-13.898366	-19.417055	-50.661243	48	47	57
-12.753232	-19.418348	-50.660576	45	43	53
-12.065883	-19.419308	-50.663952	46	45	54
-11.379200	-19.419859	-50.658924	46	45	56
-10.916953	-19.422972	-50.711884	47	47	54
-10.232040	-19.422438	-50.684608	48	47	57
-3.135473	-19.429468	-50.660278	60	57	75
-2.905144	-19.430426	-50.674492	60	59	75
13.733326	-19.593134	-53.621460	91	91	99
15.571143	-19.676973	-55.300186	90	86	95
-45.038757	-19.800192	-54.521076	87	84	93
-42.977726	-19.716713	-52.774757	88	84	94
-42.296398	-19.680136	-52.014801	86	82	95
-42.068943	-19.671118	-51.826035	86	79	94
-40.927479	-19.648161	-51.332310	61	60	73
-40.012455	-19.639992	-51.144684	49	47	58
-39.553268	-19.641127	-51.156979	49	45	56
-37.490013	-19.639153	-51.068405	47	45	56
-37.030548	-19.640966	-51.094547	47	45	57
-36.117550	-19.633013	-50.911324	46	45	55
-35.888725	-19.632324	-50.891964	46	45	56
-34.972813	-19.630987	-50.843258	47	46	55
-34.743069	-19.632019	-50.858864	47	47	56
-33.365513	-19.636381	-50.915272	49	48	58
-32.677307	-19.637569	-50.923264	49	49	59
-32.223049	-19.631788	-50.795029	48	47	58
-31.076052	-19.634150	-50.816124	48	47	59
-30.152372	-19.643763	-50.989998	49	47	56
-29.696096	-19.641323	-50.929672	47	46	57
-28.316587	-19.647284	-51.018532	49	46	57
-27.630566	-19.645882	-50.973915	50	47	61
-27.400490	-19.647009	-50.991428	49	46	59
-26.256283	-19.645897	-50.941971	48	46	58
-26.027822	-19.645313	-50.924732	47	48	58
-25.339876	-19.646267	-50.928013	47	46	58
-24.886526	-19.641678	-50.824020	47	45	58
-23.512217	-19.642422	-50.806900	48	46	58
-22.820707	-19.646812	-50.879959	51	49	58
-22.357939	-19.651217	-50.958675	48	47	59
-21.442343	-19.651064	-50.934097	47	49	58
-21.216896	-19.648087	-50.868244	48	48	60
-20.305157	-19.644966	-50.783382	49	49	60
-20.074312	-19.646620	-50.811604	49	48	62
-18.007113	-19.652672	-50.886181	51	49	59
-17.553207	-19.649837	-50.817905	49	49	61
-16.408337	-19.650547	-50.805454	49	45	57
-15.488841	-19.653709	-50.848213	49	46	55
-15.028675	-19.655546	-50.874767	49	48	58
-13.879552	-19.659136	-50.920822	47	45	54
-13.195681	-19.657534	-50.872177	43	45	52
-12.735075	-19.659580	-50.903004	46	44	54
-11.588951	-19.661148	-50.907978	48	46	56
-10.665157	-19.666656	-50.998360	46	44	56
-10.212348	-19.663809	-50.929779	49	46	57
-8.616537	-19.660892	-50.833023	49	48	58
-8.165652	-19.657217	-50.747681	51	49	60
-7.710178	-19.656260	-50.717514	51	49	60
-6.785715	-19.661999	-50.812569	50	50	62
-6.554120	-19.663670	-50.841133	50	51	63
-5.866735	-19.664558	-50.843044	52	52	63
-5.406360	-19.666296	-50.867611	54	51	61
-4.039842	-19.663738	-50.783501	56	55	65
-3.346640	-19.667692	-50.847664	61	54	70
-2.883945	-19.670567	-50.895252	58	56	69
-1.971303	-19.669807	-50.858398	56	55	67
-1.745375	-19.668520	-50.826912	57	55	68
-0.830876	-19.668793	-50.811020	55	54	64
-0.599671	-19.670122	-50.832626	55	54	66
1.004535	-19.672482	-50.842983	62	60	72
1.450024	-19.667170	-50.724487	60	58	69
1.905293	-19.666483	-50.699802	57	55	65
3.058634	-19.671715	-50.779160	63	59	71
3.967119	-19.669500	-50.712814	61	61	72
4.423599	-19.669424	-50.700558	70	64	79
5.575840	-19.674042	-50.767426	57	59	70
6.485991	-19.672726	-50.719299	51	48	61
6.938996	-19.671232	-50.678310	50	50	59
7.874241	-19.680420	-50.843204	47	48	58
8.103973	-19.681000	-50.849628	51	47	55
8.775931	-19.675732	-50.726704	49	47	56
9.234834	-19.676706	-50.735756	49	45	55
10.380716	-19.678581	-50.747013	58	59	69
11.673274	-19.737280	-51.910583	90	84	95
12.456299	-19.774336	-52.645916	91	87	98
12.952217	-19.788668	-52.925797	90	92	99
13.207893	-19.798681	-53.123459	91	90	98
14.017430	-19.844213	-54.030579	91	88	98
14.295004	-19.862057	-54.386993	91	88	101
14.841256	-19.894064	-55.025215	91	90	102
-45.270641	-20.028141	-54.458801	85	83	93
-44.578621	-20.019917	-54.277153	87	88	99
-43.659988	-19.992472	-53.703133	93	91	103
-43.204491	-19.964884	-53.136993	89	84	96
-42.068459	-19.904112	-51.886765	82	77	90
-40.695908	-19.885277	-51.475662	49	49	60
-40.008408	-19.881971	-51.393169	49	47	58
-39.549194	-19.882526	-51.393703	48	47	59
-38.403275	-19.878954	-51.295208	48	45	60
-37.484924	-19.880434	-51.303745	46	45	56
-37.025185	-19.882339	-51.331467	48	45	57
-34.046627	-19.876810	-51.151127	51	49	62
-31.527100	-19.873846	-51.033100	50	46	57
-29.226212	-19.885532	-51.215187	47	46	55
-28.306419	-19.889019	-51.264114	49	47	57
-26.929747	-19.890610	-51.264259	49	47	59
-24.186769	-19.883902	-51.065639	50	49	58
-19.365717	-19.894060	-51.158562	48	48	57
-18.906935	-19.894688	-51.160603	49	46	56
-17.077587	-19.892893	-51.082077	47	46	56
-14.548680	-19.900652	-51.179794	49	46	55
-12.025631	-19.904093	-51.190628	47	45	54
-9.750937	-19.895741	-50.969742	48	44	55
-4.694131	-19.909950	-51.138840	54	52	63
0.112508	-19.912443	-51.077713	61	57	71
2.624993	-19.911694	-51.004440	60	56	72
4.910532	-19.912037	-50.958431	61	60	74
9.941296	-19.914711	-50.895798	55	51	58
11.143865	-19.938787	-51.352814	83	79	92
-45.271057	-20.258663	-54.443722	84	82	94
-45.040058	-20.257942	-54.424057	84	82	95
-44.579037	-20.250492	-54.264938	87	88	102
-44.348953	-20.244888	-54.147903	87	89	104
-43.889343	-20.232527	-53.890884	91	88	101
-43.660305	-20.223364	-53.702927	92	90	100
-43.204590	-20.196510	-53.156944	89	85	97
-42.977684	-20.180609	-52.834652	87	83	92
-42.524059	-20.151974	-52.253208	80	80	89
-38.858124	-20.119551	-51.522797	47	46	57
-36.332417	-20.121592	-51.505760	46	45	55
-35.874104	-20.120308	-51.469681	49	46	55
-34.956417	-20.120050	-51.443588	49	48	59
-34.727127	-20.119791	-51.433174	49	47	58
-33.579674	-20.120394	-51.418980	50	47	63
-33.348949	-20.122494	-51.455566	50	47	62
-32.659733	-20.124001	-51.469879	48	49	59
-32.204155	-20.119244	-51.364571	50	50	59
-31.057501	-20.119221	-51.337925	48	46	56
-30.136673	-20.123940	-51.410992	46	45	56
-29.677502	-20.124594	-51.413528	50	46	55
-29.215508	-20.128756	-51.485989	48	46	55
-28.068838	-20.128736	-51.459396	48	46	57
-26.237267	-20.125769	-51.358353	48	47	57
-25.316664	-20.129597	-51.413658	47	47	56
-24.857517	-20.130274	-51.416649	48	46	58
-23.938047	-20.132772	-51.445492	48	45	56
-23.707594	-20.133949	-51.463692	49	45	57
-22.793646	-20.131207	-51.388103	50	47	57
-22.563499	-20.132093	-51.400520	51	48	60
-21.638844	-20.139164	-51.520409	51	46	58
-21.184153	-20.135891	-51.444714	47	48	57
-20.501215	-20.131990	-51.351341	50	48	59
-20.043741	-20.131353	-51.328178	50	49	62
-18.890039	-20.138008	-51.434509	48	47	56
-17.970621	-20.140299	-51.459183	47	47	56
-17.515755	-20.137701	-51.396988	48	48	57
-16.601120	-20.136454	-51.351212	49	48	57
-16.374483	-20.134668	-51.310421	45	49	55
-15.457877	-20.135069	-51.297447	47	47	57
-15.226311	-20.136906	-51.328781	49	47	55
-14.761704	-20.141556	-51.410934	48	45	56
-14.069514	-20.145073	-51.465240	47	46	56
-13.841028	-20.144682	-51.452236	45	47	54
-13.160483	-20.140261	-51.348476	46	46	56
-12.700909	-20.141336	-51.359444	47	44	53
-11.550220	-20.145117	-51.408520	46	46	56
-10.627721	-20.149275	-51.470387	47	45	55
-10.175134	-20.145929	-51.393303	48	46	56
-8.122828	-20.141239	-51.252861	50	49	58
-7.893635	-20.141445	-51.251747	50	48	59
-7.660999	-20.143660	-51.290569	49	47	59
-6.732935	-20.150894	-51.413643	49	48	60
-6.503763	-20.151052	-51.411575	50	50	60
-5.819831	-20.149544	-51.365871	51	49	60
-5.360012	-20.150715	-51.378708	52	51	60
-4.223694	-20.146498	-51.268627	54	51	64
-3.996684	-20.145555	-51.244667	55	51	62
-3.301916	-20.150034	-51.318081	55	54	66
-2.837253	-20.153734	-51.381256	57	54	67
-1.924262	-20.152622	-51.338230	56	56	69
-1.698494	-20.151102	-51.302727	58	55	68
-1.247290	-20.147947	-51.229507	57	57	72
-1.020668	-20.146908	-51.203609	59	56	73
-0.562511	-20.147305	-51.201050	60	57	71
0.601074	-20.157125	-51.370316	59	58	69
0.832134	-20.158247	-51.387390	61	59	73
1.511566	-20.155037	-51.307858	59	61	75
1.966613	-20.153948	-51.275719	60	60	72
2.194066	-20.153381	-51.259232	60	57	69
2.650764	-20.153107	-51.243320	64	57	71
3.345116	-20.156990	-51.304901	65	60	72
3.798788	-20.155348	-51.261757	63	58	72
4.478970	-20.152813	-51.195663	62	62	77
4.934811	-20.152235	-51.173721	62	61	74
5.620434	-20.152225	-51.157864	61	58	73
6.306857	-20.152590	-51.149441	61	57	66
6.769910	-20.155178	-51.190475	53	50	61
7.929943	-20.162525	-51.310486	50	46	55
8.153396	-20.160381	-51.262650	49	45	55
8.596810	-20.154705	-51.139297	50	51	57
9.291768	-20.158636	-51.201824	51	50	59
9.970018	-20.155718	-51.128120	51	48	55
10.420765	-20.153252	-51.068634	50	49	60
11.158917	-20.174343	-51.472378	76	74	89
11.696815	-20.206242	-52.096256	85	82	94
12.220793	-20.232210	-52.602177	89	86	91
12.981852	-20.260796	-53.154881	91	90	99
13.503947	-20.285177	-53.629196	93	90	96
13.769971	-20.299145	-53.901657	90	88	95
14.298687	-20.325510	-54.415394	91	90	96
15.073541	-20.357500	-55.035667	91	88	96
15.315301	-20.361816	-55.116226	91	86	97
-42.067642	-20.369669	-51.996040	72	69	81
-41.377701	-20.371162	-52.009975	51	51	59
-40.689144	-20.368191	-51.935738	47	46	57
-40.230446	-20.365576	-51.873775	48	46	58
-39.541840	-20.363861	-51.824356	46	47	56
-38.854183	-20.360140	-51.735352	46	46	55
-38.393753	-20.362862	-51.778721	47	44	55
-37.703587	-20.365528	-51.815823	48	45	55
-37.014767	-20.365137	-51.792542	48	44	57
-36.555660	-20.364756	-51.774666	48	44	55
-35.866688	-20.364931	-51.762589	49	45	56
-35.178112	-20.364483	-51.738220	47	47	58
-34.720165	-20.362318	-51.685104	49	47	58
-34.032146	-20.361263	-51.648758	47	48	60
-33.341232	-20.365047	-51.707939	48	48	58
-32.880016	-20.368372	-51.763176	48	47	58
-32.194214	-20.364134	-51.663994	50	49	58
-31.507111	-20.362179	-51.609882	49	47	57
-31.048040	-20.362402	-51.603928	50	48	58
-30.357424	-20.365467	-51.648899	48	45	59
-29.898603	-20.365358	-51.636387	48	46	54
-29.205900	-20.370874	-51.729710	46	46	55
-28.516050	-20.372627	-51.748795	48	48	56
-28.059757	-20.369507	-51.676846	48	46	57
-27.369579	-20.371700	-51.704620	47	46	58
-26.679337	-20.373894	-51.732372	50	45	56
-26.227016	-20.366817	-51.582413	48	46	57
-25.537291	-20.368614	-51.602341	48	45	55
-24.842527	-20.375505	-51.722748	49	46	57
-24.383440	-20.375822	-51.718651	49	48	57
-23.691410	-20.379629	-51.778229	50	47	58
-23.007681	-20.375437	-51.680027	49	47	57
-22.550531	-20.374035	-51.642002	48	47	59
-21.855751	-20.380259	-51.749268	50	47	58
-21.168306	-20.379755	-51.723801	48	47	59
-20.711613	-20.378075	-51.680305	50	46	59
-20.026907	-20.375412	-51.612305	48	46	55
-19.337494	-20.376816	-51.624474	48	46	57
-18.874138	-20.380789	-51.692471	49	46	55
-17.496233	-20.382679	-51.698723	47	48	59
-17.038237	-20.382315	-51.681206	47	46	57
-16.358536	-20.376369	-51.548447	44	48	54
-15.673615	-20.374542	-51.496922	47	47	56
-11.987220	-20.388702	-51.693420	48	48	58
-9.709594	-20.380402	-51.478100	47	47	61
-9.019136	-20.382544	-51.504814	48	47	58
-8.327289	-20.385479	-51.547192	48	47	59
-4.876964	-20.394360	-51.644760	55	51	64
-0.771488	-20.386782	-51.402500	61	58	73
-0.542049	-20.387112	-51.403824	63	59	75
2.448310	-20.395010	-51.492352	63	55	76
4.055393	-20.397686	-51.508980	63	59	69
4.281784	-20.396618	-51.482750	64	59	72
5.414497	-20.391788	-51.361843	60	61	75
5.643342	-20.391876	-51.358410	60	61	74
6.562334	-20.393824	-51.376137	55	51	62
6.795461	-20.395773	-51.409382	53	51	61
7.957568	-20.403828	-51.542244	49	49	57
8.854410	-20.396357	-51.374470	50	49	59
9.318377	-20.399176	-51.419678	52	50	60
9.998088	-20.396687	-51.355164	51	48	55
10.448192	-20.393837	-51.288742	48	47	56
14.041397	-20.546021	-54.213425	89	92	102
14.809951	-20.576132	-54.790810	91	88	98
-40.227226	-20.606178	-52.081066	48	46	57
-39.538506	-20.603897	-52.021111	46	46	57
-38.850288	-20.600817	-51.945526	45	46	55
-38.389149	-20.604790	-52.012966	48	44	54
-37.697994	-20.608942	-52.078815	47	46	53
-37.009747	-20.606468	-52.015099	47	44	58
-36.550266	-20.606398	-52.003471	47	44	54
-35.859898	-20.608625	-52.031700	48	44	55
-35.171623	-20.606869	-51.982006	47	47	56
-34.713917	-20.603821	-51.912182	51	46	57
-34.025448	-20.602945	-51.879719	48	48	61
-33.564877	-20.605076	-51.911167	47	47	57
-32.871960	-20.611341	-52.018295	48	47	59
-32.184162	-20.609478	-51.966537	50	48	58
-31.726835	-20.606611	-51.900265	50	48	56
-30.808176	-20.606983	-51.887085	52	48	60
-30.348024	-20.608318	-51.902950	49	46	60
-29.889246	-20.607817	-51.882938	48	46	55
-29.197376	-20.611860	-51.946613	48	45	57
-28.507452	-20.613317	-51.959778	49	47	54
-28.050892	-20.610229	-51.889206	48	46	56
-27.360777	-20.612001	-51.908493	47	46	58
-26.668262	-20.616407	-51.979248	51	45	57
-25.292599	-20.614780	-51.916794	49	47	55
-24.828680	-20.619860	-52.005848	49	47	58
-24.368647	-20.620848	-52.014912	49	48	57
-23.677080	-20.623798	-52.057243	49	47	60
-22.993393	-20.619123	-51.950550	49	46	59
-22.537384	-20.616381	-51.886761	49	47	59
-21.843840	-20.621197	-51.965523	49	48	59
-21.153393	-20.623066	-51.986710	50	48	62
-20.694580	-20.622988	-51.974979	50	48	60
-20.009893	-20.619905	-51.899426	49	47	60
-19.091114	-20.620949	-51.899368	47	49	57
-18.858980	-20.623215	-51.938526	48	47	56
-18.167591	-20.625818	-51.974072	48	46	58
-17.477831	-20.627075	-51.983303	48	45	58
-17.020388	-20.626059	-51.953239	47	46	57
-14.727762	-20.625574	-51.892696	47	44	54
-14.493260	-20.629297	-51.960335	46	46	54
-14.029001	-20.633268	-52.027657	46	45	54
-13.346864	-20.629215	-51.933174	45	46	56
-12.200787	-20.629036	-51.904160	46	47	55
-11.510660	-20.630615	-51.919693	48	48	56
-10.824964	-20.629322	-51.879112	46	45	54
-10.365903	-20.629734	-51.876968	47	46	54
-7.378305	-20.634768	-51.908897	53	49	62
-7.144851	-20.637287	-51.953003	51	49	59
-6.683391	-20.639093	-51.978062	50	48	61
-5.997610	-20.638100	-51.943359	52	50	59
-5.313872	-20.636024	-51.887524	54	49	65
-2.787002	-20.639750	-51.904114	59	56	71
-2.328518	-20.639931	-51.897461	60	56	68
11.451614	-20.659506	-51.973557	69	64	75
13.785425	-20.766779	-54.020042	91	89	100
14.043174	-20.777662	-54.227200	92	90	100
14.297974	-20.787323	-54.410522	91	90	99
15.058310	-20.814344	-54.922153	92	90	98
15.534953	-20.820522	-55.032398	90	86	97
-44.808994	-20.958488	-54.549683	87	84	95
-44.349106	-20.943356	-54.246365	88	82	100
-43.433384	-20.901613	-53.417423	84	81	93
-43.205730	-20.887457	-53.138084	82	79	89
-42.978519	-20.872530	-52.843891	78	76	85
-42.294418	-20.844959	-52.294601	63	61	69
-42.064556	-20.844418	-52.279053	56	54	62
-41.142883	-20.850479	-52.376251	49	47	53
-40.683098	-20.849703	-52.351120	45	45	55
-39.994598	-20.845348	-52.251610	48	45	54
-39.535122	-20.844261	-52.220455	47	45	57
-38.615692	-20.843821	-52.191711	46	44	53
-38.384571	-20.846882	-52.245941	47	43	55
-37.463196	-20.850962	-52.304733	49	46	56
-37.004681	-20.848125	-52.239681	47	46	59
-36.314247	-20.849821	-52.257393	48	45	56
-35.853680	-20.851463	-52.279087	47	45	56
-35.165810	-20.848248	-52.201645	49	48	57
-34.707916	-20.845108	-52.130737	50	47	56
-33.788235	-20.846130	-52.130356	48	47	58
-33.557621	-20.847546	-52.152687	48	46	57
-32.632984	-20.856285	-52.301708	48	47	59
-32.174042	-20.855230	-52.271175	49	46	57
-31.489243	-20.848568	-52.127033	50	46	56
-31.029860	-20.848505	-52.115715	50	46	58
-30.108809	-20.851561	-52.154671	50	45	56
-29.879328	-20.851263	-52.143860	48	45	55
-28.958769	-20.853554	-52.168015	50	46	57
-28.498646	-20.854475	-52.175777	48	46	54
-27.813456	-20.849890	-52.071857	49	46	57
-27.351622	-20.852915	-52.120304	49	46	59
-26.430977	-20.855295	-52.146225	48	49	61
-26.205143	-20.851099	-52.059944	49	47	59
-25.281137	-20.857140	-52.156658	49	48	56
-24.815876	-20.863411	-52.267971	49	47	57
-24.124525	-20.865816	-52.299355	49	47	57
-23.664394	-20.866613	-52.304714	48	47	58
-22.751787	-20.860889	-52.173729	50	46	58
-22.523731	-20.859447	-52.140781	50	47	59
-21.600370	-20.864168	-52.211945	50	47	59
-21.139345	-20.865856	-52.234531	48	49	63
-20.449392	-20.866940	-52.240356	51	47	60
-19.993856	-20.863838	-52.170269	51	47	63
-19.076309	-20.863405	-52.141697	47	48	56
-18.843994	-20.865740	-52.181839	49	47	58
-17.922871	-20.868246	-52.210129	49	47	54
-17.692022	-20.869314	-52.225769	49	47	57
-16.779314	-20.865213	-52.126259	46	44	55
-16.327799	-20.859594	-52.007427	47	46	54
-15.409254	-20.860384	-52.002548	44	46	54
-15.177655	-20.862032	-52.029400	46	46	54
-14.239863	-20.876616	-52.291340	46	45	56
-14.008522	-20.877939	-52.311932	47	44	54
-13.102919	-20.869415	-52.126869	45	45	54
-12.648558	-20.866413	-52.058701	47	45	54
-11.952333	-20.871939	-52.150467	48	46	57
-11.491972	-20.873020	-52.161285	48	50	59
-10.577528	-20.871094	-52.103867	47	48	61
-10.349087	-20.870529	-52.087891	46	46	57
-9.433528	-20.869501	-52.047878	48	48	60
-8.966706	-20.874640	-52.137157	49	48	60
-8.279140	-20.874434	-52.118076	50	49	62
-7.822862	-20.873056	-52.081360	51	47	61
-6.893096	-20.880581	-52.206692	49	48	59
-6.661645	-20.881838	-52.225994	49	48	60
-5.747289	-20.880213	-52.174377	50	49	59
-5.293358	-20.877605	-52.113903	51	49	61
-4.611769	-20.874214	-52.033211	56	52	67
-4.157040	-20.872217	-51.984505	54	54	64
-3.226438	-20.879827	-52.111515	55	53	63
-2.992489	-20.882391	-52.156029	60	54	68
-2.076322	-20.882063	-52.129555	61	58	67
-1.624595	-20.878605	-52.052605	62	58	74
-0.944766	-20.874720	-51.962402	59	59	71
-0.487725	-20.874159	-51.941471	63	63	79
0.444947	-20.882408	-52.080841	60	59	75
0.675587	-20.883173	-52.090561	59	56	70
1.593809	-20.884069	-52.087749	61	59	73
2.050698	-20.883448	-52.065666	69	62	81
2.723052	-20.876358	-51.913528	62	60	74
3.184458	-20.877991	-51.935013	67	62	82
4.113436	-20.884075	-52.032505	64	60	83
4.339983	-20.882933	-52.005363	61	59	74
5.236467	-20.874067	-51.813892	63	62	78
5.695792	-20.874769	-51.817406	68	60	79
6.384385	-20.875647	-51.819275	68	62	80
6.846820	-20.877726	-51.849392	65	61	72
7.081526	-20.880293	-51.893970	60	54	65
7.787061	-20.888502	-52.037506	56	52	62
8.016068	-20.888525	-52.032940	53	51	62
8.919889	-20.883448	-51.914700	49	49	60
9.144262	-20.881540	-51.872784	51	52	62
9.367124	-20.879009	-51.818863	49	51	59
10.044925	-20.875408	-51.734165	51	49	60
10.504875	-20.876417	-51.743614	50	46	55
11.467249	-20.895760	-52.097237	57	56	65
11.709013	-20.900984	-52.193180	69	68	79
12.718416	-20.938480	-52.897545	89	85	94
12.987210	-20.954247	-53.197128	93	86	97
15.068542	-21.049599	-54.998974	89	89	99
-45.271347	-21.192200	-54.605392	86	82	98
-43.890541	-21.156944	-53.898727	84	80	92
-42.292183	-21.085716	-52.496826	56	54	64
-42.061924	-21.086351	-52.504013	51	50	59
-41.139946	-21.091982	-52.592087	48	46	55
-40.679951	-21.091162	-52.566360	45	45	53
-37.917919	-21.094076	-52.562363	50	46	61
-37.458237	-21.093130	-52.534233	49	47	59
-36.077744	-21.093973	-52.520466	48	46	56
-35.847721	-21.094023	-52.516434	47	47	57
-32.623985	-21.101057	-52.581490	48	46	58
-32.164024	-21.101122	-52.572773	48	46	57
-24.572432	-21.108099	-52.541946	48	46	56
-24.111940	-21.109020	-52.549633	48	46	56
-23.652939	-21.108442	-52.528576	48	47	57
-14.219955	-21.121246	-52.569649	47	45	56
-13.988668	-21.122442	-52.587593	48	45	53
5.040175	-21.118958	-52.107792	65	67	82
5.496177	-21.118006	-52.079636	65	66	84
6.185835	-21.119186	-52.087334	67	62	79
9.170937	-21.122808	-52.092056	50	48	60
9.838019	-21.114433	-51.916836	49	47	58
10.534053	-21.118393	-51.977753	48	45	54
-45.271816	-21.422361	-54.582550	86	82	98
-45.040565	-21.422956	-54.588932	87	83	98
-44.349434	-21.407717	-54.284294	84	83	95
-43.890511	-21.389961	-53.936848	81	78	88
-43.433044	-21.368195	-53.513107	75	73	81
-39.987747	-21.328152	-52.677822	45	46	55
-39.527184	-21.328941	-52.682983	46	45	58
-38.837437	-21.327196	-52.635033	48	45	56
-37.223907	-21.333784	-52.725723	48	48	58
-35.154186	-21.331636	-52.640568	49	48	58
-34.695011	-21.329981	-52.599247	50	46	57
-33.773338	-21.332829	-52.633633	49	46	57
-33.542789	-21.333735	-52.645916	48	45	58
-31.471109	-21.336370	-52.651657	49	48	55
-31.012020	-21.335123	-52.618118	46	46	55
-30.088825	-21.339792	-52.687115	50	46	55
-29.859129	-21.339418	-52.675095	47	46	54
-28.939674	-21.338961	-52.646679	48	46	57
-28.479095	-21.339867	-52.654037	49	47	58
-27.792044	-21.336576	-52.576775	47	44	56
-27.330568	-21.338629	-52.605915	49	47	57
-26.410887	-21.338844	-52.590305	49	45	54
-26.183487	-21.336077	-52.532791	48	46	54
-25.491825	-21.338482	-52.563705	50	47	57
-22.953289	-21.349070	-52.710686	49	47	57
-22.495743	-21.346991	-52.661335	52	49	60
-21.575426	-21.347986	-52.660534	49	46	58
-21.343702	-21.349758	-52.689274	49	47	57
-20.423964	-21.350222	-52.678375	49	47	57
-19.966448	-21.348410	-52.634125	48	45	57
-19.277802	-21.347876	-52.609219	48	47	54
-18.815350	-21.350391	-52.647167	49	43	54
-18.124748	-21.351528	-52.653957	47	48	60
-17.661839	-21.354321	-52.697170	48	48	57
-16.750484	-21.348318	-52.563473	48	48	58
-15.602800	-21.347860	-52.530209	48	45	53
-15.139502	-21.350893	-52.577923	47	44	54
-14.435424	-21.362030	-52.774628	47	45	56
-13.970110	-21.366278	-52.845428	47	45	55
-13.069041	-21.353624	-52.585503	47	47	55
-11.922044	-21.352936	-52.547848	48	47	60
-11.457823	-21.356365	-52.603107	51	47	55
-10.538527	-21.356998	-52.595470	50	47	58
-10.311440	-21.355371	-52.559658	48	49	59
-9.386051	-21.359989	-52.627659	48	46	58
-9.152391	-21.362591	-52.672104	47	47	58
-8.237988	-21.360170	-52.606506	51	48	58
-8.010915	-21.358650	-52.572716	51	50	64
-7.783046	-21.357637	-52.548603	51	48	60
-6.857731	-21.362053	-52.612732	49	48	58
-6.623690	-21.364756	-52.659107	49	47	56
-5.708348	-21.363150	-52.608959	51	50	60
-5.483495	-21.360455	-52.552898	53	51	61
-5.257602	-21.358393	-52.508858	53	51	60
-3.406095	-21.367378	-52.640060	55	55	63
-2.936725	-21.373110	-52.738968	56	53	62
-2.025213	-21.369631	-52.653309	57	54	64
-1.799547	-21.367609	-52.610012	57	54	65
-0.880588	-21.368298	-52.603424	56	55	64
-0.420028	-21.369213	-52.610977	59	60	73
0.275286	-21.372873	-52.665661	60	57	69
0.733963	-21.372803	-52.654503	58	55	63
1.647341	-21.370726	-52.595425	60	59	77
1.875198	-21.369984	-52.576447	61	59	77
2.324053	-21.365162	-52.475136	63	57	67
2.547744	-21.362429	-52.418358	64	58	70
3.235984	-21.362677	-52.408321	67	65	89
3.702689	-21.366621	-52.473343	66	65	83
4.165978	-21.368889	-52.506565	72	63	83
4.393820	-21.368219	-52.488934	68	65	80
4.619715	-21.366642	-52.454105	70	62	80
5.072979	-21.364225	-52.398438	66	63	82
5.530222	-21.363701	-52.378654	69	66	80
6.218589	-21.364092	-52.371368	65	64	78
6.902379	-21.362440	-52.325291	62	58	73
7.365564	-21.364649	-52.357361	64	59	77
8.067833	-21.371220	-52.467285	53	51	60
8.751537	-21.369566	-52.421181	51	50	60
9.196376	-21.363758	-52.301201	49	51	57
10.563305	-21.360632	-52.212482	48	44	56
11.036240	-21.366892	-52.321377	48	46	55
11.739097	-21.373409	-52.430267	54	50	57
12.207778	-21.377731	-52.502415	76	67	79
12.981402	-21.412815	-53.152981	90	88	94
13.506397	-21.439512	-53.649410	92	88	99
13.765554	-21.451372	-53.869411	90	88	99
14.285349	-21.475431	-54.315792	90	89	100
14.553676	-21.490685	-54.600094	90	88	99
14.826506	-21.507612	-54.916149	91	88	97
15.092261	-21.521627	-55.176968	92	88	96
15.340055	-21.528479	-55.301952	90	88	96
-43.204292	-21.591251	-53.361923	68	64	75
-42.747166	-21.573164	-53.011490	57	54	65
-42.517578	-21.569765	-52.942570	53	51	62
-42.055984	-21.573624	-53.005516	50	48	59
-41.363579	-21.578665	-53.085846	46	45	56
-40.672958	-21.577057	-53.040936	46	46	54
-40.213650	-21.572794	-52.950912	46	45	58
-39.522427	-21.573889	-52.956924	47	44	56
-38.832371	-21.571861	-52.904129	46	46	57
-38.370926	-21.574324	-52.940762	46	45	57
-37.678745	-21.577774	-52.991108	49	46	58
-37.218941	-21.576151	-52.950809	49	48	59
-36.527424	-21.577942	-52.969925	51	47	58
-35.836002	-21.579458	-52.983852	50	48	60
-35.377171	-21.576315	-52.914951	49	48	59
-34.688038	-21.573732	-52.851715	49	46	56
-33.996117	-21.576410	-52.887527	50	48	59
-33.535118	-21.577635	-52.900826	48	46	57
-32.838833	-21.587202	-53.066380	49	46	59
-32.606232	-21.591043	-53.133823	51	48	58
-32.145020	-21.592196	-53.145771	50	47	60
-31.916719	-21.589214	-53.084789	49	47	59
-31.689201	-21.585146	-53.003300	50	47	58
-31.002464	-21.579731	-52.886761	47	45	56
-30.309389	-21.583681	-52.946518	50	48	59
-29.849537	-21.583199	-52.927704	47	46	56
-29.159622	-21.582760	-52.904854	49	45	57
-28.468210	-21.584326	-52.919708	50	46	56
-28.008942	-21.583277	-52.890244	47	46	55
-27.319155	-21.582909	-52.868717	49	46	56
-26.629904	-21.582010	-52.837223	49	45	55
-26.173117	-21.578398	-52.759480	48	45	54
-25.479725	-21.582352	-52.819294	51	48	58
-25.013056	-21.589649	-52.946934	48	47	56
-24.319397	-21.593470	-53.004246	48	45	55
-23.632288	-21.590462	-52.933044	47	46	56
-23.172283	-21.590513	-52.924263	48	46	56
-22.482801	-21.590124	-52.902344	50	47	59
