4.9231320309 -0.3042009240 254.9993192410
4.9300434487 -0.7381289545 254.9955516531
4.9334715088 -0.9554242725 254.9910565168
4.9404809279 -1.3881995283 254.9963956331
4.9440460287 -1.6038633035 255.0046852536
4.9512342093 -2.0344689123 255.0266590677
4.9548097134 -2.2499708283 255.0359593771
4.9583179440 -2.4662803410 255.0389602898
4.9649622055 -2.9034061289 255.0103550548
4.9681860993 -3.1232005551 254.9867988677
4.9714869736 -3.3420727499 254.9704278489
4.9749213552 -3.5593221226 254.9664396125
4.9785040347 -3.7747156983 254.9764727134
4.9821566120 -3.9892343079 254.9929970862
4.9893242895 -4.4199330670 255.0132701285
4.9927273151 -4.6375335239 255.0065385979
4.9993123712 -5.0756041446 254.9720301723
5.0026505917 -5.2940770372 254.9590783468
5.0061034654 -5.5110910822 254.9569056477
5.0133579720 -5.9405996237 254.9854473680
5.0170450153 -6.1545398497 255.0054526392
5.0241694450 -6.5856397668 255.0218455113
5.0276049352 -6.8028417457 255.0180811912
5.0310260630 -7.0202422829 255.0129242577
5.0378589939 -7.4551759624 255.0017406486
5.0412433218 -7.6730819321 254.9930897011
5.0446385312 -7.8908490087 254.9854674802
5.0480767412 -8.1080456228 254.9818971414
5.0515293502 -8.3250426564 254.9797324142
5.0549379558 -8.5426403826 254.9733888596
5.0616816332 -8.9788698357 254.9536327608
5.0652198248 -9.1947140315 254.9595217788
5.0727539951 -9.6199725450 255.0152733110
5.0765060530 -9.8327638754 255.0417504039
5.0834066758 -10.2667435426 255.0371009406
5.0865537712 -10.4880384445 255.0056555704
5.0896340553 -10.7103131802 254.9677780961
5.0961242879 -11.1502686769 254.9235302038
5.0996693233 -11.3659633785 254.9302449450
5.1071127256 -11.7922133222 254.9776194731
5.1108144885 -12.0055801705 254.9994767170
5.1144029889 -12.2205821450 255.0103881300
5.1207613018 -12.6625872455 254.9533061771
5.1225964767 -12.9035279038 254.7947547231
5.1222669201 -13.1768151742 254.4265247130
5.0999839480 -15.1346270938 250.2321304016
4.3972725790 15.3481740584 250.6512899038
4.4188073277 14.7750648754 251.5800678915
4.4751666848 13.7429410081 254.5754140956
4.4909605441 13.1348404044 255.0298352824
4.4945713738 12.9191203710 255.0411618397
4.5013852020 12.4843849850 255.0291139609
4.5115163430 11.8314961133 255.0033257872
4.5222474993 11.1836030429 255.0286820528
4.5289809578 10.7481347631 255.0096706968
4.5323051617 10.5300284641 254.9965782987
4.5391618579 10.0955706043 254.9880418003
4.5427094139 9.8793776074 254.9939903790
4.5498244180 9.4471979174 255.0076771173
4.5599584876 8.7941702671 254.9820071709
4.5702837559 8.1427977698 254.9725947504
4.5777383641 7.7138186775 255.0157658762
4.5815186240 7.4998510758 255.0419048684
4.5887508433 7.0689435766 255.0659630387
4.5921308166 6.8512879789 255.0575586818
4.5987664169 6.4147656769 255.0298874559
4.6086247251 5.7589643010 254.9800541768
4.6194959836 5.1129429676 255.0182597745
4.6302673923 4.4660738552 255.0479541579
4.6370017393 4.0303982659 255.0287651524
4.6404147680 3.8130078431 255.0231502307
4.6472040882 3.3778410380 255.0087021706
4.6505657554 3.1599133222 254.9986113402
4.6574479506 2.7256624938 254.9922504020
4.6680704677 2.0774235804 255.0090976278
4.6786733177 1.4290404997 255.0242301658
4.6852740667 0.9917887714 254.9930703024
4.6884912598 0.7722453314 254.9701577187
4.6952485956 0.3366020887 254.9527695802
4.6988126394 0.1207982898 254.9604604394
4.7058465211 -0.3118237360 254.9675032080
4.7161654789 -0.9633122745 254.9575320073
4.7270393354 -1.6085175170 254.9969062045
4.7379327018 -2.2533451927 255.0382176916
4.7448289128 -2.6873965982 255.0331703659
4.7480919635 -2.9065889499 255.0140740269
4.7546530514 -3.3446057517 254.9790836038
4.7581105631 -3.5615590431 254.9773167851
4.7652815676 -3.9924040387 254.9968180568
4.7758145483 -4.6412638437 255.0061766460
4.7857647306 -5.2972257268 254.9630313278
4.7928961618 -5.7284530308 254.9791303865
4.7966158677 -5.9421455413 255.0010431155
4.8038685872 -6.3717784710 255.0281620425
4.8072651437 -6.5894466948 255.0210356512
4.8138789716 -7.0270934232 254.9903894169
4.8241753980 -7.6788576551 254.9784247634
4.8346671336 -8.3281222173 254.9841271824
4.8414698645 -8.7634524360 254.9705243556
4.8448188730 -8.9818179107 254.9589243145
4.8519587974 -9.4127324678 254.9759708103
4.8557433116 -9.6253023516 255.0041964054
4.8630568758 -10.0537913400 255.0372491745
4.8663964614 -10.2722723398 255.0248273627
4.8726799886 -10.7146535458 254.9636043253
4.8829274524 -11.3671792740 254.9470371369
4.8939951545 -12.0083456870 255.0058697875
4.9008603297 -12.4428624569 254.9979163608
4.9036881263 -12.6686379095 254.9381477285
4.1847807492 15.1480246242 250.9021994207
4.1918985905 14.9554132924 251.1945435315
4.2095812897 14.5965095514 252.0600770411
4.2198055373 14.4280053367 252.6060053811
4.2303050737 14.2621479789 253.1749772622
4.2404706553 14.0944113428 253.7175184940
4.2498210015 13.9211253832 254.1943959863
4.2644895690 13.5453921998 254.8215615378
4.2696405721 13.3413028308 254.9577869712
4.2809430865 12.6975482792 255.0284032081
4.2912592876 12.0462211406 255.0186877443
4.3018902722 11.3974098810 255.0346849091
4.3295404434 9.6616726370 255.0201055867
4.3398420113 9.0101901329 255.0091134377
4.3496101473 8.3540384673 254.9539630820
4.3530611020 8.1369891748 254.9516624501
4.3566929125 7.9215266817 254.9642984910
4.3787683337 6.6316908929 255.0644437502
4.3886749620 5.9766182650 255.0205920790
4.3990358688 5.3256638965 255.0145088256
4.4100578559 4.6809843896 255.0637366027
4.4369496521 2.9380222224 254.9857552046
4.4473731641 2.2876485170 254.9848637459
4.4580576137 1.6399448888 255.0060758386
4.4717054705 0.7702683958 254.9837903685
4.4853438678 -0.0995725893 254.9607082122
4.4953878516 -0.7539932924 254.9275299574
4.5063236353 -1.3988388780 254.9702953133
4.5136615220 -1.8281292649 255.0029363532
4.5344775285 -3.1289558876 254.9989116782
4.5413197728 -3.5636578784 254.9892476478
4.5448607690 -3.7796467289 254.9947238984
4.5555128499 -4.4272315134 255.0137228995
4.5655872038 -5.0814896838 254.9829802637
4.5761741367 -5.7297778564 254.9963836874
4.5934697148 -6.8143383341 254.9886532179
4.6034938646 -7.4694010263 254.9533091263
4.6141876330 -8.1162706521 254.9761747647
4.6387150252 -9.6306880779 254.9927426653
4.6525733787 -10.4980160710 254.9884904678
4.6625204345 -11.1543497471 254.9461458092
4.6733487823 -11.7991428456 254.9811614439
4.6769496246 -12.0141616002 254.9920838344
4.6879794456 -12.9196941177 254.7380044995
4.6869650199 -13.1974529163 254.3408887291
4.6829541327 -13.5165164709 253.6781506851
4.6700541648 -14.2239952133 251.9177476137
4.6650775905 -14.5589859536 251.1663790474
4.6624726574 -14.8620644019 250.6242759168
4.6616474515 -15.1410610694 250.2394396086
3.9596609666 15.3451491191 250.6978306342
3.9660214244 15.1460052760 250.9196494038
3.9732052303 14.9528599943 251.2059360952
3.9815650525 14.7683019892 251.5843480741
3.9911423849 14.5927756136 252.0582894388
4.0015844709 14.4239185307 252.6003124377
4.0123519432 14.2579842450 253.1684613264
4.0227887062 14.0902898442 253.7114513604
4.0323608377 13.9169210947 254.1874470621
4.0405744543 13.7341653842 254.5576094710
4.0472299334 13.5403912046 254.8061560607
4.0523954298 13.3359011402 254.9382010794
4.0565523029 13.1240784694 254.9913210925
4.0602214492 12.9086732631 255.0061829021
4.0637968734 12.6925833591 255.0137222038
4.0673722729 12.4765075440 255.0213144819
4.0745011978 12.0442106209 255.0347303608
4.0780646219 11.8280609226 255.0413048054
4.0850202424 11.3944756378 255.0411624814
4.0883130753 11.1762412071 255.0264934181
4.0915575904 10.9576055064 255.0079272057
4.0983241000 10.5224932140 254.9927991401
4.1018627062 10.3061629484 254.9974709788
4.1090656567 9.8745360617 255.0167904585
4.1126966640 9.6589866296 255.0288716465
4.1162890029 9.4431303973 255.0378434909
4.1230972334 9.0083501535 255.0259427139
4.1262940782 8.7892393205 255.0035634774
4.1326345283 8.3504934704 254.9544130820
4.1359898400 8.1326450676 254.9445691444
4.1395686830 7.9166718117 254.9524572350
4.1433684588 7.7025965861 254.9780303249
4.1473135867 7.4897889976 255.0151797496
4.1512542609 7.2769817682 255.0519841888
4.1586149886 6.8469840385 255.0842533446
4.1620270663 6.6296761995 255.0789952887
4.1686546294 6.1933029739 255.0526538537
4.1719472421 5.9749050888 255.0377260694
4.1753060999 5.7570891870 255.0281480639
4.1824323169 5.3251035608 255.0417424213
4.1861114796 5.1101757041 255.0578873824
4.1932523752 4.6783843433 255.0726933572
4.1966573918 4.4609853312 255.0668014809
4.2000175004 4.2431635067 255.0572584807
4.2068705122 3.8087409580 255.0489449392
4.2102954032 3.5915160158 255.0447036978
4.2167602657 3.1533977679 255.0049468015
4.2199342276 2.9337639283 254.9804105367
4.2232314270 2.7152654261 254.9656789081
4.2301573629 2.2814286557 254.9631311153
4.2337010627 2.0652914756 254.9683936072
4.2408917474 1.6340538811 254.9873694659
4.2445179692 1.4187522349 254.9993452472
4.2480909979 1.2029354874 255.0069780907
4.2549572823 0.7685658123 254.9996654132
4.2583190228 0.5506590578 254.9901565525
4.2651246231 0.1156601633 254.9779071584
4.2684640808 -0.1024919701 254.9665907936
4.2717114889 -0.3215992339 254.9476973757
4.2782935714 -0.7589583257 254.9171227803
4.2818688032 -0.9747407158 254.9249475576
4.2893490921 -1.4028248864 254.9677280355
4.2930202341 -1.6175453869 254.9835426705
4.2966196468 -1.8330038549 254.9934788121
4.3038190294 -2.2638766451 255.0134300180
4.3073844484 -2.4796663513 255.0205538416
4.3142033221 -2.9145462996 255.0093431985
4.3175494739 -3.1326785185 254.9985137765
4.3244433091 -3.5667861133 254.9933805563
4.3279530170 -3.7831511970 254.9960245547
4.3314720094 -3.9994139045 254.9994023460
4.3385889346 -4.4310430380 255.0127481273
4.3420686564 -4.6477247964 255.0128807690
4.3487150505 -5.0845875123 254.9873141041
4.3521114814 -5.3022120886 254.9805786423
4.3556833218 -5.5178504603 254.9884351866
4.3593769908 -5.7321081304 255.0063089538
4.3630808425 -5.9462282019 255.0250394509
4.3666777354 -6.1615436948 255.0349723574
4.3732733830 -6.5990473969 255.0051199613
4.3763305666 -6.8206045110 254.9702183809
4.3794361446 -7.0416473136 254.9392277553
4.3862608360 -7.4766348170 254.9282392749
4.3898986699 -7.6914689226 254.9415992189
4.3971897093 -8.1209157871 254.9695706754
4.4007824388 -8.3362438934 254.9791736175
4.4042923561 -8.5525478542 254.9818845107
4.4110272641 -8.9885862349 254.9634591338
4.4144419644 -9.2060450633 254.9581953262
4.4217283414 -9.6353953701 254.9859356339
4.4254233870 -9.8494012770 255.0042359673
4.4323877227 -10.2826177221 255.0050899836
4.4356726327 -10.5016769120 254.9889003544
4.4389405460 -10.7209617506 254.9712921691
4.4456928759 -11.1568705921 254.9542235108
4.4491769638 -11.3734806310 254.9547430151
4.4562189810 -11.8057328313 254.9621711185
4.4597960931 -12.0211431915 254.9705682548
4.4633593600 -12.2367146354 254.9778527141
4.4695142307 -12.6803868615 254.9101283640
4.4707930286 -12.9255918868 254.7239082708
4.4694448793 -13.2051940940 254.3148739356
4.4649370763 -13.5265606230 253.6373027665
4.4581088236 -13.8791425133 252.7620068685
3.7630694361 14.7657844978 251.5960607559
3.8429901221 12.9032660814 254.9867679640
3.8502959176 12.4721331430 255.0128802358
3.8647717091 11.6090544147 255.0550836396
3.8712579005 11.1719379022 255.0191139724
3.8812933363 10.5184691797 254.9883531428
3.8884490821 10.0863732173 255.0032805802
3.8920308720 9.8703647418 255.0110087174
3.9029261001 9.2235991706 255.0458574594
3.9095803076 8.7876294326 255.0225472512
3.9264856283 7.6997226334 254.9848078500
3.9304279332 7.4867412785 255.0203195683
3.9417736942 6.8440090957 255.0900198599
3.9484399323 6.4080880868 255.0676355273
3.9517300739 6.1897387091 255.0530366733
3.9620992274 5.5389158898 255.0478001682
3.9693970000 5.1083760568 255.0740014558
3.9864660485 4.0218428740 255.0488471411
3.9899896553 3.8055053499 255.0522970425
3.9999697454 3.1511608568 255.0168418999
4.0061640420 2.7106695657 254.9575040076
4.0200651290 1.8434240656 254.9561545198
4.0273707378 1.4131668917 254.9832592984
4.0381506351 0.7661809777 255.0099588166
4.0449710304 0.3313908904 254.9992480179
4.0483527696 0.1137116321 254.9916427024
4.0580465678 -0.5438157464 254.9332879866
4.0650225574 -0.9771681298 254.9346831934
4.0831237824 -2.0538180770 254.9901834232
4.0866476072 -2.2700854109 254.9937402042
4.0971209434 -2.9198688634 254.9967025632
4.1040163243 -3.3539480190 254.9918182903
4.1074962316 -3.5706609205 254.9918649838
4.1180311654 -4.2197541358 254.9997599508
4.1250915995 -4.6520626965 255.0080050826
4.1424455307 -5.7359864625 255.0049253236
4.1461140901 -5.9505970298 255.0201067742
4.1561557560 -6.6050117171 254.9887855376
4.1622470208 -7.0481004031 254.9195424349
4.1765038024 -7.9111351399 254.9469125250
4.1837782993 -8.3409224505 254.9723786096
4.1940911917 -8.9924258269 254.9625684613
4.2011082309 -9.4251056112 254.9675003778
4.2048147573 -9.6391202011 254.9858786791
4.2155539212 -10.2855472048 255.0104483855
4.2221435261 -10.7232595290 254.9809063759
4.2356504829 -11.5949020426 254.9480487620
4.2427020621 -12.0271075365 254.9558057487
4.2526619498 -12.6830356889 254.9172613788
3.5218289493 15.3401954848 250.7226303745
3.5284356966 15.1412511821 250.9465357966
3.5359647796 14.9485465078 251.2375793412
3.5656005871 14.4189437319 252.6240375043
3.5878248733 14.0849029069 253.7303308362
3.5977790360 13.9109803100 254.2001908353
3.6062117728 13.7272619131 254.5599128788
3.6129565867 13.5324396049 254.7972407826
3.6181329275 13.3271232273 254.9205490867
3.6222523131 13.1146670224 254.9670912773
3.6294954933 12.6829556483 254.9875417460
3.6408199667 12.0387482039 255.0519626063
3.6510741319 11.3870525173 255.0383159941
3.6573646548 10.9485909087 254.9891803186
3.6784538740 9.6492974296 255.0042420659
3.6895195095 9.0036982191 255.0502562081
3.6992140985 8.3476035255 254.9952160621
3.7025333349 8.1295561394 254.9833315958
3.7175555044 7.2711505600 255.0646890948
3.7380872685 5.9678261746 255.0389706735
3.7488956598 5.3206408759 255.0663844227
3.7595421703 4.6721951184 255.0818878901
3.7628213005 4.4537649871 255.0669492173
3.7767500185 3.5869385268 255.0677389165
3.7862603134 2.9286016892 254.9982572424
3.7957704427 2.2700434042 254.9285259468
3.8064698748 1.6220320702 254.9479704876
3.8101545382 1.4071170225 254.9633343959
3.8138851183 1.1926435468 254.9821913899
3.8347950330 -0.1075589036 254.9845653166
3.8447119671 -0.7627613122 254.9450128690
3.8558916092 -1.4059037687 255.0010534186
3.8594245619 -1.6221090739 255.0051380604
3.8627966733 -1.8398743416 254.9970239275
3.8695550817 -2.2753000493 254.9817544325
3.8730400101 -2.4919711741 254.9822190376
3.8800456894 -2.9249725466 254.9857215392
3.8835444920 -3.1415017101 254.9872258532
3.8905451920 -3.5745307431 254.9903794196
3.8940193121 -3.7913004479 254.9900012305
3.8975027444 -4.0079758217 254.9903298477
3.9045975079 -4.4400132131 255.0007393927
3.9080679301 -4.6568134671 255.0000672685
3.9114127972 -4.8749057541 254.9898137891
3.9147346025 -5.0932483810 254.9777848177
3.9181690959 -5.3104348742 254.9743244782
3.9217684699 -5.5258965567 254.9835226180
3.9254441656 -5.7405452205 254.9985771029
3.9290732818 -5.9556635324 255.0101015527
3.9325620585 -6.1722520728 255.0108750031
3.9390063178 -6.6111202860 254.9714174836
3.9420444723 -6.8325691811 254.9374388060
3.9451446351 -7.0533689601 254.9083188046
3.9520451010 -7.4874844697 254.9037795764
3.9557674121 -7.7015752427 254.9225029462
3.9631521465 -8.1303534538 254.9553389133
3.9667457846 -8.3457967826 254.9642000421
3.9702770675 -8.5619262371 254.9682035597
3.9771375289 -8.9964073298 254.9607060960
3.9806089749 -9.2132015150 254.9600649574
3.9879609722 -9.6421511119 254.9905793317
3.9917070912 -9.8557910071 255.0113788491
3.9987954865 -10.2876338492 255.0215600842
4.0020904435 -10.5063996170 255.0073229289
4.0053159330 -10.7259846071 254.9876454149
4.0118899284 -11.1637886805 254.9578136250
4.0152620989 -11.3817273583 254.9494657874
4.0221390141 -11.8160531260 254.9432020009
4.0257549406 -12.0311279930 254.9539094227
4.0294637239 -12.2450932746 254.9718396253
4.0359623241 -12.6839136323 254.9359998340
4.0371289982 -12.9282976515 254.7550928518
4.0352353750 -13.2096641077 254.3345377022
4.0135460055 -14.2513324199 251.8143654873
3.3366952660 14.5872662874 252.1156958696
3.3594006467 14.2516952553 253.2165537702
3.3706070481 14.0838554322 253.7576308283
3.3807762592 13.9098506496 254.2264360619
3.3893458703 13.7258950513 254.5834629153
3.3961648279 13.5308050053 254.8177959396
3.4013619890 13.3252373912 254.9383415604
3.4054526864 13.1124334714 254.9811214295
3.4090171070 12.8961585159 254.9869330773
3.4125742368 12.6798456678 254.9922788158
3.4163145731 12.4647741922 255.0104857896
3.4239400955 12.0356958544 255.0572694106
3.4275058307 11.8194901384 255.0632069353
3.4340400901 11.3829610621 255.0330451179
3.4371761156 11.1637538748 255.0086392797
3.4404044721 10.9451689864 254.9907250539
3.4473792154 10.5116305709 254.9915225793
3.4508943867 10.2950671496 254.9939248931
3.4576326481 9.8598380810 254.9780121378
3.4611768211 9.6434875954 254.9824959861
3.4649713752 9.4289697343 255.0047358242
3.4725677014 9.0000651379 255.0498152511
3.4760158145 8.7830497065 255.0474555722
3.4825160582 8.3460566262 255.0146366665
3.4858673438 8.1282961566 255.0053926007
3.4893770112 7.9117239934 255.0073999484
3.4968540389 7.4821026499 255.0441710190
3.5006891169 7.2680716520 255.0695228837
3.5079271564 6.8367292017 255.0893357337
3.5112494354 6.6187568014 255.0780131316
3.5177382744 6.1815508788 255.0442086289
3.5210982390 5.9638415702 255.0355784454
3.5245953444 5.7472138045 255.0367429324
3.5318980143 5.3164563065 255.0612945566
3.5355935224 5.1014545517 255.0767355694
3.5426486576 4.6687675192 255.0835663589
3.5459195381 4.4503240603 255.0685127421
3.5491561261 4.2315768260 255.0509287642
3.5562528743 3.7992405373 255.0608008089
3.5600005867 3.5847460326 255.0800777719
3.5667141533 3.1492234377 255.0622966046
3.5696394591 2.9277846170 255.0222003177
3.5725276957 2.7059917092 254.9794167661
3.5787689691 2.2662642159 254.9273174398
3.5821767396 2.0488361246 254.9219606073
3.5892755646 1.6164590055 254.9319187143
3.5929364748 1.4012506412 254.9449242013
3.5966926499 1.1869075213 254.9649438766
3.6004929738 0.9729693861 254.9881207045
3.6042141835 0.7583584687 255.0055999596
3.6077859322 0.5424330426 255.0122349849
3.6145819242 0.1074834898 255.0002855492
3.6178967777 -0.1107552873 254.9882254281
3.6212012846 -0.3290964829 254.9754165184
3.6281208821 -0.7629741700 254.9723788173
3.6318666533 -0.9772724814 254.9917744527
3.6394000984 -1.4054203371 255.0336088089
3.6701510757 -3.3612748701 254.9919613310
3.7187976926 -6.3959925979 254.9866555462
3.8124032949 -13.5360594956 253.6487206116
3.8037093702 -13.8955061568 252.7291408264
3.7885402574 -14.5915168810 251.0543843814
3.7851683207 -14.8912817685 250.5340239759
3.7839814928 -15.1657737457 250.1783697338
3.0840696677 15.3354702968 250.7499884455
3.1726837374 13.7256841298 254.6194122433
3.1889036482 13.1117512612 255.0115430398
3.1923849062 12.8949271300 255.0114469172
3.1995540063 12.4626468397 255.0254496062
3.2105320690 11.8157789884 255.0617361933
3.2202566731 11.1605655165 255.0125274680
3.2270207473 10.7255945745 254.9988401843
3.2305102714 10.5088365405 254.9993219197
3.2371969922 10.0733045366 254.9803468682
3.2404733318 9.8550506800 254.9661949123
3.2477495623 9.4236204545 254.9875927700
3.2589658948 8.7787443580 255.0406051135
3.2689415458 8.1250100833 255.0083109735
3.2760948404 7.6928349952 255.0213695380
3.2798719120 7.4782478171 255.0417745493
3.2874331306 7.0491914359 255.0830953450
3.2909927841 6.8330377771 255.0885158004
3.2976431079 6.3971978933 255.0669684032
3.3008991714 6.1787383646 255.0514148707
3.3076430131 5.7435547189 255.0363070223
3.3185792981 5.0971337404 255.0704619943
3.3290651577 4.4472685173 255.0734454418
3.3357455829 4.0115554132 255.0538817217
3.3394082217 3.7962805034 255.0665443123
3.3467667844 3.3660431085 255.0941958419
3.3500336216 3.1475878751 255.0793212640
3.3558759410 2.7049224337 255.0011383808
3.3588023866 2.4835809387 254.9624359362
3.3651914819 2.0452367280 254.9222697394
3.3757525007 1.3958542967 254.9304060970
3.3833592530 0.9677900633 254.9755220375
3.3871374617 0.7535816587 254.9963503979
3.3942119928 0.3210586461 255.0041988352
3.3975976183 0.1034899684 254.9975053229
3.4043807963 -0.3315608263 254.9849391082
3.4153930620 -0.9767285766 255.0250396717
3.4263612297 -1.6221439697 255.0621758141
3.4359445549 -2.2800709487 255.0015652219
3.4426844366 -2.7155586039 254.9859119065
3.4461735502 -2.9322134727 254.9864884674
3.4532844932 -3.3642732923 254.9970849855
3.4568298843 -3.5803956375 255.0016204375
3.4638237984 -4.0135161252 255.0039661810
3.4740278139 -4.6659261091 254.9870619713
3.4842129715 -5.3185677604 254.9687472238
3.4914924852 -5.7488965704 254.9914771898
3.4951129656 -5.9642305738 255.0014720305
3.5018656832 -6.3996947403 254.9865926291
3.5050123606 -6.6197159429 254.9627551503
3.5113786726 -7.0591096826 254.9201628263
3.5220318590 -7.7071789481 254.9352546152
3.5326396525 -8.3556452588 254.9471642428
3.5397717347 -8.7873038558 254.9594700010
3.5433795064 -9.0026925148 254.9685909796
3.5506889242 -9.4324377686 254.9937358433
3.5544016082 -9.6466819848 255.0104764967
3.5617071086 -10.0763777070 255.0353712891
3.5651314727 -10.2936292672 255.0313700980
3.5714580607 -10.7337208496 254.9856901067
3.5813263974 -11.3899572471 254.9442986187
3.5922497908 -12.0347517692 254.9793158599
3.5997285009 -12.4623743188 255.0169724996
3.6026831232 -12.6848536492 254.9788018972
2.8651643284 15.3328667636 250.7609449743
2.8725260319 15.1364230932 251.0126712388
2.8808047675 14.9456417312 251.3247585707
2.8901797706 14.7616741883 251.7089843653
2.9007300949 14.5851096346 252.1706823354
2.9123030949 14.4151621905 252.6999813665
2.9244305145 14.2491111548 253.2661517702
2.9362917379 14.0820618562 253.8154748263
2.9470699639 13.9090066032 254.2941919927
2.9561019276 13.7257769310 254.6586127482
2.9631813568 13.5309095010 254.8949333252
2.9684428434 13.3250440629 255.0119251535
2.9758384597 12.8941012246 255.0402167467
2.9792331744 12.6767492546 255.0344498337
2.9828436728 12.4607594459 255.0429008266
2.9901274389 12.0292056868 255.0639098612
2.9934670079 11.8115047693 255.0545057403
2.9999946630 11.3750866952 255.0256177727
3.0033932199 11.1577381428 255.0200658401
3.0068430934 10.9407200196 255.0178761602
3.0136617955 10.5061425183 255.0081270132
3.0169617934 10.2881235287 254.9960665765
3.0234383116 9.8512067003 254.9636326426
3.0268957723 9.6342114855 254.9619168966
3.0306196003 9.4190380776 254.9779080917
3.0382173146 8.9897884879 255.0199690747
3.0417371871 8.7732612815 255.0224513076
3.0483559865 8.3372684208 254.9994252895
3.0517029537 8.1195202334 254.9903952228
3.0551791793 7.9026815119 254.9899921431
3.0626198960 7.4724961718 255.0217102824
3.0664976824 7.2585676607 255.0481348039
3.0740073090 6.8290093567 255.0845956273
3.0775108013 6.6124241472 255.0860300173
3.0841535705 6.1765812924 255.0645766577
3.0874345650 5.9583446746 255.0511296599
3.0907922534 5.7406658262 255.0427994365
3.0978868686 5.3081477811 255.0516417917
3.1015924373 5.0930843909 255.0666008635
3.1088574532 4.6619081523 255.0868633203
3.1122479951 4.4444825282 255.0807475476
3.1155414331 4.2263085136 255.0681443990
3.1225396567 3.7931140909 255.0704932516
3.1262499620 3.5781705175 255.0858901023
3.1331671163 3.1443717789 255.0828382756
3.1362249446 2.9242943249 255.0542742156
3.1391500788 2.7031287060 255.0167094860
3.1420642514 2.4818396620 254.9784000064
3.1450850572 2.2613591882 254.9471937660
3.1482429079 2.0419604354 254.9252831912
3.1549902098 1.6066013629 254.9105056330
3.1586004041 1.3908559711 254.9191902097
3.1623812512 1.1765215832 254.9394057692
3.1700475359 0.7487924639 254.9870009114
3.1736821145 0.5333142869 254.9973699448
3.1806202189 0.0996121213 254.9956628786
3.1840816257 -0.1173075185 254.9942499895
3.1875929464 -0.3337976057 254.9962791896
3.1949588884 -0.7638302517 255.0236843343
3.1988374678 -0.9771376028 255.0507477923
3.2063656388 -1.4056439162 255.0893497534
3.2097558246 -1.6231246812 255.0831570761
3.2160730336 -2.0621755672 255.0391133531
3.2192471634 -2.2815965298 255.0181297581
3.2225010333 -2.5003361786 255.0025517155
3.2292615982 -2.9355833589 254.9887809201
3.2328067861 -3.1517450637 254.9931034384
3.2400554643 -3.5826066297 255.0126934159
3.2436141543 -3.7986104131 255.0180336171
3.2470568323 -4.0156754534 255.0153630429
3.2536572602 -4.4524257325 254.9905143837
3.2569205616 -4.6711602363 254.9755372991
3.2636420758 -5.1068638562 254.9588944211
3.2671493766 -5.3233493775 254.9606996279
3.2707707900 -5.5387548941 254.9703795843
3.2781474781 -5.9682724112 254.9989228111
3.2816963096 -6.1843365097 255.0035681498
3.2850571587 -6.4021862677 254.9952772072
3.2882723542 -6.6214462593 254.9768881909
3.2914674238 -6.8409168967 254.9571126062
3.2947606780 -7.0594495461 254.9441590707
3.3017405373 -7.4927342250 254.9453291428
3.3052666525 -7.7090243516 254.9483829483
3.3121080937 -8.1436511821 254.9400338055
3.3155570919 -8.3606974688 254.9377561768
3.3191341065 -8.5764647689 254.9443999087
3.3265750142 -9.0050973539 254.9776453958
3.3303175437 -9.2191647192 254.9958026355
3.3340180566 -9.4336265162 255.0111166987
3.3376515749 -9.6487572533 255.0217311423
3.3412240742 -9.8644869578 255.0281708264
3.3480879226 -10.2988198012 255.0213851012
3.3513144492 -10.5180984309 255.0037120770
3.3544544800 -10.7382996937 254.9799219356
3.3609257057 -11.1767859101 254.9456287001
3.3643814712 -11.3937431587 254.9439058959
3.3716911948 -11.8234757669 254.9682227282
3.3755235241 -12.0364388332 254.9928517629
3.3793799289 -12.2491197055 255.0191542296
3.3859441632 -12.6866704985 254.9913920664
3.3868900821 -12.9305761353 254.8135042129
3.3843495133 -13.2122922720 254.3905693348
3.3775847910 -13.5402212172 253.6704094062
3.3678285870 -13.9014768947 252.7391860352
3.3579465786 -14.2651803788 251.7980222913
3.3505580931 -14.6026525571 251.0313808796
3.3464932156 -14.9044959102 250.4978417967
3.3448561494 -15.1801635927 250.1348483750
2.7394615945 13.7253047104 254.6917524057
2.8343030952 8.1130686269 254.9633947035
2.8377324050 7.8958880175 254.9599153753
2.9530207615 0.7446075369 254.9825951742
3.0611190481 -5.9728477578 254.9924907307
3.1341871312 -10.5239284943 254.9894434840
2.4438189821 14.9418357630 251.3620109411
2.5489509602 12.4539219664 255.0459331707
2.5622071837 11.5826030507 255.0037699511
2.5694949475 11.1509414226 255.0236121425
2.5862806476 10.0629498500 254.9841823681
2.5896121096 9.8451625417 254.9746304279
2.6003418848 9.1965030731 254.9919239336
2.6072519330 8.7625162461 254.9882994538
2.6240110596 7.6740919698 254.9469255135
2.6278103810 7.4593961010 254.9666966124
2.6397138934 6.8188846236 255.0577599832
2.6470216131 6.3877250510 255.0792122455
2.6504221055 6.1704071124 255.0740112558
2.6677908386 5.0863588141 255.0710786505
2.6852798610 4.0032102089 255.0757860764
2.6886239048 3.7854654192 255.0670270188
2.7052059478 2.6955802981 255.0142882099
2.7173568800 1.8150080829 254.9012317676
2.7244647970 1.3824712436 254.9100670996
2.7433688421 0.3101725492 255.0046649086
2.7469611114 0.0942869457 255.0115897830
2.7578634823 -0.5522971541 255.0405541238
2.7652837392 -0.9820691649 255.0695986113
2.7852648869 -2.2898321977 255.0111337748
2.7953410965 -2.9431218846 254.9872655377
2.8027817767 -3.3725701173 255.0177633988
2.8065648154 -3.5867319258 255.0370766436
2.8224792219 -4.6832229982 254.9406255178
2.8402607934 -5.7636901738 254.9642903122
2.8440704640 -5.9775105035 254.9854188780
2.8618752289 -7.0575193925 255.0108058061
2.8751501546 -7.9303247592 254.9683200583
2.8816931622 -8.3676592557 254.9409316158
2.9006187352 -9.4369376722 255.0394541878
2.9041510154 -9.6531263113 255.0427327956
2.9138130221 -10.3106412839 254.9916342645
2.9203297688 -10.7483463116 254.9623975491
2.9416736357 -12.0440432398 254.9919202054
2.9518453304 -12.6968116169 254.9739197349
2.2010804215 15.5234236031 250.5612912126
2.2083341216 15.3242084477 250.7842693952
2.2163455198 15.1292651723 251.0526625454
2.2253211988 14.9397819169 251.3789598887
2.2467279205 14.5806151296 252.2392162826
2.2591090605 14.4108720817 252.7703286143
2.2847120281 14.0777383209 253.8845113931
2.3055519769 13.7203667225 254.7151457644
2.3127310921 13.5241423823 254.9366561064
2.3179078263 13.3168378487 255.0381576021
2.3250803654 12.8843785694 255.0503245655
2.3283535121 12.6663610290 255.0375912313
2.3317448591 12.4490203305 255.0320223150
2.3384332238 12.0137627102 255.0150628059
2.3416190398 11.7951980500 254.9971057222
2.3485174456 11.3611328362 254.9927624182
2.3523731292 11.1465322374 255.0151621454
2.3562189118 10.9318914476 255.0369409764
2.3630228238 10.4973002965 255.0269469120
2.3661143867 10.2781054570 255.0031992445
2.3726159928 9.8416089510 254.9749265264
2.3761438380 9.6250590983 254.9775457663
2.3797801994 9.4091838599 254.9866804616
2.3868727682 8.9763414839 254.9941563685
2.3901888111 8.7584687647 254.9839096322
2.3934222167 8.5400603553 254.9686521093
2.4000518969 8.1042546871 254.9480487489
2.4035190244 7.8873197086 254.9469818658
2.4108127053 7.4557909027 254.9666438025
2.4146716062 7.2414380066 254.9894150946
2.4225321013 6.8137480354 255.0436554279
2.4263165067 6.5989825036 255.0619636937
2.4333622077 6.1659968709 255.0667280144
2.4367296165 5.9484602488 255.0596405188
2.4401260100 5.7311129979 255.0542935950
2.4472408944 5.2986125162 255.0632728370
2.4509427507 5.0833633036 255.0765702266
2.4583216819 4.6527521952 255.1017932885
2.4618403492 4.4362744518 255.1039564382
2.4651719356 4.2184875897 255.0946744994
2.4715804665 3.7810795851 255.0604316739
2.4748825431 3.5630461272 255.0492832626
2.4816405357 3.1280595110 255.0364650401
2.4849453278 2.9100173170 255.0254506338
2.4881733529 2.6914150919 255.0097694619
2.4942977934 2.2517260059 254.9578745584
2.4972602741 2.0311121126 254.9257967813
2.5038256128 1.5945231769 254.9008869905
2.5076240782 1.3800596305 254.9202326896
2.5116020743 1.1669594597 254.9506424116
2.5193641774 0.7394032416 254.9996288717
2.5230351354 0.5240716277 255.0111765138
2.5302941187 0.0928196079 255.0292071032
2.5339427082 -0.1226446277 255.0393980524
2.5375763202 -0.3382085864 255.0487012262
2.5447871188 -0.7697421968 255.0638434707
2.5483460789 -0.9858600635 255.0685328600
2.5550890500 -1.4210346488 255.0546860124
2.5582472570 -1.6403215097 255.0345202617
2.5646283864 -2.0784365234 254.9981817433
2.5679976836 -2.2960942247 254.9910384473
2.5714501799 -2.5130768108 254.9891456985
2.5784989944 -2.9458868982 254.9941937076
2.5821872259 -3.1609421782 255.0069608155
2.5897576871 -3.5894154077 255.0445765336
2.5933047072 -3.8055855997 255.0485850556
2.5965041404 -4.0246467533 255.0308457701
2.6023299680 -4.4676039881 254.9596725279
2.6054301061 -4.6875671545 254.9357121420
2.6123808757 -5.1212029922 254.9346789161
2.6160062504 -5.3367417872 254.9435540767
2.6196483254 -5.5521305861 254.9534609206
2.6271131633 -5.9813092484 254.9846452250
2.6309244625 -6.1951864888 255.0052088761
2.6383447130 -6.6246393965 255.0336778097
2.6418976765 -6.8407168611 255.0380601515
2.6453765244 -7.0574332197 255.0378398527
2.6521725197 -7.4923006258 255.0271882890
2.6554529504 -7.7107850789 255.0144787267
2.6586551039 -7.9299850968 254.9968076690
2.6618597815 -8.1491798304 254.9792835932
2.6651699388 -8.3674417684 254.9683915433
2.6686581932 -8.5841050474 254.9687281198
2.6761663133 -9.0125910177 255.0028730843
2.6800640161 -9.2254874300 255.0290597479
2.6874429701 -9.6550228517 255.0552069717
2.6907129152 -9.8736416119 255.0418206768
2.6968321648 -10.3148587540 254.9882634024
2.6999726549 -10.5347504780 254.9665917490
2.7032515355 -10.7533542265 254.9537293964
2.7101096587 -11.1877863623 254.9468328645
2.7136222210 -11.4042046136 254.9487429349
2.7207934236 -11.8356443722 254.9617521614
2.7245096984 -12.0500936989 254.9765841327
2.7282722466 -12.2640803354 254.9943671465
2.7344500637 -12.7050748034 254.9442582807
2.7347724412 -12.9525664696 254.7431689482
2.7312441639 -13.2379643838 254.2966052683
2.7020138386 -14.2815772803 251.7652406947
2.6893861156 -14.9137490873 250.5113232930
2.6870657607 -15.1909685516 250.1384612828
1.9824904855 15.5228586725 250.5953981610
1.9897900385 15.3233270720 250.8146326582
2.0069190481 14.9381616481 251.4007297422
2.0414908879 14.4098367331 252.7980872580
2.0546452747 14.2434159380 253.3595689709
2.0788842285 13.9011980404 254.3635809157
2.1554432028 9.8370134505 254.9649910465
2.1590045080 9.6206421532 254.9694188587
2.1799595599 8.3199914886 254.9718583679
2.1871240806 7.8875838644 254.9832832684
2.1943044238 7.4553101568 254.9957018832
2.2988713626 0.9521772980 254.9968879780
2.3439802329 -1.8669875307 254.9855356719
2.4287039289 -7.0590248964 255.0528863836
2.4389754881 -7.7105977499 255.0419925159
2.4488982646 -8.3652389475 255.0097551543
2.4558203467 -8.7990130681 255.0070272681
2.4595018661 -9.0139524922 255.0191551984
2.4671377194 -9.4413649959 255.0601028562
2.4707517262 -9.6568472940 255.0681729590
2.4770795291 -10.0959090074 255.0289942598
2.4800297519 -10.3173932226 254.9963180224
2.4862642836 -10.7574382350 254.9512993413
2.4966562422 -11.4080940124 254.9476674707
2.5072526917 -12.0568423714 254.9566476002
2.5143981903 -12.4885599585 254.9676133902
2.5169732779 -12.7137993487 254.9115939281
1.7793943380 15.1267715228 251.1048416692
1.7991301128 14.7540453758 251.8224208639
1.8110228192 14.5786400321 252.2961613730
1.8781085268 13.5140938528 254.9053456573
1.8871713543 13.0915511988 255.0238177932
1.8906509391 12.8746965618 255.0234337271
1.8976042078 12.4409606499 255.0223396620
1.9074057313 11.7868771167 254.9849847958
1.9106201463 11.5685330657 254.9695222394
1.9179602519 11.1369340515 254.9904211159
1.9255865453 10.7070199630 255.0276960725
1.9288730850 10.4890748749 255.0163125719
1.9348701200 10.0498175438 254.9606454193
1.9381170422 9.8315980637 254.9470155322
1.9454370906 9.3999679090 254.9668175345
1.9492214578 9.1849113165 254.9839002879
1.9564037250 8.7525379104 254.9958840615
1.9673167275 8.1048911192 255.0219881541
1.9747076929 7.6738892614 255.0460628253
1.9781323948 7.4567425760 255.0425804580
1.9849783301 7.0224137149 255.0353557962
1.9885896663 6.8064238961 255.0425757731
1.9958579801 6.3747664876 255.0597060107
1.9993435896 6.1580116610 255.0597447524
2.0061733321 5.7235960635 255.0516352980
2.0171849581 5.0769338065 255.0836683491
2.0280916477 4.4296959171 255.1097377654
2.0344654227 3.9922910647 255.0753290776
2.0374989573 3.7725403507 255.0492535829
2.0440674647 3.3363312020 255.0259711432
2.0476420793 3.1201814100 255.0311595272
2.0546950150 2.6872409139 255.0359297403
2.0638265524 2.0278246314 254.9591464239
2.0742614896 1.3773243921 254.9578271305
2.0821091534 0.9499899322 255.0088248738
2.0858546906 0.7350996213 255.0240214842
2.0931733704 0.3041233656 255.0443223744
2.0967955254 0.0883830151 255.0523028855
2.1038876759 -0.3441698499 255.0594582937
2.1143059004 -0.9945805837 255.0573899086
2.1237766533 -1.6520661913 254.9999220592
2.1301716277 -2.0898815797 254.9662289954
2.1337135375 -2.3061969192 254.9696047816
2.1412575499 -2.7353172683 255.0032176806
2.1450071456 -2.9500169338 255.0187479502
2.1522659074 -3.3812246934 255.0357184537
2.1558012570 -3.5975367296 255.0387362579
2.1624807429 -4.0332196931 255.0216975155
2.1721971067 -4.6892018987 254.9782802035
2.1831941339 -5.3350292539 255.0103218816
2.1901668474 -5.7684226559 255.0105261603
2.1936871750 -5.9848455114 255.0125992079
2.2010003965 -6.4154326552 255.0329864534
2.2046722370 -6.6305860084 255.0440587807
2.2082882287 -6.8461806771 255.0518940659
2.2188955069 -7.4949255077 255.0610861464
2.2292907876 -8.1454157248 255.0577459805
2.2633462324 -10.3189314584 255.0111295047
2.2663160931 -10.5401470357 254.9804427443
2.2762160318 -11.1951478976 254.9474570880
2.2865518884 -11.8463131811 254.9404812921
2.2996817095 -12.9692207734 254.6832745044
2.2955640751 -13.2560839461 254.2274227020
2.2868318650 -13.5861230439 253.4943424629
2.2752884064 -13.9430593244 252.5919024112
2.2641479150 -14.2972500736 251.7128372026
2.2559168932 -14.6252376553 251.0076726354
2.2511280324 -14.9217273383 250.5086977247
2.2487581735 -15.1960122201 250.1546580717
1.5525412620 15.3204049549 250.8622667115
1.5607622531 15.1245942990 251.1204923750
1.5701613766 14.9348740120 251.4437443305
1.5810319964 14.7527926410 251.8481088593
1.5932790793 14.5780133570 252.3285968854
1.6064954331 14.4086052745 252.8628001938
1.6199743043 14.2410924134 253.4119533053
1.6328758721 14.0712240705 253.9297495492
1.6443890344 13.8948137099 254.3715130411
1.6538053462 13.7081026342 254.6980857905
1.6609181749 13.5098351690 254.8978766971
1.6660521675 13.3015062482 254.9887220221
1.6736697724 12.8712120758 255.0242446499
1.6772886304 12.6550904436 255.0315148224
1.6808715155 12.4387910190 255.0368574305
1.6874554088 12.0030789843 255.0152670901
1.6904967454 11.7838608876 254.9906546630
1.6936263610 11.5650912126 254.9708411467
1.6970517861 11.3479176337 254.9674188232
1.7008049521 11.1325426420 254.9821702298
1.7046850133 10.9178823903 255.0039329513
1.7116868253 10.4844086872 255.0054932605
1.7146845067 10.2648597202 254.9783895583
1.7176385030 10.0450288224 254.9487534965
1.7208125382 9.8264199190 254.9313795438
1.7243271731 9.6097310047 254.9328910664
1.7281186593 9.3946322803 254.9498258610
1.7359045230 8.9656619528 254.9949906120
1.7396972112 8.7506324216 255.0120242838
1.7473552973 8.3210614028 255.0502055279
1.7513068505 8.1070292898 255.0761389152
1.7551601996 7.8924455030 255.0966216037
1.7619838157 7.4580565501 255.0883551275
1.7651132713 7.2391546649 255.0684278377
1.7717826569 6.8037948053 255.0515235839
1.7753748097 6.5876745051 255.0574398516
1.7825096429 6.1551576092 255.0665760403
1.7859424304 5.9380739256 255.0636155364
1.7893706252 5.7209587122 255.0603821030
1.7965334502 5.2886519276 255.0711088304
1.8002254348 5.0732046425 255.0826555834
1.8074387835 4.6412684613 255.0962464929
1.8109043262 4.4244073543 255.0951104888
1.8142423044 4.2067292998 255.0868533469
1.8205641849 3.7690400660 255.0503293422
1.8238046658 3.5506871532 255.0365137092
1.8309607795 3.1183946875 255.0468924364
1.8346666203 2.9031101100 255.0593228612
1.8382051389 2.6867230573 255.0623057808
1.8443931182 2.2479918423 255.0181170457
1.8472624062 2.0270748534 254.9832991495
1.8537656975 1.5903453191 254.9568388430
1.8575098631 1.3753269400 254.9714116728
1.8613544709 1.1610126517 254.9916519324
1.8689284475 0.7316645350 255.0257341025
1.8726397005 0.5164895866 255.0384823198
1.8798548461 0.0847338392 255.0523019142
1.8833306621 -0.1320601273 255.0517497579
1.8867794385 -0.3490430594 255.0496840235
1.8937536104 -0.7824654615 255.0498763459
1.8972260253 -0.9992767631 255.0491562318
1.9038128401 -1.4354931880 255.0273467433
1.9069410338 -1.6548218430 255.0070041875
1.9100719572 -1.8741421080 254.9868706081
1.9168512955 -2.3090513403 254.9758881824
1.9205735456 -2.5240478546 254.9893810549
1.9243875122 -2.7383521823 255.0080804095
1.9281585628 -2.9529512163 255.0243774246
1.9317980857 -3.1685189229 255.0331665750
1.9388021343 -3.6016949731 255.0350733673
1.9422096250 -3.8189884488 255.0306893146
1.9455386562 -4.0368888000 255.0217545849
1.9522307042 -4.4724587578 255.0057986071
1.9557970816 -4.6885545756 255.0104409272
1.9632565515 -5.1181896380 255.0384380055
1.9668537333 -5.3340089048 255.0449037408
1.9702867590 -5.5511126320 255.0419162701
1.9770850014 -5.9858576520 255.0320734951
1.9806050632 -6.2022765886 255.0340995365
1.9877472540 -6.6342910448 255.0439898393
1.9913103711 -6.8503551880 255.0484641169
1.9948689976 -7.0664437694 255.0527194530
2.0020203946 -7.4983280783 255.0632024999
2.0056187174 -7.7140701205 255.0697860991
2.0127604193 -8.1459965500 255.0796892528
2.0162110216 -8.3629281596 255.0777964244
2.0228729450 -8.7987995656 255.0600750718
2.0262904141 -9.0160270292 255.0561998694
2.0298771316 -9.2318373722 255.0621156274
2.0371507051 -9.6625917356 255.0797432973
2.0405293485 -9.8801416052 255.0736097874
2.0467045605 -10.3202110699 255.0276993864
2.0497177569 -10.5409202823 255.0003996101
2.0528360795 -10.7607546427 254.9791669550
2.0594524158 -11.1972024734 254.9586597541
2.0628389659 -11.4147615295 254.9529422313
2.0694549947 -11.8512725376 254.9323361391
2.0727913144 -12.0692903043 254.9236945837
2.0762727752 -12.2860315544 254.9235163172
2.0823523063 -12.7273745978 254.8716474416
2.0823833999 -12.9749121124 254.6705474012
2.0779957025 -13.2622214700 254.2118714615
2.0566978930 -13.9512627368 252.5631888433
2.0451363715 -14.3054097468 251.6845523179
2.0366950700 -14.6322088531 250.9871566644
2.0318634333 -14.9269018651 250.4997989641
2.0295162357 -15.1994103593 250.1571552815
1.3333237542 15.3159802366 250.8527064603
1.3515698625 14.9320788908 251.4524168577
1.4439185281 13.5065936413 254.9012583057
1.4568463637 12.8685464774 255.0336605964
1.4642501895 12.4371330615 255.0566969104
1.4766951782 11.5619891528 254.9756292448
1.4837689153 11.1288468565 254.9809387233
1.4946120939 10.4804266270 255.0014703786
1.5006506702 10.0416593415 254.9508402625
1.5037648753 9.8227607374 254.9306290278
1.5149925545 9.1765054722 254.9719985746
1.5231274689 8.7494242730 255.0348348063
1.5390047561 7.8934186701 255.1395738584
1.5455695232 7.4575773619 255.1174138139
1.5549462481 6.8009550241 255.0585428593
1.5621283213 6.3686756311 255.0699194661
1.5657436571 6.1526905191 255.0769204160
1.5762152425 5.5025111776 255.0775724389
1.5832277950 5.0692667691 255.0797903162
1.6003681108 3.9837240598 255.0638440970
1.6037271823 3.7661694334 255.0568396680
1.6143911486 3.1172458648 255.0680698400
1.6216611635 2.6857022062 255.0844118672
1.6337267419 1.8064058575 254.9811366885
1.6406629445 1.3726150763 254.9790827789
1.6518929661 0.7274987135 255.0214783703
1.6593452329 0.2972698486 255.0478994824
1.6628830655 0.0808956056 255.0507723817
1.6731351922 -0.5707083487 255.0394076435
1.6801901692 -1.0035911738 255.0439517468
1.6966514994 -2.0941068608 254.9903195146
1.7000705904 -2.3113310307 254.9866063014
1.7112190689 -2.9565646569 255.0248083914
1.7184623094 -3.3880177772 255.0399143620
1.7219502221 -3.6047144303 255.0400299950
1.7321294813 -4.2569074183 255.0245685305
1.7392578328 -4.6891661483 255.0332382980
1.7569544889 -5.7706382018 255.0481960836
1.7603843423 -5.9877541346 255.0451166461
1.7707748265 -6.6383480800 255.0413916744
1.7778185659 -7.0711568395 255.0454736926
1.7922714011 -7.9338221159 255.0741553447
1.7994134729 -8.3657810144 255.0837725498
1.8166033980 -9.4509843211 255.0705805690
1.8201685127 -9.6669934377 255.0750457437
1.8300824971 -10.3214367402 255.0446390974
1.8363774514 -10.7604181962 255.0065484083
1.8493110891 -11.6356903055 254.9496431724
1.8557804034 -12.0733886704 254.9212866521
1.8652769372 -12.7318399621 254.8668833849
1.8604999851 -13.2675692445 254.2014436139
1.1226230949 15.1159965942 251.1042872374
1.1714115990 14.4064148855 252.9169800378
1.1853723993 14.2386631349 253.4631935221
1.1985875857 14.0678993330 253.9709458954
1.2198673229 13.7028607467 254.7182057563
1.2322186724 13.2953883362 254.9993419606
1.2438835963 12.6508979145 255.0621988728
1.2538422516 11.9979310658 255.0357365447
1.2632457607 11.3420114148 254.9799883035
1.2706251848 10.9104514487 255.0011249515
1.2809821151 10.2594226772 254.9954518466
1.2904472607 9.6035741050 254.9427732577
1.2982282015 9.1742821140 254.9851815537
1.3024233569 8.9613429140 255.0224941646
1.3148313154 8.3217861907 255.1252669130
1.3257319898 7.6740454869 255.1485161893
1.3316899410 7.2347946601 255.0947652079
1.3526197821 5.9343482272 255.0951474504
1.3629658415 5.2834365816 255.0890411853
1.3725902210 4.6281470664 255.0444720551
1.3760042357 4.4109445428 255.0405928242
1.3905490121 3.5476018020 255.0723872884
1.4014428706 2.9001058172 255.0955111716
1.4110357318 2.2444167713 255.0491498407
1.4139663959 2.0241141804 255.0193716848
1.4203369048 1.5867036584 254.9870220412
1.4272730265 1.1529148581 254.9849571285
1.4309608466 0.9374612190 254.9957229019
1.4493181579 -0.1401775524 255.0451947020
1.4597612819 -0.7904819918 255.0442610421
1.4700354139 -1.4419333324 255.0342499639
1.4733268027 -1.6600079573 255.0237196741
1.4765981430 -1.8782337787 255.0120697162
1.4868129988 -2.5301564781 254.9988326617
1.5086937336 -3.8236773532 255.0507525716
1.5188389434 -4.4760755405 255.0337075852
1.5296694733 -5.1234694709 255.0538435266
1.5331337220 -5.3403276942 255.0526495224
1.5469652246 -6.2079513255 255.0464829251
1.5572131970 -6.8596214819 255.0350433171
1.5678809717 -7.5080906141 255.0464576947
1.5787352850 -8.1550626647 255.0680658273
1.5890719811 -8.8060243509 255.0614256818
1.5924424912 -9.0236015993 255.0551462513
1.6066508981 -9.8881575555 255.0696330248
1.6167167323 -10.5412973712 255.0482095984
1.6199253554 -10.7602151549 255.0330220543
1.6262918378 -11.1985142928 254.9998139449
1.6357652819 -11.8567244828 254.9456823626
1.6424588584 -12.2924714919 254.9303046883
1.6480548999 -12.9836414824 254.6624006965
1.5980191419 -14.6475672384 250.9370480300
0.8860786441 15.5024587160 250.5669004918
0.8942409736 15.3043787164 250.8026100687
0.9034024343 15.1110838461 251.0893127826
0.9138962761 14.9241748084 251.4439996683
0.9259123314 14.7446329751 251.8764483488
0.9392790400 14.5717881772 252.3780076019
0.9534931776 14.4034046530 252.9230831043
0.9677773686 14.2359240420 253.4721808050
0.9812772137 14.0653359994 253.9817687092
0.9932144100 13.8878936371 254.4120590906
1.0029135387 13.7002655201 254.7285461345
1.0101798083 13.5013427063 254.9211674547
1.0153876131 13.2927247628 255.0088499364
1.0232528242 12.8633749591 255.0541780103
1.0270511605 12.6480835430 255.0700330964
1.0306941930 12.4320443495 255.0779270329
1.0369766755 11.9950061394 255.0423610839
1.0399460393 11.7756066307 255.0158072486
1.0465590696 11.3401289134 254.9971354139
1.0501586087 11.1238602360 255.0027619028
1.0538335990 10.9079882968 255.0122974356
1.0611179218 10.4759398002 255.0280332640
1.0644896928 10.2585270465 255.0220265485
1.0706948461 9.8208707358 254.9823709418
1.0739860752 9.6030037202 254.9721932998
1.0776662904 9.3871883529 254.9820187166
1.0858976804 8.9602525220 255.0465263137
1.0900848775 8.7472240112 255.0825220977
1.0980839692 8.3192417232 255.1352013398
1.1018201614 8.1038592728 255.1480208103
1.1085509467 7.6690485782 255.1354124011
1.1116008055 7.4498889824 255.1128378587
1.1146056338 7.2304567555 255.0879259484
1.1209600219 6.7934514148 255.0558106785
1.1244499424 6.5766927543 255.0559074094
1.1320299133 6.1465988864 255.0871098062
1.1358535974 5.9317795579 255.1045429918
1.1395047067 5.7159764023 255.1129644947
1.1461350617 5.2805053210 255.0951125848
1.1491588620 5.0610538291 255.0710666374
1.1551997600 4.6220400730 255.0225829567
1.1586276701 4.4049120453 255.0194665477
1.1624187819 4.1899423300 255.0351821099
1.1702831627 3.7617581040 255.0813681941
1.1740192021 3.5465178059 255.0942684219
1.1811360606 3.1139227216 255.1016538020
1.1845711759 2.8968784820 255.0989362232
1.1878814085 2.6790613078 255.0896824257
1.1940879076 2.2408443520 255.0496737727
1.1971786182 2.0216224630 255.0289481858
1.2036159610 1.5847351839 255.0008894087
1.2068781116 1.3665470090 254.9891134231
1.2102065652 1.1487646428 254.9807724992
1.2176064410 0.7179368071 255.0029298150
1.2215573208 0.5041528499 255.0271167612
1.2289478326 0.0733571587 255.0488450564
1.2323821878 -0.1437232536 255.0460335419
1.2358692155 -0.3604561307 255.0460252395
1.2430094458 -0.7928267140 255.0546751495
1.2464594340 -1.0097994716 255.0527023934
1.2530351334 -1.4459055658 255.0318037709
1.2563292987 -1.6639345196 255.0216493950
1.2596703612 -1.8816576306 255.0139393232
1.2664475745 -2.3164708805 255.0035667476
1.2699557009 -2.5330766939 255.0045891496
1.2773300114 -2.9638007966 255.0256153822
1.2811034833 -3.1785488487 255.0406746306
1.2884908394 -3.6091025208 255.0624235236
1.2919796049 -3.8257881400 255.0625501341
1.2953018779 -4.0436492321 255.0538373674
1.3018561485 -4.4800247411 255.0317112844
1.3052928645 -4.6970989292 255.0290117505
1.3123170894 -5.1301603800 255.0316772696
1.3158069126 -5.3468550226 255.0317798910
