2.452754019799999963e+00 -5.145713768849999781e+01 7.170000000000000284e+01 0.000000000000000000e+00 0.000000000000000000e+00 0.000000000000000000e+00
-3.694421999999999873e+00 7.356645000000000323e+01 2.110000000000000142e+01 0.000000000000000000e+00 0.000000000000000000e+00 0.000000000000000000e+00
2.349105600700000185e+00 -5.056256346459999662e+01 7.165000000000000568e+01 0.000000000000000000e+00 0.000000000000000000e+00 0.000000000000000000e+00
-6.700000000000000400e-01 -9.699999999999999734e-01 1.121560000000000059e+02 0.000000000000000000e+00 0.000000000000000000e+00 0.000000000000000000e+00
7.797302185100000393e+00 -6.453781234209999695e+01 2.485000000000000142e+01 0.000000000000000000e+00 0.000000000000000000e+00 0.000000000000000000e+00
2.919394765099999844e+00 -4.937163281450000341e+01 7.166599999999999682e+01 0.000000000000000000e+00 0.000000000000000000e+00 0.000000000000000000e+00
-2.299106011300000141e+00 -1.500104437249999911e+01 1.074000000000000057e+02 0.000000000000000000e+00 0.000000000000000000e+00 0.000000000000000000e+00
-2.516781993099999948e+00 -1.710038729929999946e+01 1.088499999999999943e+02 0.000000000000000000e+00 0.000000000000000000e+00 0.000000000000000000e+00
-6.546276704000000279e-01 -5.222377738819999848e+01 7.106666666670000154e+01 0.000000000000000000e+00 0.000000000000000000e+00 0.000000000000000000e+00
1.423098397299999984e+00 -5.251163354810000072e+01 7.094614285709999990e+01 0.000000000000000000e+00 0.000000000000000000e+00 0.000000000000000000e+00
2.002814468900000033e+00 -5.249189422540000294e+01 7.095850000000000080e+01 0.000000000000000000e+00 0.000000000000000000e+00 0.000000000000000000e+00
2.269382222900000023e+00 -5.214507820600000088e+01 7.106666666670000154e+01 0.000000000000000000e+00 0.000000000000000000e+00 0.000000000000000000e+00
2.619581369200000065e+00 -5.105512662369999788e+01 6.895000000000000284e+01 0.000000000000000000e+00 0.000000000000000000e+00 0.000000000000000000e+00
6.929857499999999559e-01 -6.786772499999999297e+01 6.474999999999999645e+00 0.000000000000000000e+00 0.000000000000000000e+00 0.000000000000000000e+00
1.407645463900000005e+00 -5.370637253689999824e+01 6.838788888889999384e+01 0.000000000000000000e+00 0.000000000000000000e+00 0.000000000000000000e+00
-6.782640632999999974e-01 -5.269749392479999983e+01 7.029883333329999573e+01 0.000000000000000000e+00 0.000000000000000000e+00 0.000000000000000000e+00
7.795522898000000200e-01 5.565809427460000336e+01 8.912983333329999880e+01 0.000000000000000000e+00 0.000000000000000000e+00 0.000000000000000000e+00
2.412504441199999849e+00 -5.213236915670000116e+01 6.954999999999999716e+01 0.000000000000000000e+00 0.000000000000000000e+00 0.000000000000000000e+00
2.813194769599999923e+00 -5.058416437559999679e+01 6.951999999999999602e+01 0.000000000000000000e+00 0.000000000000000000e+00 0.000000000000000000e+00
3.022840759700000213e+00 -5.022337907949999902e+01 6.962500000000000000e+01 0.000000000000000000e+00 0.000000000000000000e+00 0.000000000000000000e+00
3.604708404999999782e+00 -5.003018579470000304e+01 6.956281818179999732e+01 0.000000000000000000e+00 0.000000000000000000e+00 0.000000000000000000e+00
-8.932666985799999182e+00 -6.388489236939999927e+01 4.450000000000000178e+00 0.000000000000000000e+00 0.000000000000000000e+00 0.000000000000000000e+00
4.964402143900000119e+00 -6.117879360349999729e+01 3.325000000000000000e+01 0.000000000000000000e+00 0.000000000000000000e+00 0.000000000000000000e+00
-6.543519103999999587e-01 -5.319627621939999784e+01 6.943449999999999989e+01 0.000000000000000000e+00 0.000000000000000000e+00 0.000000000000000000e+00
-7.068851230000000596e-02 -5.317254437049999893e+01 6.932999999999999829e+01 0.000000000000000000e+00 0.000000000000000000e+00 0.000000000000000000e+00
7.253313259999999429e-02 -5.332573527179999928e+01 6.891852941179999448e+01 0.000000000000000000e+00 0.000000000000000000e+00 0.000000000000000000e+00
8.191220071000000491e-01 -5.336486619960000155e+01 6.894219999999999970e+01 0.000000000000000000e+00 0.000000000000000000e+00 0.000000000000000000e+00
2.084042838799999853e+00 -5.344956900710000269e+01 6.891200000000000614e+01 0.000000000000000000e+00 0.000000000000000000e+00 0.000000000000000000e+00
2.464949843999999946e+00 -5.283108328739999848e+01 6.895000000000000284e+01 0.000000000000000000e+00 0.000000000000000000e+00 0.000000000000000000e+00
2.377957678700000077e+00 -5.209691234780000002e+01 6.895000000000000284e+01 0.000000000000000000e+00 0.000000000000000000e+00 0.000000000000000000e+00
-6.871159999999999490e-01 7.408944999999999936e+01 4.120000000000000284e+01 0.000000000000000000e+00 0.000000000000000000e+00 0.000000000000000000e+00
2.392512057599999853e+00 -5.146696293720000170e+01 6.895000000000000284e+01 0.000000000000000000e+00 0.000000000000000000e+00 0.000000000000000000e+00
2.964139708199999834e+00 -5.068860238509999760e+01 6.895000000000000284e+01 0.000000000000000000e+00 0.000000000000000000e+00 0.000000000000000000e+00
3.635070865399999906e+00 -5.016664526840000349e+01 6.904000000000000625e+01 0.000000000000000000e+00 0.000000000000000000e+00 0.000000000000000000e+00
2.328785473099999948e+00 6.489309849779999695e+01 7.525000000000000000e+01 0.000000000000000000e+00 0.000000000000000000e+00 0.000000000000000000e+00
7.129999999999999893e+00 -6.211999999999999744e+01 3.066199999999999903e+01 0.000000000000000000e+00 0.000000000000000000e+00 0.000000000000000000e+00
-6.064199474999999451e-01 -5.360986772249999888e+01 6.835753846149999902e+01 0.000000000000000000e+00 0.000000000000000000e+00 0.000000000000000000e+00
-2.678436000000000039e+00 -6.754859999999999332e+01 8.650000000000000355e+00 0.000000000000000000e+00 0.000000000000000000e+00 0.000000000000000000e+00
2.219017481599999897e+00 -5.365343026600000087e+01 6.829830769229999987e+01 0.000000000000000000e+00 0.000000000000000000e+00 0.000000000000000000e+00
2.796251082800000010e+00 -5.126734185440000147e+01 6.814000000000000057e+01 0.000000000000000000e+00 0.000000000000000000e+00 0.000000000000000000e+00
2.892189000000000121e+00 -5.449380000000000024e+01 5.920000000000000284e+01 0.000000000000000000e+00 0.000000000000000000e+00 0.000000000000000000e+00
-4.767861370200000337e+00 -6.537380049050000252e+01 2.544999999999999929e+01 0.000000000000000000e+00 0.000000000000000000e+00 0.000000000000000000e+00
1.416130661099999966e+00 -5.395968719239999700e+01 6.802988888890000396e+01 0.000000000000000000e+00 0.000000000000000000e+00 0.000000000000000000e+00
8.255962354000000447e-01 -5.395818037650000321e+01 6.790000000000000568e+01 0.000000000000000000e+00 0.000000000000000000e+00 0.000000000000000000e+00
-5.520408279699999810e+00 -6.557738804619999939e+01 2.412307692310000107e+01 0.000000000000000000e+00 0.000000000000000000e+00 0.000000000000000000e+00
6.506221530000000364e-02 -5.406879323260000092e+01 6.746764705879999724e+01 0.000000000000000000e+00 0.000000000000000000e+00 0.000000000000000000e+00
7.872691506000000228e-01 -5.409153832420000185e+01 6.749094117650000157e+01 0.000000000000000000e+00 0.000000000000000000e+00 0.000000000000000000e+00
2.465051667400000035e+00 -5.347607498060000353e+01 6.745000000000000284e+01 0.000000000000000000e+00 0.000000000000000000e+00 0.000000000000000000e+00
2.526894519299999864e+00 -5.181984775840000168e+01 6.745000000000000284e+01 0.000000000000000000e+00 0.000000000000000000e+00 0.000000000000000000e+00
3.395556132699999896e+00 -5.120887330840000118e+01 6.738342857140000319e+01 0.000000000000000000e+00 0.000000000000000000e+00 0.000000000000000000e+00
2.018255703999999984e+00 6.200345143500000233e+01 8.077684615379999400e+01 0.000000000000000000e+00 0.000000000000000000e+00 0.000000000000000000e+00
-1.349084592000000082e+00 -5.444099645890000261e+01 6.698237500000000466e+01 0.000000000000000000e+00 0.000000000000000000e+00 0.000000000000000000e+00
7.297087721999999665e-01 -5.437889349550000162e+01 6.684824999999999307e+01 0.000000000000000000e+00 0.000000000000000000e+00 0.000000000000000000e+00
-2.384801058199999879e+00 5.124408641530000352e+01 9.279999999999999716e+01 0.000000000000000000e+00 0.000000000000000000e+00 0.000000000000000000e+00
2.027614013600000042e+00 -5.465862828590000078e+01 6.668242857139999558e+01 0.000000000000000000e+00 0.000000000000000000e+00 0.000000000000000000e+00
2.205037121600000205e+00 -5.430647564870000110e+01 6.690372727269999586e+01 0.000000000000000000e+00 0.000000000000000000e+00 0.000000000000000000e+00
2.353458019800000134e+00 -5.271665449510000201e+01 6.684999999999999432e+01 0.000000000000000000e+00 0.000000000000000000e+00 0.000000000000000000e+00
2.779435036599999798e+00 -5.184277718100000243e+01 6.681999999999999318e+01 0.000000000000000000e+00 0.000000000000000000e+00 0.000000000000000000e+00
-1.999481000000000064e+00 7.700199999999999534e+01 3.670000000000000284e+01 0.000000000000000000e+00 0.000000000000000000e+00 0.000000000000000000e+00
-6.658991568000000028e-01 -5.480518033900000319e+01 6.603533333330000232e+01 0.000000000000000000e+00 0.000000000000000000e+00 0.000000000000000000e+00
2.864956580999999947e+00 -5.207458805969999815e+01 6.607857142860000010e+01 0.000000000000000000e+00 0.000000000000000000e+00 0.000000000000000000e+00
-2.784861799999999832e+00 6.533483999999999980e+01 6.957599999999999341e+01 0.000000000000000000e+00 0.000000000000000000e+00 0.000000000000000000e+00
3.464208264699999873e+00 -5.185333406979999893e+01 6.591833333329999789e+01 0.000000000000000000e+00 0.000000000000000000e+00 0.000000000000000000e+00
-2.502850972200000079e+00 -5.134084455219999654e+01 7.023333333329999562e+01 0.000000000000000000e+00 0.000000000000000000e+00 0.000000000000000000e+00
1.830000000000000071e+00 9.279999999999999361e+00 1.137079999999999984e+02 0.000000000000000000e+00 0.000000000000000000e+00 0.000000000000000000e+00
-6.928900219000000416e-01 -5.511931872360000284e+01 6.540809090909999668e+01 0.000000000000000000e+00 0.000000000000000000e+00 0.000000000000000000e+00
3.255704789999999682e-02 -5.505098660640000219e+01 6.534550000000000125e+01 0.000000000000000000e+00 0.000000000000000000e+00 0.000000000000000000e+00
7.705935403000000461e-01 -5.509372600140000031e+01 6.538008333330000710e+01 0.000000000000000000e+00 0.000000000000000000e+00 0.000000000000000000e+00
2.200695799100000016e+00 -5.507819086239999962e+01 6.540219999999999345e+01 0.000000000000000000e+00 0.000000000000000000e+00 0.000000000000000000e+00
2.421973078600000218e+00 -5.274428026199999664e+01 6.534999999999999432e+01 0.000000000000000000e+00 0.000000000000000000e+00 0.000000000000000000e+00
2.672511493700000074e+00 -5.261418782829999685e+01 6.534999999999999432e+01 0.000000000000000000e+00 0.000000000000000000e+00 0.000000000000000000e+00
-1.339186566299999992e+00 -5.555280720390000226e+01 6.472269230770000092e+01 0.000000000000000000e+00 0.000000000000000000e+00 0.000000000000000000e+00
1.429722697999999959e+00 -5.556513031419999749e+01 6.472461538459999986e+01 0.000000000000000000e+00 0.000000000000000000e+00 0.000000000000000000e+00
2.463323144899999928e+00 -5.505069182719999787e+01 6.470000000000000284e+01 0.000000000000000000e+00 0.000000000000000000e+00 0.000000000000000000e+00
2.501895819800000087e+00 -5.480366407319999666e+01 6.490000000000000568e+01 0.000000000000000000e+00 0.000000000000000000e+00 0.000000000000000000e+00
2.354989612999999871e+00 -5.357807601759999727e+01 6.475000000000000000e+01 0.000000000000000000e+00 0.000000000000000000e+00 0.000000000000000000e+00
2.873124821699999831e+00 -5.263511381690000235e+01 6.475000000000000000e+01 0.000000000000000000e+00 0.000000000000000000e+00 0.000000000000000000e+00
1.451597999999999944e+00 7.704014999999999702e+01 2.548000000000000043e+01 0.000000000000000000e+00 0.000000000000000000e+00 0.000000000000000000e+00
-1.329987802200000013e+00 -5.604197579840000287e+01 6.386545454550000045e+01 0.000000000000000000e+00 0.000000000000000000e+00 0.000000000000000000e+00
-1.342459804199999995e+00 -5.574078740520000252e+01 6.421742857140000638e+01 0.000000000000000000e+00 0.000000000000000000e+00 0.000000000000000000e+00
2.645615570000000097e-02 -5.569991887049999946e+01 6.405431578949999505e+01 0.000000000000000000e+00 0.000000000000000000e+00 0.000000000000000000e+00
4.184694000000000358e+00 -6.662765000000000271e+01 1.700000000000000000e+01 0.000000000000000000e+00 0.000000000000000000e+00 0.000000000000000000e+00
2.348286771100000170e+00 -5.421608379380000287e+01 6.400000000000000000e+01 0.000000000000000000e+00 0.000000000000000000e+00 0.000000000000000000e+00
3.634331642199999823e+00 -5.229139178490000006e+01 6.422499999999999432e+01 0.000000000000000000e+00 0.000000000000000000e+00 0.000000000000000000e+00
1.444563525700000017e+00 -5.605706705960000136e+01 6.381455555560000192e+01 0.000000000000000000e+00 0.000000000000000000e+00 0.000000000000000000e+00
-1.305343767299999902e+00 -5.627507878729999646e+01 6.326453846150000260e+01 0.000000000000000000e+00 0.000000000000000000e+00 0.000000000000000000e+00
7.793562519000000188e-01 -5.618247966820000272e+01 6.324423076920000142e+01 0.000000000000000000e+00 0.000000000000000000e+00 0.000000000000000000e+00
1.401287686999999949e+00 -5.627559375810000120e+01 6.326891666670000092e+01 0.000000000000000000e+00 0.000000000000000000e+00 0.000000000000000000e+00
2.108156593299999937e+00 -5.622458153710000062e+01 6.330330769230000243e+01 0.000000000000000000e+00 0.000000000000000000e+00 0.000000000000000000e+00
2.352218991900000056e+00 -5.407681133509999682e+01 6.320000000000000284e+01 0.000000000000000000e+00 0.000000000000000000e+00 0.000000000000000000e+00
2.370552149399999919e+00 -5.380901090519999741e+01 6.339999999999999858e+01 0.000000000000000000e+00 0.000000000000000000e+00 0.000000000000000000e+00
-1.325640289000000083e+00 -5.674187678119999845e+01 6.256000000000000227e+01 0.000000000000000000e+00 0.000000000000000000e+00 0.000000000000000000e+00
-1.336037926599999981e+00 -5.650425046550000019e+01 6.275366666669999915e+01 0.000000000000000000e+00 0.000000000000000000e+00 0.000000000000000000e+00
-6.932078187000000336e-01 -5.644703323070000067e+01 6.269924999999999926e+01 0.000000000000000000e+00 0.000000000000000000e+00 0.000000000000000000e+00
2.467833779099999791e+00 -5.562855433800000071e+01 6.264999999999999858e+01 0.000000000000000000e+00 0.000000000000000000e+00 0.000000000000000000e+00
2.428512985099999799e+00 -5.408346096729999886e+01 6.264999999999999858e+01 0.000000000000000000e+00 0.000000000000000000e+00 0.000000000000000000e+00
3.454388326700000178e+00 -5.329343601219999726e+01 6.257480000000000331e+01 0.000000000000000000e+00 0.000000000000000000e+00 0.000000000000000000e+00
3.590004807100000139e+00 -5.302142685230000296e+01 6.264999999999999858e+01 0.000000000000000000e+00 0.000000000000000000e+00 0.000000000000000000e+00
-2.508167251700000211e+00 -4.569096075310000060e+01 7.945000000000000284e+01 0.000000000000000000e+00 0.000000000000000000e+00 0.000000000000000000e+00
-3.308857644700000211e+00 5.485738287840000282e+01 8.561416666670000097e+01 0.000000000000000000e+00 0.000000000000000000e+00 0.000000000000000000e+00
-6.609355367999999453e-01 -5.671661348330000152e+01 6.250000000000000000e+01 0.000000000000000000e+00 0.000000000000000000e+00 0.000000000000000000e+00
8.316955418999999461e-01 -5.667717342560000304e+01 6.250000000000000000e+01 0.000000000000000000e+00 0.000000000000000000e+00 0.000000000000000000e+00
2.012232610599999916e+00 -5.672684935979999921e+01 6.252949999999999875e+01 0.000000000000000000e+00 0.000000000000000000e+00 0.000000000000000000e+00
2.542096604800000215e+00 -5.628289817840000353e+01 6.264900000000000091e+01 0.000000000000000000e+00 0.000000000000000000e+00 0.000000000000000000e+00
-7.547331064000000200e-01 -5.677114503579999649e+01 6.204999999999999716e+01 0.000000000000000000e+00 0.000000000000000000e+00 0.000000000000000000e+00
1.452829624400000075e+00 -5.688277286560000334e+01 6.197500000000000142e+01 0.000000000000000000e+00 0.000000000000000000e+00 0.000000000000000000e+00
2.015742456899999979e+00 -5.683669329210000143e+01 6.198571428569999853e+01 0.000000000000000000e+00 0.000000000000000000e+00 0.000000000000000000e+00
2.449906050600000107e+00 -5.417252303549999937e+01 6.189999999999999858e+01 0.000000000000000000e+00 0.000000000000000000e+00 0.000000000000000000e+00
2.740341043399999954e+00 -5.395614555939999946e+01 6.185714285710000127e+01 0.000000000000000000e+00 0.000000000000000000e+00 0.000000000000000000e+00
3.002410419499999872e+00 -5.365616703460000281e+01 6.193750000000000000e+01 0.000000000000000000e+00 0.000000000000000000e+00 0.000000000000000000e+00
3.546250745700000095e+00 -5.340257917280000299e+01 6.192307692309999823e+01 0.000000000000000000e+00 0.000000000000000000e+00 0.000000000000000000e+00
2.017525079599999938e+00 -5.460034475759999850e+01 5.972500000000000142e+01 0.000000000000000000e+00 0.000000000000000000e+00 0.000000000000000000e+00
3.790143105299999871e+00 5.451811736959999877e+01 8.519642857140000558e+01 0.000000000000000000e+00 0.000000000000000000e+00 0.000000000000000000e+00
9.513000000000000622e-02 6.501975000000000193e+01 7.107999999999999829e+01 0.000000000000000000e+00 0.000000000000000000e+00 0.000000000000000000e+00
2.614270009999999922e-02 -5.642756878800000209e+01 6.178000000000000114e+01 0.000000000000000000e+00 0.000000000000000000e+00 0.000000000000000000e+00
-1.344990930200000046e+00 -5.618471854810000110e+01 6.129999999999999716e+01 0.000000000000000000e+00 0.000000000000000000e+00 0.000000000000000000e+00
-6.865847967000000551e-01 -5.558871823970000037e+01 6.117142857139999990e+01 0.000000000000000000e+00 0.000000000000000000e+00 0.000000000000000000e+00
3.189531000000000116e+00 -4.316174999999999784e+01 8.170000000000000284e+01 0.000000000000000000e+00 0.000000000000000000e+00 0.000000000000000000e+00
1.968105259099999893e+00 -5.621205553960000145e+01 6.129999999999999716e+01 0.000000000000000000e+00 0.000000000000000000e+00 0.000000000000000000e+00
2.376130691599999789e+00 -5.488954837890000249e+01 6.114999999999999858e+01 0.000000000000000000e+00 0.000000000000000000e+00 0.000000000000000000e+00
2.797534283600000116e+00 -5.413963861839999936e+01 6.113333333330000130e+01 0.000000000000000000e+00 0.000000000000000000e+00 0.000000000000000000e+00
-2.544999999999999929e+00 6.353000000000000114e+01 7.872950000000000159e+01 0.000000000000000000e+00 0.000000000000000000e+00 0.000000000000000000e+00
-1.275568903599999970e+00 -5.483400008150000104e+01 6.051250000000000284e+01 0.000000000000000000e+00 0.000000000000000000e+00 0.000000000000000000e+00
-6.679452565000000286e-01 -5.473778625690000155e+01 6.057142857139999848e+01 0.000000000000000000e+00 0.000000000000000000e+00 0.000000000000000000e+00
7.828617328000000430e-01 -5.484788810759999933e+01 6.056666666670000154e+01 0.000000000000000000e+00 0.000000000000000000e+00 0.000000000000000000e+00
1.700195829000000103e+00 -5.527061971380000216e+01 6.070000000000000284e+01 0.000000000000000000e+00 0.000000000000000000e+00 0.000000000000000000e+00
2.854201725899999875e+00 -5.419522788839999805e+01 6.054999999999999716e+01 0.000000000000000000e+00 0.000000000000000000e+00 0.000000000000000000e+00
1.451298999999999895e+00 7.701715000000000089e+01 3.325000000000000000e+01 0.000000000000000000e+00 0.000000000000000000e+00 0.000000000000000000e+00
2.458265080000000130e-02 -5.466993005629999658e+01 5.978125000000000000e+01 0.000000000000000000e+00 0.000000000000000000e+00 0.000000000000000000e+00
-2.129449258599999784e+00 -5.444080298429999942e+01 5.985454545449999841e+01 0.000000000000000000e+00 0.000000000000000000e+00 0.000000000000000000e+00
2.658160761600000033e+00 -5.453412062499999990e+01 5.950000000000000000e+01 0.000000000000000000e+00 0.000000000000000000e+00 0.000000000000000000e+00
-2.698434963900000039e+00 -5.465254752690000117e+01 5.902857142860000295e+01 0.000000000000000000e+00 0.000000000000000000e+00 0.000000000000000000e+00
4.797749989999999798e-02 -5.495076520359999961e+01 5.904999999999999716e+01 0.000000000000000000e+00 0.000000000000000000e+00 0.000000000000000000e+00
8.088861505000000118e-01 -5.491795230280000339e+01 5.904999999999999716e+01 0.000000000000000000e+00 0.000000000000000000e+00 0.000000000000000000e+00
2.154908692399999826e+00 -5.482739295750000252e+01 5.904999999999999716e+01 0.000000000000000000e+00 0.000000000000000000e+00 0.000000000000000000e+00
8.475793590500000363e+00 -5.975158607889999729e+01 3.247272727269999848e+01 0.000000000000000000e+00 0.000000000000000000e+00 0.000000000000000000e+00
2.896733726099999906e+00 -5.467389390409999805e+01 5.898571428569999853e+01 0.000000000000000000e+00 0.000000000000000000e+00 0.000000000000000000e+00
-2.597666820000000057e-02 6.228834532909999666e+01 8.020928571429999465e+01 0.000000000000000000e+00 0.000000000000000000e+00 0.000000000000000000e+00
-2.799423753300000151e+00 -5.478145901770000137e+01 5.845000000000000284e+01 0.000000000000000000e+00 0.000000000000000000e+00 0.000000000000000000e+00
-6.451297499999999463e-01 6.577875000000000227e+01 6.954999999999999716e+01 0.000000000000000000e+00 0.000000000000000000e+00 0.000000000000000000e+00
-4.081742271200000438e+00 -4.763579120069999817e+01 7.366657142859999396e+01 0.000000000000000000e+00 0.000000000000000000e+00 0.000000000000000000e+00
5.098596539999999955e-02 -5.530041240959999982e+01 5.839999999999999858e+01 0.000000000000000000e+00 0.000000000000000000e+00 0.000000000000000000e+00
4.379402999999999935e+00 -6.703725000000000023e+01 1.150000000000000000e+01 0.000000000000000000e+00 0.000000000000000000e+00 0.000000000000000000e+00
2.875978455099999831e+00 -5.479269417670000308e+01 5.843333333329999846e+01 0.000000000000000000e+00 0.000000000000000000e+00 0.000000000000000000e+00
4.005031665499999782e+00 -5.462060749860000186e+01 5.839999999999999858e+01 0.000000000000000000e+00 0.000000000000000000e+00 0.000000000000000000e+00
-1.169999999999999929e+00 7.405000000000000249e+00 1.127840000000000060e+02 0.000000000000000000e+00 0.000000000000000000e+00 0.000000000000000000e+00
-5.756786114999999926e-01 -5.529937951440000177e+01 5.829999999999999716e+01 0.000000000000000000e+00 0.000000000000000000e+00 0.000000000000000000e+00
-1.429518141800000031e+00 5.627591420249999743e+01 8.838709090909999588e+01 0.000000000000000000e+00 0.000000000000000000e+00 0.000000000000000000e+00
2.099334979500000031e+00 -5.525034837660000164e+01 5.829999999999999716e+01 0.000000000000000000e+00 0.000000000000000000e+00 0.000000000000000000e+00
-7.889022773399999799e+00 -6.549338760729999365e+01 2.335000000000000142e+01 0.000000000000000000e+00 0.000000000000000000e+00 0.000000000000000000e+00
5.136734999999999829e+00 -6.648300000000000409e+01 1.689999999999999858e+01 0.000000000000000000e+00 0.000000000000000000e+00 0.000000000000000000e+00
1.455000000000000071e+00 5.053000000000000114e+01 9.609050000000000580e+01 0.000000000000000000e+00 0.000000000000000000e+00 0.000000000000000000e+00
-7.795151519800000095e+00 -6.686804137369999523e+01 1.225000000000000000e+01 0.000000000000000000e+00 0.000000000000000000e+00 0.000000000000000000e+00
2.148083999999999882e+00 -6.557099999999999795e+01 2.410000000000000142e+01 0.000000000000000000e+00 0.000000000000000000e+00 0.000000000000000000e+00
-1.169999999999999929e+00 1.252999999999999936e+01 1.098829999999999956e+02 0.000000000000000000e+00 0.000000000000000000e+00 0.000000000000000000e+00
1.455000000000000071e+00 -3.470000000000000195e+00 1.120024999999999977e+02 0.000000000000000000e+00 0.000000000000000000e+00 0.000000000000000000e+00
-2.301872862899999816e+00 7.429902964300000079e+00 1.101099999999999994e+02 0.000000000000000000e+00 0.000000000000000000e+00 0.000000000000000000e+00
-6.199999999999999956e-01 1.377999999999999936e+01 1.097737999999999943e+02 0.000000000000000000e+00 0.000000000000000000e+00 0.000000000000000000e+00
-2.081458500000000100e+00 -6.778889999999999816e+01 6.400000000000000355e+00 0.000000000000000000e+00 0.000000000000000000e+00 0.000000000000000000e+00
-2.340149999999999952e+00 -4.452710700000000088e+01 8.140000000000000568e+01 0.000000000000000000e+00 0.000000000000000000e+00 0.000000000000000000e+00
1.413333333299999994e+00 -2.303333333299999897e+00 1.120229999999999961e+02 0.000000000000000000e+00 0.000000000000000000e+00 0.000000000000000000e+00
1.525522499999999892e+00 -6.729869999999999663e+01 1.150000000000000000e+01 0.000000000000000000e+00 0.000000000000000000e+00 0.000000000000000000e+00
-2.508116883900000094e+00 -4.585148248189999975e+01 8.154999999999999716e+01 0.000000000000000000e+00 0.000000000000000000e+00 0.000000000000000000e+00
2.885994129899999816e+00 5.161405534949999918e+01 8.930837499999999807e+01 0.000000000000000000e+00 0.000000000000000000e+00 0.000000000000000000e+00
9.879000000000000281e-02 7.684170000000000300e+01 3.745000000000000284e+01 0.000000000000000000e+00 0.000000000000000000e+00 0.000000000000000000e+00
-2.905866490399999780e+00 -1.803850248410000034e+01 1.047810000000000059e+02 0.000000000000000000e+00 0.000000000000000000e+00 0.000000000000000000e+00
-2.550374353600000088e+00 -5.484619018210000263e+01 6.475000000000000000e+01 0.000000000000000000e+00 0.000000000000000000e+00 0.000000000000000000e+00
-6.344466778500000181e+00 -6.510540486780000435e+01 5.000000000000000000e+00 0.000000000000000000e+00 0.000000000000000000e+00 0.000000000000000000e+00
7.749958345499999623e+00 -6.388732664140000139e+01 1.773999999999999844e+01 0.000000000000000000e+00 0.000000000000000000e+00 0.000000000000000000e+00
-4.939082261000000251e+00 -6.493694988119999323e+01 4.500000000000000000e+00 0.000000000000000000e+00 0.000000000000000000e+00 0.000000000000000000e+00
-2.506657618699999812e+00 -4.718421236830000254e+01 7.795000000000000284e+01 0.000000000000000000e+00 0.000000000000000000e+00 0.000000000000000000e+00
-6.700000000000000400e-01 4.874875000000000114e+01 9.552424999999999500e+01 0.000000000000000000e+00 0.000000000000000000e+00 0.000000000000000000e+00
-3.343938597799999801e+00 -1.566559936109999995e+01 1.057910624999999953e+02 0.000000000000000000e+00 0.000000000000000000e+00 0.000000000000000000e+00
-2.570942426499999822e+00 2.520870381099999946e+00 1.100694545454999940e+02 0.000000000000000000e+00 0.000000000000000000e+00 0.000000000000000000e+00
2.580000000000000071e+00 -5.371999999999999886e+01 6.842300000000000182e+01 0.000000000000000000e+00 0.000000000000000000e+00 0.000000000000000000e+00
7.669691251000000376e-01 5.350676827459999885e+01 9.201699999999999591e+01 0.000000000000000000e+00 0.000000000000000000e+00 0.000000000000000000e+00
-6.875052750000000046e+00 -6.723375000000000057e+01 1.284999999999999964e+01 0.000000000000000000e+00 0.000000000000000000e+00 0.000000000000000000e+00
7.703262993600000108e+00 -6.336648394859999911e+01 2.275000000000000000e+01 0.000000000000000000e+00 0.000000000000000000e+00 0.000000000000000000e+00
-2.036019570600000161e+00 -4.197009210939999946e+01 8.412366666670000370e+01 0.000000000000000000e+00 0.000000000000000000e+00 0.000000000000000000e+00
-2.065626366700000105e+00 -5.483222612029999965e+01 6.607857142860000010e+01 0.000000000000000000e+00 0.000000000000000000e+00 0.000000000000000000e+00
-2.731992405799999801e+00 -4.584948579630000154e+01 7.796985714289999692e+01 0.000000000000000000e+00 0.000000000000000000e+00 0.000000000000000000e+00
-2.520576166700000176e+00 -5.565493719909999726e+01 6.325000000000000000e+01 0.000000000000000000e+00 0.000000000000000000e+00 0.000000000000000000e+00
-2.263174999999999937e+00 -8.070355499999999793e+00 1.090095000000000027e+02 0.000000000000000000e+00 0.000000000000000000e+00 0.000000000000000000e+00
2.841855428600000177e+00 -6.660876428570000485e+01 1.561428571429999934e+01 0.000000000000000000e+00 0.000000000000000000e+00 0.000000000000000000e+00
7.129486810000000563e-02 5.494234596540000126e+01 8.991617647060000706e+01 0.000000000000000000e+00 0.000000000000000000e+00 0.000000000000000000e+00
-2.074984499999999787e+00 -6.729089999999999350e+01 1.059999999999999964e+01 0.000000000000000000e+00 0.000000000000000000e+00 0.000000000000000000e+00
-4.055039794899999883e+00 5.485279194879999665e+01 8.485877777780000031e+01 0.000000000000000000e+00 0.000000000000000000e+00 0.000000000000000000e+00
5.747752499999999820e+00 -6.564329999999999643e+01 2.410000000000000142e+01 0.000000000000000000e+00 0.000000000000000000e+00 0.000000000000000000e+00
-4.122775908600000427e+00 5.350421534539999868e+01 8.633974999999999511e+01 0.000000000000000000e+00 0.000000000000000000e+00 0.000000000000000000e+00
-6.862387499999999640e+00 -6.625950000000000273e+01 5.500000000000000000e+00 0.000000000000000000e+00 0.000000000000000000e+00 0.000000000000000000e+00
1.541870000000000074e+00 -6.604120000000000346e+01 1.989999999999999858e+01 0.000000000000000000e+00 0.000000000000000000e+00 0.000000000000000000e+00
-5.450000000000000400e-01 1.002999999999999936e+01 1.133944999999999936e+02 0.000000000000000000e+00 0.000000000000000000e+00 0.000000000000000000e+00
-2.262909958699999891e+00 -1.722118957569999864e+01 1.072600000000000051e+02 0.000000000000000000e+00 0.000000000000000000e+00 0.000000000000000000e+00
9.160479994899999312e+00 -6.247526347029999982e+01 1.434999999999999964e+01 0.000000000000000000e+00 0.000000000000000000e+00 0.000000000000000000e+00
-1.363612199999999941e+00 6.323951999999999884e+01 7.930719999999999459e+01 0.000000000000000000e+00 0.000000000000000000e+00 0.000000000000000000e+00
-3.446360331500000207e+00 -5.352215631109999805e+01 6.119718181820000069e+01 0.000000000000000000e+00 0.000000000000000000e+00 0.000000000000000000e+00
9.136883256400000874e+00 -6.112419953500000247e+01 2.335000000000000142e+01 0.000000000000000000e+00 0.000000000000000000e+00 0.000000000000000000e+00
-2.169999999999999929e+00 -4.559499999999999886e+01 7.878650000000000375e+01 0.000000000000000000e+00 0.000000000000000000e+00 0.000000000000000000e+00
-3.371330497399999793e+00 4.535209287199999828e+00 1.093912857142999968e+02 0.000000000000000000e+00 0.000000000000000000e+00 0.000000000000000000e+00
-7.257839999999999847e-01 -6.736995000000000289e+01 1.015000000000000036e+01 0.000000000000000000e+00 0.000000000000000000e+00 0.000000000000000000e+00
-2.421476565599999908e+00 -5.325448503949999690e+01 6.879999999999999716e+01 0.000000000000000000e+00 0.000000000000000000e+00 0.000000000000000000e+00
-2.357549999999999812e+00 -4.932769199999999898e+01 7.600000000000000000e+01 0.000000000000000000e+00 0.000000000000000000e+00 0.000000000000000000e+00
3.300000000000000155e-01 2.779999999999999805e+00 1.127030000000000030e+02 0.000000000000000000e+00 0.000000000000000000e+00 0.000000000000000000e+00
-8.771242499999999609e+00 -6.306915000000000049e+01 1.225000000000000000e+01 0.000000000000000000e+00 0.000000000000000000e+00 0.000000000000000000e+00
-2.552661554100000174e+00 1.851703327699999901e+00 1.099961111111000065e+02 0.000000000000000000e+00 0.000000000000000000e+00 0.000000000000000000e+00
4.686734999999999651e+00 -6.647714999999999463e+01 1.839999999999999858e+01 0.000000000000000000e+00 0.000000000000000000e+00 0.000000000000000000e+00
7.757270761000000237e-01 5.505240955499999700e+01 8.994400000000000261e+01 0.000000000000000000e+00 0.000000000000000000e+00 0.000000000000000000e+00
-2.050551000000000013e+00 -6.541140000000000043e+01 4.900000000000000355e+00 0.000000000000000000e+00 0.000000000000000000e+00 0.000000000000000000e+00
1.892500000000000071e+00 -1.078250000000000064e+01 1.108182500000000061e+02 0.000000000000000000e+00 0.000000000000000000e+00 0.000000000000000000e+00
-8.870995244299999527e+00 -6.097246674520000198e+01 2.610000000000000142e+01 0.000000000000000000e+00 0.000000000000000000e+00 0.000000000000000000e+00
-4.756615499999999663e+00 -6.584279999999999688e+01 2.200000000000000000e+01 0.000000000000000000e+00 0.000000000000000000e+00 0.000000000000000000e+00
-1.999367249999999929e+00 7.701075000000000159e+01 3.804999999999999716e+01 0.000000000000000000e+00 0.000000000000000000e+00 0.000000000000000000e+00
1.551687000000000038e+00 -1.912440000000000140e+01 1.042000000000000028e+02 0.000000000000000000e+00 0.000000000000000000e+00 0.000000000000000000e+00
-8.006746506500000748e+00 -6.581753490180000199e+01 1.705000000000000071e+01 0.000000000000000000e+00 0.000000000000000000e+00 0.000000000000000000e+00
2.893625000000000114e+00 -6.592374999999999829e+01 2.125000000000000000e+01 0.000000000000000000e+00 0.000000000000000000e+00 0.000000000000000000e+00
2.122051499999999979e+00 -6.757349999999999568e+01 6.099999999999999645e+00 0.000000000000000000e+00 0.000000000000000000e+00 0.000000000000000000e+00
8.480000000000000426e+00 -6.127000000000000313e+01 3.054739999999999966e+01 0.000000000000000000e+00 0.000000000000000000e+00 0.000000000000000000e+00
-2.560113335300000070e+00 5.228386643089999808e+01 9.265000000000000568e+01 0.000000000000000000e+00 0.000000000000000000e+00 0.000000000000000000e+00
-2.386350000000000193e+00 -4.542665850000000205e+01 8.065000000000000568e+01 0.000000000000000000e+00 0.000000000000000000e+00 0.000000000000000000e+00
1.404336999999999946e+00 5.995380000000000109e+01 8.369033333330000346e+01 0.000000000000000000e+00 0.000000000000000000e+00 0.000000000000000000e+00
2.827748999999999846e+00 -6.637497000000000469e+01 1.701999999999999957e+01 0.000000000000000000e+00 0.000000000000000000e+00 0.000000000000000000e+00
-6.512685000000000279e-01 7.684695000000000675e+01 2.755000000000000071e+01 0.000000000000000000e+00 0.000000000000000000e+00 0.000000000000000000e+00
2.760349000000000164e+00 7.384959999999999525e+01 4.089999999999999858e+01 0.000000000000000000e+00 0.000000000000000000e+00 0.000000000000000000e+00
-4.168263784799999705e+00 -6.613820731619999549e+01 1.857142857139999848e+01 0.000000000000000000e+00 0.000000000000000000e+00 0.000000000000000000e+00
-2.870474152499999931e+00 6.148617042840000124e+01 7.670000000000000284e+01 0.000000000000000000e+00 0.000000000000000000e+00 0.000000000000000000e+00
-3.638408627500000048e+00 -6.548748621999999742e+00 1.083898333333000039e+02 0.000000000000000000e+00 0.000000000000000000e+00 0.000000000000000000e+00
2.771856000000000098e+00 6.458092999999999506e+01 7.089180000000000348e+01 0.000000000000000000e+00 0.000000000000000000e+00 0.000000000000000000e+00
-6.963257858599999572e+00 -6.768445502170000339e+01 8.000000000000000000e+00 0.000000000000000000e+00 0.000000000000000000e+00 0.000000000000000000e+00
2.801935580799999936e+00 -6.160908544080000127e+01 3.377499999999999858e+01 0.000000000000000000e+00 0.000000000000000000e+00 0.000000000000000000e+00
-7.005562499999999915e+00 -6.573255000000000337e+01 2.544999999999999929e+01 0.000000000000000000e+00 0.000000000000000000e+00 0.000000000000000000e+00
3.440843992700000076e+00 -6.163326348750000250e+01 3.320000000000000284e+01 0.000000000000000000e+00 0.000000000000000000e+00 0.000000000000000000e+00
4.197689201900000278e+00 -6.155991804650000176e+01 3.320000000000000284e+01 0.000000000000000000e+00 0.000000000000000000e+00 0.000000000000000000e+00
4.317706151100000334e+00 -6.137987002530000069e+01 3.328000000000000114e+01 0.000000000000000000e+00 0.000000000000000000e+00 0.000000000000000000e+00
5.617112130699999817e+00 -6.091306897740000181e+01 3.325000000000000000e+01 0.000000000000000000e+00 0.000000000000000000e+00 0.000000000000000000e+00
1.466722124999999988e+00 6.698027500000000600e+01 7.450437499999999602e+01 0.000000000000000000e+00 0.000000000000000000e+00 0.000000000000000000e+00
-2.054866245499999966e+00 5.663331896119999698e+01 8.790000000000000568e+01 0.000000000000000000e+00 0.000000000000000000e+00 0.000000000000000000e+00
8.530879999999999574e-01 6.537911666669999988e+01 7.651433333330000153e+01 0.000000000000000000e+00 0.000000000000000000e+00 0.000000000000000000e+00
4.307810688900000073e+00 -6.160800096959999905e+01 3.243333333329999846e+01 0.000000000000000000e+00 0.000000000000000000e+00 0.000000000000000000e+00
5.610321175800000226e+00 -6.103682368569999994e+01 3.250000000000000000e+01 0.000000000000000000e+00 0.000000000000000000e+00 0.000000000000000000e+00
6.241575803399999955e+00 -6.094502258509999848e+01 3.239999999999999858e+01 0.000000000000000000e+00 0.000000000000000000e+00 0.000000000000000000e+00
7.551488287699999802e+00 -6.024648596730000349e+01 3.239999999999999858e+01 0.000000000000000000e+00 0.000000000000000000e+00 0.000000000000000000e+00
8.969030235199999979e+00 -5.954948958250000146e+01 3.243999999999999773e+01 0.000000000000000000e+00 0.000000000000000000e+00 0.000000000000000000e+00
9.188738041000000578e+00 -5.922129870260000217e+01 3.253000000000000114e+01 0.000000000000000000e+00 0.000000000000000000e+00 0.000000000000000000e+00
7.163782499999999942e+00 -6.635182500000000516e+01 1.922500000000000142e+01 0.000000000000000000e+00 0.000000000000000000e+00 0.000000000000000000e+00
-2.529602031300000053e+00 -5.273150002530000080e+01 6.609999999999999432e+01 0.000000000000000000e+00 0.000000000000000000e+00 0.000000000000000000e+00
3.576124533000000216e+00 -6.165503464039999670e+01 3.247500000000000142e+01 0.000000000000000000e+00 0.000000000000000000e+00 0.000000000000000000e+00
6.719664025900000226e+00 -6.085223780180000119e+01 3.220000000000000284e+01 0.000000000000000000e+00 0.000000000000000000e+00 0.000000000000000000e+00
3.592106468799999952e+00 -6.177890525179999770e+01 3.175000000000000000e+01 0.000000000000000000e+00 0.000000000000000000e+00 0.000000000000000000e+00
4.310357517999999999e+00 -6.166367743589999861e+01 3.176666666670000083e+01 0.000000000000000000e+00 0.000000000000000000e+00 0.000000000000000000e+00
4.984634251100000135e+00 -6.142023728659999904e+01 3.177142857140000132e+01 0.000000000000000000e+00 0.000000000000000000e+00 0.000000000000000000e+00
6.770960733799999964e+00 -6.090488579069999986e+01 3.175000000000000000e+01 0.000000000000000000e+00 0.000000000000000000e+00 0.000000000000000000e+00
7.646167618499999818e+00 -6.031351716390000206e+01 3.172857142859999868e+01 0.000000000000000000e+00 0.000000000000000000e+00 0.000000000000000000e+00
8.537441622099999350e+00 -5.983501325969999840e+01 3.175000000000000000e+01 0.000000000000000000e+00 0.000000000000000000e+00 0.000000000000000000e+00
9.049693167399999183e+00 -5.958545526319999652e+01 3.171999999999999886e+01 0.000000000000000000e+00 0.000000000000000000e+00 0.000000000000000000e+00
9.287164860500000785e+00 -5.931124613400000101e+01 3.178000000000000114e+01 0.000000000000000000e+00 0.000000000000000000e+00 0.000000000000000000e+00
-6.169999999999999929e+00 -6.259499999999999886e+01 3.081575000000000131e+01 0.000000000000000000e+00 0.000000000000000000e+00 0.000000000000000000e+00
4.898514753599999771e+00 -6.156266374220000159e+01 3.160000000000000142e+01 0.000000000000000000e+00 0.000000000000000000e+00 0.000000000000000000e+00
3.610558346599999968e+00 -6.178758310490000127e+01 3.114999999999999858e+01 0.000000000000000000e+00 0.000000000000000000e+00 0.000000000000000000e+00
7.032569868799999568e+00 -6.113525790730000153e+01 3.117620000000000147e+01 0.000000000000000000e+00 0.000000000000000000e+00 0.000000000000000000e+00
7.710116817700000347e+00 -6.037684473080000203e+01 3.112000000000000099e+01 0.000000000000000000e+00 0.000000000000000000e+00 0.000000000000000000e+00
8.587215680299999931e+00 -5.991225081289999821e+01 3.117142857139999990e+01 0.000000000000000000e+00 0.000000000000000000e+00 0.000000000000000000e+00
-2.171879172900000210e+00 -9.640337179000000312e-01 1.115384615385000018e+02 0.000000000000000000e+00 0.000000000000000000e+00 0.000000000000000000e+00
-6.700000000000000400e-01 -2.200000000000000011e-01 1.121353333332999966e+02 0.000000000000000000e+00 0.000000000000000000e+00 0.000000000000000000e+00
-2.469974999999999810e+00 -1.579556475000000049e+01 1.095250000000000057e+02 0.000000000000000000e+00 0.000000000000000000e+00 0.000000000000000000e+00
9.534371864900000659e+00 -5.944184403020000218e+01 3.100000000000000000e+01 0.000000000000000000e+00 0.000000000000000000e+00 0.000000000000000000e+00
6.384102967299999598e+00 -6.136768682550000165e+01 3.069999999999999929e+01 0.000000000000000000e+00 0.000000000000000000e+00 0.000000000000000000e+00
7.179344639299999997e+00 -6.109284991380000207e+01 3.057999999999999829e+01 0.000000000000000000e+00 0.000000000000000000e+00 0.000000000000000000e+00
9.103658233599999150e+00 -5.974126415140000290e+01 3.039999999999999858e+01 0.000000000000000000e+00 0.000000000000000000e+00 0.000000000000000000e+00
9.591600845100000328e+00 -5.950058056209999791e+01 3.039999999999999858e+01 0.000000000000000000e+00 0.000000000000000000e+00 0.000000000000000000e+00
-3.293486314099999923e+00 -4.837191342079999856e+01 7.307500000000000284e+01 0.000000000000000000e+00 0.000000000000000000e+00 0.000000000000000000e+00
7.797441457199999704e+00 -6.110005416629999786e+01 3.021999999999999886e+01 0.000000000000000000e+00 0.000000000000000000e+00 0.000000000000000000e+00
7.872575116100000159e+00 -6.397018095920000036e+01 3.010000000000000142e+01 0.000000000000000000e+00 0.000000000000000000e+00 0.000000000000000000e+00
7.805978350900000251e+00 -6.205560595429999893e+01 3.050328571429999869e+01 0.000000000000000000e+00 0.000000000000000000e+00 0.000000000000000000e+00
3.787651499999999949e+00 -6.639494999999999436e+01 1.705000000000000071e+01 0.000000000000000000e+00 0.000000000000000000e+00 0.000000000000000000e+00
7.821239694099999973e+00 -6.477734281959999407e+01 2.964999999999999858e+01 0.000000000000000000e+00 0.000000000000000000e+00 0.000000000000000000e+00
7.804307138299999558e+00 -6.397176876750000218e+01 2.969999999999999929e+01 0.000000000000000000e+00 0.000000000000000000e+00 0.000000000000000000e+00
7.645557423299999655e+00 -6.323560414029999777e+01 2.960000000000000142e+01 0.000000000000000000e+00 0.000000000000000000e+00 0.000000000000000000e+00
7.655145614500000306e+00 -6.245724945660000316e+01 2.964999999999999858e+01 0.000000000000000000e+00 0.000000000000000000e+00 0.000000000000000000e+00
7.741155431700000200e+00 -6.175732953189999819e+01 2.969999999999999929e+01 0.000000000000000000e+00 0.000000000000000000e+00 0.000000000000000000e+00
7.865061045900000103e+00 -6.131126606830000014e+01 2.960000000000000142e+01 0.000000000000000000e+00 0.000000000000000000e+00 0.000000000000000000e+00
8.514104405699999489e+00 -6.048223321839999755e+01 2.963333333330000130e+01 0.000000000000000000e+00 0.000000000000000000e+00 0.000000000000000000e+00
9.195417706900000709e+00 -5.986684593209999861e+01 2.966666666669999941e+01 0.000000000000000000e+00 0.000000000000000000e+00 0.000000000000000000e+00
5.136149999999999771e+00 -6.652800000000000580e+01 5.500000000000000000e+00 0.000000000000000000e+00 0.000000000000000000e+00 0.000000000000000000e+00
8.979733569200000431e+00 -6.016236957680000330e+01 2.950000000000000000e+01 0.000000000000000000e+00 0.000000000000000000e+00 0.000000000000000000e+00
7.845841176399999561e+00 -6.480259236530000067e+01 2.905000000000000071e+01 0.000000000000000000e+00 0.000000000000000000e+00 0.000000000000000000e+00
7.667145923699999699e+00 -6.332941546659999688e+01 2.905000000000000071e+01 0.000000000000000000e+00 0.000000000000000000e+00 0.000000000000000000e+00
7.648864385000000432e+00 -6.245080276400000230e+01 2.905000000000000071e+01 0.000000000000000000e+00 0.000000000000000000e+00 0.000000000000000000e+00
7.770340203499999987e+00 -6.171562897020000094e+01 2.905000000000000071e+01 0.000000000000000000e+00 0.000000000000000000e+00 0.000000000000000000e+00
8.278392713400000602e+00 -6.094729045399999734e+01 2.905000000000000071e+01 0.000000000000000000e+00 0.000000000000000000e+00 0.000000000000000000e+00
3.152458100100000049e+00 6.443895987470000364e+01 7.059999999999999432e+01 0.000000000000000000e+00 0.000000000000000000e+00 0.000000000000000000e+00
8.236784605900000500e+00 -6.369909743249999678e+01 1.075000000000000000e+01 0.000000000000000000e+00 0.000000000000000000e+00 0.000000000000000000e+00
7.829642774299999886e+00 -6.474297477839999715e+01 2.835999999999999943e+01 0.000000000000000000e+00 0.000000000000000000e+00 0.000000000000000000e+00
7.805260318300000222e+00 -6.411605532039999389e+01 2.830000000000000071e+01 0.000000000000000000e+00 0.000000000000000000e+00 0.000000000000000000e+00
8.049329646500000379e+00 -6.116676845300000309e+01 2.830000000000000071e+01 0.000000000000000000e+00 0.000000000000000000e+00 0.000000000000000000e+00
8.357780475600000258e+00 -6.102876948450000327e+01 2.830000000000000071e+01 0.000000000000000000e+00 0.000000000000000000e+00 0.000000000000000000e+00
8.563415123500000448e+00 -6.060417535989999749e+01 2.830000000000000071e+01 0.000000000000000000e+00 0.000000000000000000e+00 0.000000000000000000e+00
9.066159354599999887e+00 -6.030334093700000153e+01 2.827272727269999919e+01 0.000000000000000000e+00 0.000000000000000000e+00 0.000000000000000000e+00
9.289492835600000831e+00 -5.999334202109999836e+01 2.837500000000000000e+01 0.000000000000000000e+00 0.000000000000000000e+00 0.000000000000000000e+00
-4.107524832000000181e+00 -6.608395313430000328e+01 1.914999999999999858e+01 0.000000000000000000e+00 0.000000000000000000e+00 0.000000000000000000e+00
-2.475842184199999796e+00 -4.509723279829999854e+01 8.212857142859999726e+01 0.000000000000000000e+00 0.000000000000000000e+00 0.000000000000000000e+00
-2.770331337200000021e+00 -4.391347122500000211e+01 8.096962499999999352e+01 0.000000000000000000e+00 0.000000000000000000e+00 0.000000000000000000e+00
-2.812120639100000208e+00 -5.416237700700000346e+01 6.051800000000000068e+01 0.000000000000000000e+00 0.000000000000000000e+00 0.000000000000000000e+00
-2.186651101299999844e+00 -3.860241428700000199e+00 1.109500000000000028e+02 0.000000000000000000e+00 0.000000000000000000e+00 0.000000000000000000e+00
5.960170000000000190e-01 -6.570985000000000298e+01 2.399999999999999911e+00 0.000000000000000000e+00 0.000000000000000000e+00 0.000000000000000000e+00
7.885239398599999561e+00 -6.462806603740000355e+01 2.755000000000000071e+01 0.000000000000000000e+00 0.000000000000000000e+00 0.000000000000000000e+00
7.778739571400000052e+00 -6.408883595199999661e+01 2.755000000000000071e+01 0.000000000000000000e+00 0.000000000000000000e+00 0.000000000000000000e+00
7.659817822599999992e+00 -6.332189432530000062e+01 2.755000000000000071e+01 0.000000000000000000e+00 0.000000000000000000e+00 0.000000000000000000e+00
8.060588260999999477e+00 -6.122365172399999977e+01 2.760000000000000142e+01 0.000000000000000000e+00 0.000000000000000000e+00 0.000000000000000000e+00
-2.602997999999999923e+00 6.519884999999999309e+01 7.000000000000000000e+01 0.000000000000000000e+00 0.000000000000000000e+00 0.000000000000000000e+00
7.678740712399999779e+00 -6.525756237429999373e+01 2.694999999999999929e+01 0.000000000000000000e+00 0.000000000000000000e+00 0.000000000000000000e+00
-3.431492091199999983e+00 -4.998665602450000023e+01 6.955046153850000223e+01 0.000000000000000000e+00 0.000000000000000000e+00 0.000000000000000000e+00
7.897801857700000205e+00 -6.464095942240000170e+01 2.694999999999999929e+01 0.000000000000000000e+00 0.000000000000000000e+00 0.000000000000000000e+00
7.765130240699999575e+00 -6.407486811820000128e+01 2.694999999999999929e+01 0.000000000000000000e+00 0.000000000000000000e+00 0.000000000000000000e+00
7.671333410099999917e+00 -6.333371326160000336e+01 2.694999999999999929e+01 0.000000000000000000e+00 0.000000000000000000e+00 0.000000000000000000e+00
7.870839876099999799e+00 -6.181877605060000036e+01 2.694999999999999929e+01 0.000000000000000000e+00 0.000000000000000000e+00 0.000000000000000000e+00
9.136019261499999544e+00 -6.045467894970000344e+01 2.694999999999999929e+01 0.000000000000000000e+00 0.000000000000000000e+00 0.000000000000000000e+00
9.624283320500000016e+00 -6.025066529349999911e+01 2.689999999999999858e+01 0.000000000000000000e+00 0.000000000000000000e+00 0.000000000000000000e+00
