3.315943609000000070e+00 -4.553354329350000285e+01 7.787051197069999375e+01 2.150482445388616215e-01 -8.346629060345506224e-01 5.070424891571836401e-01
4.140737790100000204e+00 -4.526513318399999974e+01 7.772136701770000400e+01 2.522285237534984681e-01 -8.271142708315246672e-01 5.022576577733444125e-01
-4.078236656899999701e+00 -4.474978464689999669e+01 7.843426160340000308e+01 -2.689767991980134276e-01 -8.193951425915653175e-01 5.062045849165532907e-01
-3.257992974500000027e+00 -4.504160987110000036e+01 7.858187993679999295e+01 -2.308719715013309859e-01 -8.278076590115149846e-01 5.113048136454061421e-01
-2.437229577900000166e+00 -4.526945039689999817e+01 7.869560481819999609e+01 -1.917202371488251900e-01 -8.350296927012647030e-01 5.157215944429995869e-01
-1.615949928300000060e+00 -4.543373236669999926e+01 7.877566198030000066e+01 -1.448766551493084753e-01 -8.417967104664333400e-01 5.199894739710027025e-01
-7.941574871000000035e-01 -4.553488192279999680e+01 7.882227715569999305e+01 -9.274839617647077927e-02 -8.470122229772192313e-01 5.234195536411321292e-01
2.814428429999999912e-02 -4.557332520759999994e+01 7.883567607710000402e+01 -6.514602458796947028e-03 -8.508134663133647413e-01 5.254274502675330139e-01
8.509519246000000203e-01 -4.554948836340000184e+01 7.881608447719999333e+01 7.915516797924204706e-02 -8.483159183722542851e-01 5.235404110652936982e-01
1.674261972500000084e+00 -4.546379753269999924e+01 7.876372808860000418e+01 1.308210914138092651e-01 -8.438324404803145828e-01 5.204158476010660728e-01
2.498070966699999840e+00 -4.531667885769999771e+01 7.867883264399999632e+01 1.769485647736217249e-01 -8.378457624641018064e-01 5.164336198830431490e-01
3.322375445800000104e+00 -4.510855848090000109e+01 7.856162387589999696e+01 2.153193894663910646e-01 -8.314270274894968171e-01 5.122173937692859891e-01
4.147171948499999594e+00 -4.483986254460000254e+01 7.841232751709999604e+01 2.524551361430352747e-01 -8.239125858381198819e-01 5.073799908673422010e-01
-4.071789711500000131e+00 -4.432293972829999973e+01 7.912438818850000644e+01 -2.683985264475690080e-01 -8.164295975421014262e-01 5.112777554891427823e-01
-3.251543707500000213e+00 -4.461447912570000085e+01 7.927185511599999757e+01 -2.303152018284790603e-01 -8.247837739893598696e-01 5.164171123913068318e-01
-2.430777989200000100e+00 -4.484203382470000321e+01 7.938542859160000376e+01 -1.911802338391717926e-01 -8.319519776156681923e-01 5.208704494695186593e-01
-1.609496017999999973e+00 -4.500602996770000175e+01 7.946533434779999538e+01 -1.443685875079643299e-01 -8.386595787227003607e-01 5.251740872868898569e-01
-7.877012552000000056e-01 -4.510689369699999673e+01 7.951179811740000503e+01 -9.227248500836914002e-02 -8.438178770422718467e-01 5.286370956471496685e-01
3.460283780000000114e-02 -4.514505115499999732e+01 7.952504563300000484e+01 -6.069991930699620078e-03 -8.475737417845646826e-01 5.306429189532950730e-01
8.574127997999999584e-01 -4.512092848399999667e+01 7.950530262729999720e+01 7.955901715485085013e-02 -8.450607460183402475e-01 5.287179761728179050e-01
1.680725169300000044e+00 -4.503495182649999862e+01 7.945279483279999511e+01 1.311757763698898349e-01 -8.405967704248564765e-01 5.255378057238676570e-01
2.504536485100000043e+00 -4.488754732480000342e+01 7.936774798230000272e+01 1.772506142197398660e-01 -8.346367105260620312e-01 5.215014680717201534e-01
3.328843285800000107e+00 -4.467914112110000247e+01 7.925038780849999398e+01 2.155834746831834514e-01 -8.282460137256281163e-01 5.172352522703108635e-01
4.153642110099999840e+00 -4.441015935800000136e+01 7.910094004379999433e+01 2.526739472993383973e-01 -8.207656309724792321e-01 5.123472019739334637e-01
-4.065307700299999993e+00 -4.389177768420000092e+01 7.981222794110000507e+01 -2.678154615604859679e-01 -8.135192704830616073e-01 5.161988716588316040e-01
-3.245059374699999832e+00 -4.418303125490000127e+01 7.995954346279999925e+01 -2.297544393025689191e-01 -8.218155623934788601e-01 5.213751806795677846e-01
-2.424291334799999920e+00 -4.441030012710000108e+01 8.007296553250000670e+01 -1.906371065872611570e-01 -8.289303657021652727e-01 5.258630452968833247e-01
-1.603007041999999993e+00 -4.457401044329999706e+01 8.015271988300000316e+01 -1.438584884545845988e-01 -8.355790486474867773e-01 5.302003288955249305e-01
-7.812099576000000045e-01 -4.467458834579999660e+01 8.019903224669999986e+01 -9.179581583214670160e-02 -8.406806534243526086e-01 5.336942637444348492e-01
4.109645709999999730e-02 -4.471245997700000174e+01 8.021212835650000272e+01 -5.626832631873425125e-03 -8.443915393139400649e-01 5.356969918616005799e-01
8.639087407000000107e-01 -4.468805147919999854e+01 8.019223394489999635e+01 7.995926674805178824e-02 -8.418633377770506909e-01 5.337346121135460031e-01
1.687223431799999895e+00 -4.460178899489999793e+01 8.013957474459999730e+01 1.315256989937297893e-01 -8.374187805473891633e-01 5.305004962210068120e-01
2.511037069199999916e+00 -4.445409866640000018e+01 8.005437648829999375e+01 1.775469481896001234e-01 -8.314852083708903496e-01 5.264118439482311507e-01
3.335346191599999788e+00 -4.424540663599999846e+01 7.993686490860000049e+01 2.158411075934788814e-01 -8.251223793518366323e-01 5.220973811135084519e-01
4.160147337499999765e+00 -4.397613904610000191e+01 7.978726573810000389e+01 2.528856589503942764e-01 -8.176758441049544190e-01 5.171605722253724835e-01
-4.058791560899999595e+00 -4.345641393649999884e+01 8.049784200160000580e+01 -2.672283721882303120e-01 -8.106664996050105820e-01 5.209691195414439813e-01
-3.238540913600000071e+00 -4.374738168030000196e+01 8.064500611740000124e+01 -2.291903632341389108e-01 -8.189054364684883458e-01 5.261802576332168524e-01
-2.417770552099999914e+00 -4.397436472580000100e+01 8.075827678129999754e+01 -1.900914378703537633e-01 -8.259673382767581673e-01 5.307006701977952101e-01
-1.596483937699999966e+00 -4.413778921520000154e+01 8.083787972589999526e+01 -1.433468151797083479e-01 -8.325576726725718579e-01 5.350695396412183946e-01
-7.746845316999999564e-01 -4.423808129089999852e+01 8.088404068389999679e+01 -9.131869765092388846e-02 -8.376031697626650230e-01 5.385924483901304294e-01
4.762420459999999744e-02 -4.427566709530000111e+01 8.089698538780000092e+01 -5.185171726553608647e-03 -8.412695042256160827e-01 5.405910980160070212e-01
8.704388097999999907e-01 -4.425097277079999714e+01 8.087693957039999759e+01 8.035613156081698738e-02 -8.387263055013779445e-01 5.385917531680091130e-01
1.693755822600000016e+00 -4.416442445959999930e+01 8.082412896430000160e+01 1.318712249625378363e-01 -8.343010143351239360e-01 5.353053311020385951e-01
2.517571781600000058e+00 -4.401644830429999899e+01 8.073877930209999931e+01 1.778380602805438859e-01 -8.283937267712973007e-01 5.311661300964273247e-01
3.341883225600000173e+00 -4.380747044710000182e+01 8.062111631659999489e+01 2.160928813267347648e-01 -8.220585261465275240e-01 5.268051311725314712e-01
4.166686693099999950e+00 -4.353791703040000272e+01 8.047136574030000133e+01 2.530909554137486528e-01 -8.146455537242395240e-01 5.218214158934867397e-01
-4.052242230800000122e+00 -4.301696390680000093e+01 8.118129151009999589e+01 -2.666379993455696984e-01 -8.078735222264004090e-01 5.255897158340347985e-01
-3.231989261899999910e+00 -4.330764582380000149e+01 8.132830422009999438e+01 -2.286236286902205705e-01 -8.160557034144571009e-01 5.308336136015233686e-01
-2.411216578699999946e+00 -4.353434304249999798e+01 8.144142347819999372e+01 -1.895437885475769191e-01 -8.230652676024692305e-01 5.353846444281972206e-01
-1.589927642699999977e+00 -4.369748170510000307e+01 8.152087501699999450e+01 -1.428340068663894735e-01 -8.295978898153344439e-01 5.397830931924750830e-01
-7.681259150000000480e-01 -4.379748795399999750e+01 8.156688456909999729e+01 -9.084142577041579014e-02 -8.345879259794604099e-01 5.433330738812985894e-01
5.418514289999999678e-02 -4.383478793159999753e+01 8.157967786720000447e+01 -4.745050396956300084e-03 -8.382101615420356477e-01 5.453266998638567342e-01
8.770020697000000531e-01 -4.380980778029999811e+01 8.155948064390000241e+01 8.074982436610939063e-02 -8.356521410791681870e-01 5.432908659039322741e-01
1.700321404100000100e+00 -4.372297364239999951e+01 8.150651863199999525e+01 1.322127129370500864e-01 -8.312458982990302836e-01 5.399537527407910487e-01
2.524139684700000164e+00 -4.357471166029999665e+01 8.142101756399999601e+01 1.781244327176604025e-01 -8.253646227764229737e-01 5.357657379285696297e-01
3.348453450300000078e+00 -4.336544797629999692e+01 8.130320317260000706e+01 2.163393742883163717e-01 -8.190567453193465797e-01 5.313598809464439299e-01
4.173259239500000106e+00 -4.309560873280000237e+01 8.115330119050000235e+01 2.532905031122810180e-01 -8.116769811572432936e-01 5.263310738428724767e-01
-4.045660647400000087e+00 -4.257354301680000219e+01 8.186263760699999636e+01 -2.660450573324233958e-01 -8.051424768001901322e-01 5.300619015936182121e-01
-3.225405356900000076e+00 -4.286393910710000199e+01 8.200949891119999791e+01 -2.280548664452866081e-01 -8.132685674811541698e-01 5.353365437159822715e-01
-2.404630352099999868e+00 -4.309035049890000124e+01 8.212246676339999851e+01 -1.889946978639164832e-01 -8.202264190833032931e-01 5.399163135311882966e-01
-1.583339094400000091e+00 -4.325320333469999667e+01 8.220176689630000055e+01 -1.423204847356656921e-01 -8.267020279831821528e-01 5.443423890834692136e-01
-7.615350452000000381e-01 -4.335292375689999744e+01 8.224762504260000640e+01 -9.036428191205853055e-02 -8.316373066975464301e-01 5.479175911242211150e-01
6.077833430000000037e-02 -4.338993790770000203e+01 8.226026693490000241e+01 -4.306504062021737633e-03 -8.352159185032046462e-01 5.499052859371438284e-01
8.835975828000000032e-01 -4.336467192960000006e+01 8.223991830580000340e+01 8.114055557551611009e-02 -8.326432189971869624e-01 5.478334419318513504e-01
1.706919238800000072e+00 -4.327755196489999889e+01 8.218680488799999750e+01 1.325505141803396958e-01 -8.282557445019150810e-01 5.444472269101072737e-01
2.530739841099999943e+00 -4.312900415600000059e+01 8.210115241420000132e+01 1.754113342949844279e-01 -8.243520682280293110e-01 5.382142058781280713e-01
3.355055928300000101e+00 -4.291945464519999831e+01 8.198318661700000121e+01 2.138006734278295462e-01 -8.179158124748220349e-01 5.341376187327175895e-01
4.179864038999999920e+00 -4.264932957490000121e+01 8.183313322899999775e+01 2.509275883382042216e-01 -8.104243563941146977e-01 5.293842725034036967e-01
-4.039047748299999796e+00 -4.212626668829999943e+01 8.254194143239999448e+01 -2.630957656921985022e-01 -8.034282431648304135e-01 5.341195335876696149e-01
-3.218790136199999985e+00 -4.241637695179999668e+01 8.268865133079999907e+01 -2.247704121673203825e-01 -8.109754158189260709e-01 5.401825031889248008e-01
-2.398012809799999978e+00 -4.264250251680000048e+01 8.280146777720000273e+01 -1.853393467479566015e-01 -8.172879628925631135e-01 5.456094869574437123e-01
-1.576719230499999957e+00 -4.280506952590000225e+01 8.288061650429999361e+01 -1.411962313343813613e-01 -8.204876414198664092e-01 5.539527547853089207e-01
-7.549128595999999858e-01 -4.290450412119999868e+01 8.292632324470000071e+01 -8.977945247256854944e-02 -8.234846555938017953e-01 5.601898534562040899e-01
6.740284150000000474e-02 -4.294123244530000250e+01 8.293881373119999978e+01 -3.857792585199173487e-03 -8.270398244703354163e-01 5.621300971985456751e-01
8.902244115999999874e-01 -4.291568064030000329e+01 8.291831369630000381e+01 8.144685580177367379e-02 -8.245271564886625937e-01 5.599297972895581621e-01
1.713548389200000077e+00 -4.282827484890000136e+01 8.286504887259999919e+01 1.285665974053250837e-01 -8.245680905967822660e-01 5.509610639611419725e-01
2.537371313099999970e+00 -4.267944121309999872e+01 8.277924499300000605e+01 1.721258562671096615e-01 -8.216669472632953664e-01 5.433563447493101606e-01
3.361689721899999928e+00 -4.246960587560000278e+01 8.266112778989999299e+01 2.108989477093156928e-01 -8.157798377662930367e-01 5.385395901408772668e-01
4.186500154299999998e+00 -4.219919497850000312e+01 8.251092299610000680e+01 2.483638150757589702e-01 -8.087606285828428110e-01 5.331244329566027229e-01
-4.032404471100000443e+00 -4.167525034300000186e+01 8.321926412669999706e+01 -2.603116211090284460e-01 -8.010328372606048131e-01 5.390586735651464734e-01
-3.212144537299999936e+00 -4.196507477969999655e+01 8.336582261930000470e+01 -2.219270351864961743e-01 -8.078701443015195993e-01 5.459800554961450336e-01
-2.391364889300000129e+00 -4.219091451799999959e+01 8.347848765979999541e+01 -1.824304193359659876e-01 -8.134361020466834846e-01 5.523050334624889368e-01
-1.570068988400000087e+00 -4.235319570019999702e+01 8.355748498110000355e+01 -1.377285703301996955e-01 -8.152097587872749740e-01 5.625512333048362512e-01
-7.482602958999999831e-01 -4.245234446869999800e+01 8.360304031569999950e+01 -8.919760303274705537e-02 -8.134284646236679128e-01 5.747851081519028682e-01
7.405772689999999547e-02 -4.248878696599999927e+01 8.361537939629999983e+01 -3.455479880277659375e-03 -8.169708816175340615e-01 5.766685688052247682e-01
8.968816186000000412e-01 -4.246294933429999929e+01 8.359472795550000512e+01 7.686447912794727721e-02 -8.180553478149139579e-01 5.699800871607793029e-01
1.720207917800000041e+00 -4.237525771600000013e+01 8.354131172610000533e+01 1.252826989834087412e-01 -8.198856414799350345e-01 5.586517521949324605e-01
2.544033163399999964e+00 -4.222613825349999672e+01 8.345535644059999925e+01 1.694724189019494731e-01 -8.182538681232919275e-01 5.493083892794579093e-01
3.368353893800000165e+00 -4.201601708919999822e+01 8.333708783170000345e+01 2.083660576832823130e-01 -8.129860837796555328e-01 5.437253107830699594e-01
4.193166647800000035e+00 -4.174532036530000312e+01 8.318673163210000610e+01 2.459585524486203045e-01 -8.065349993827350961e-01 5.375924899476093310e-01
-4.025731753099999644e+00 -4.122060940259999740e+01 8.389466683009999315e+01 -2.611426309720662475e-01 -7.986849263239931274e-01 5.421318241459590626e-01
-3.205469497699999781e+00 -4.151014801249999664e+01 8.404107391680000205e+01 -2.231148193362007814e-01 -8.050045113432364730e-01 5.497158485159506780e-01
-2.384687528100000176e+00 -4.173570192399999712e+01 8.415358755149999581e+01 -1.838914511584758549e-01 -8.100706111930255915e-01 5.567490808902946231e-01
-1.563389305500000104e+00 -4.189769727939999910e+01 8.423243346700000700e+01 -1.386780327006991720e-01 -8.104028035675486796e-01 5.692237690189340116e-01
-7.415782913999999781e-01 -4.199656022119999932e+01 8.427783739570000421e+01 -8.875164307405364328e-02 -8.065380661075265412e-01 5.844822441881249997e-01
8.074205299999999419e-02 -4.203271689160000335e+01 8.429002507049999338e+01 -3.154972361704908024e-03 -8.100675465581719248e-01 5.863280789478029220e-01
9.035682662999999781e-01 -4.200659343320000261e+01 8.426922222390000172e+01 7.598677624302391242e-02 -8.124734177145986891e-01 5.780250473321653093e-01
1.726896887199999897e+00 -4.191861598810000089e+01 8.421565458860000319e+01 1.260026064401285062e-01 -8.161183945780741134e-01 5.639805929299349652e-01
2.550724454300000055e+00 -4.176921069880000204e+01 8.412954789730000016e+01 1.707637265462260134e-01 -8.157077398393580703e-01 5.526849309165319246e-01
3.375047506400000064e+00 -4.155880370759999920e+01 8.401112788259999320e+01 2.094193830972935488e-01 -8.107833579462409013e-01 5.466021116502997046e-01
4.199862581999999733e+00 -4.128782115700000332e+01 8.386062027709999711e+01 2.467068533004991016e-01 -8.046907639765548126e-01 5.400078730031577789e-01
-4.019030531900000369e+00 -4.076245928880000235e+01 8.456821068280000020e+01 -2.627211730739768547e-01 -7.956432805952564635e-01 5.458290531496573506e-01
-3.198765954899999819e+00 -4.105171207189999905e+01 8.471446636369999794e+01 -2.251733375783500080e-01 -8.011695831842999826e-01 5.544585349907796834e-01
-2.377981663699999970e+00 -4.127698015659999697e+01 8.482682859259999475e+01 -1.863083375629162042e-01 -8.054637157943876913e-01 5.625987965622042397e-01
-1.556681119500000099e+00 -4.143868968529999819e+01 8.490552310219999299e+01 -1.402832259648292834e-01 -8.034542531333610516e-01 5.786033871615458013e-01
-7.348677837999999518e-01 -4.153726680030000296e+01 8.495077562509999325e+01 -8.816798879353077156e-02 -7.963747279782528166e-01 5.983424591232583412e-01
8.745488220000000035e-02 -4.157313764389999733e+01 8.496281189409999968e+01 -2.807710761515627186e-03 -7.998974437464246856e-01 6.001301494244517531e-01
9.102834171999999446e-01 -4.154672835859999935e+01 8.494185764159999508e+01 7.437472377857240469e-02 -8.046168477020696486e-01 5.891180941516270808e-01
1.733614359699999996e+00 -4.145846508679999687e+01 8.488813860049999960e+01 1.270541052639263813e-01 -8.109367881268580991e-01 5.711731611324873947e-01
2.557444248399999953e+00 -4.130877397070000256e+01 8.480188050339999961e+01 1.727498678537121857e-01 -8.124768108675803902e-01 5.568113818511357671e-01
3.381769622100000205e+00 -4.109808115279999896e+01 8.468330908279999392e+01 2.110847050490808063e-01 -8.080798361370009619e-01 5.499547487958805769e-01
-2.326734722699999924e+00 4.487266354009999958e+01 9.575864058790000399e+01 -1.740585357942624478e-01 6.527305096229443215e-01 7.373238826489545428e-01
-1.529664767499999911e+00 4.501867462799999942e+01 9.589667919650000272e+01 -1.058163642108741753e-01 6.495544944153363032e-01 7.529155702002904293e-01
-7.241476055000000134e-01 4.509242242140000201e+01 9.597739959049999925e+01 -2.346541811718853843e-02 6.381625778653301495e-01 7.695439547971656413e-01
8.981809220000000482e-02 4.509389555090000101e+01 9.600079275170000415e+01 4.637552009950093868e-02 6.192513236504454399e-01 7.838221158481509798e-01
9.122336547999999601e-01 4.502308264660000248e+01 9.596684966200000133e+01 1.040217341409985369e-01 6.277149939568105186e-01 7.714618365078732554e-01
1.743100411199999922e+00 4.487997233910000006e+01 9.587556130289999601e+01 1.632998105385856935e-01 6.386267302224055697e-01 7.519900739527755062e-01
2.582419690600000095e+00 4.466455325849999980e+01 9.572691865630000052e+01 2.119773758073471570e-01 6.381176175602778500e-01 7.401834220684934129e-01
3.430192821899999966e+00 4.437681403530000068e+01 9.552091270399999701e+01 2.581690321830958368e-01 6.356690342367148361e-01 7.275119447364463143e-01
-3.112635061499999800e+00 4.527948491160000088e+01 9.503186827890000643e+01 -2.304027022708679262e-01 6.477756781432207900e-01 7.261551250196974783e-01
-2.323840518799999977e+00 4.549628964699999756e+01 9.522605939909999506e+01 -1.758956254960926668e-01 6.555065397787991355e-01 7.344194341373084800e-01
-1.526600098400000105e+00 4.564084245760000158e+01 9.536294132289999936e+01 -1.113360038095898286e-01 6.553383676084003628e-01 7.470849471084712867e-01
-7.209124714000000322e-01 4.571313197370000125e+01 9.544250503220000326e+01 -3.804735893197808139e-02 6.481093931442474254e-01 7.605962220498447834e-01
9.322369149999999716e-02 4.571314682589999734e+01 9.546474150870000130e+01 4.588962822235832795e-02 6.344385445029213644e-01 7.716099242950604786e-01
9.158097190999999748e-01 4.564087564439999767e+01 9.542964173420000407e+01 1.030797207613639577e-01 6.404243118421174552e-01 7.610724485680121498e-01
1.746846940700000017e+00 4.549630705949999765e+01 9.533719669040000610e+01 1.612850443445744686e-01 6.468267420156085246e-01 7.453873491576322730e-01
2.586336685100000032e+00 4.527942970160000158e+01 9.518739735900000198e+01 2.104445830348074531e-01 6.447175824215771733e-01 7.348825187659473457e-01
3.434280281499999976e+00 4.499023220120000133e+01 9.498023472190000405e+01 2.572437154228447431e-01 6.407804017465947855e-01 7.233437271539189251e-01
-3.109317855000000019e+00 4.589949235990000176e+01 9.449641682169999513e+01 -2.312117195273419856e-01 6.501231193561768373e-01 7.237962907005011104e-01
-2.320352847200000124e+00 4.611483881790000083e+01 9.468945125710000355e+01 -1.765977823365133259e-01 6.581518976805308396e-01 7.318806616200085324e-01
-1.522941961799999966e+00 4.625793335120000194e+01 9.482517649620000100e+01 -1.139426697710790998e-01 6.597815873800106923e-01 7.427686887313924569e-01
-7.170838696000000345e-01 4.632876459010000048e+01 9.490358352069999626e+01 -4.504707527435173470e-02 6.554107263868498290e-01 7.539280739873591708e-01
9.722275839999999780e-02 4.632732116500000075e+01 9.492466331250000167e+01 4.611508343085032186e-02 6.452687726253346634e-01 7.625625286851956952e-01
9.199792511000000061e-01 4.625359170610000348e+01 9.488840685319999579e+01 1.029074278397606734e-01 6.493049389350631362e-01 7.535337799793305757e-01
1.751186937700000001e+00 4.610756484400000232e+01 9.479480512460000341e+01 1.604397727009766739e-01 6.528966970365311928e-01 7.402600774960423902e-01
2.590847147299999875e+00 4.588922920880000333e+01 9.464384910850000665e+01 2.099603769143758847e-01 6.497501931472861036e-01 7.305760238544909413e-01
3.438961208799999891e+00 4.559857343099999838e+01 9.443552978670000186e+01 2.572058160985178366e-01 6.448365475821946635e-01 7.197437009570638589e-01
-3.886090053999999849e+00 4.622822526030000034e+01 9.370770585110000184e+01 -2.878440598162721464e-01 6.442009526810430486e-01 7.086260860237384440e-01
-3.105399129699999872e+00 4.651435399609999877e+01 9.395688377979999473e+01 -2.353883050095282869e-01 6.548105352483363228e-01 7.182029718627793713e-01
-2.316263656699999895e+00 4.672824217689999671e+01 9.414876153049999630e+01 -1.811890778714496109e-01 6.635483581087586735e-01 7.258609333138575925e-01
-1.518682306200000109e+00 4.686987843290000200e+01 9.428333008479999933e+01 -1.200213222547080877e-01 6.669785273987846042e-01 7.353465347665550933e-01
-7.126537488999999947e-01 4.693925139449999762e+01 9.436058042460000195e+01 -5.390257806013672853e-02 6.652948389867108236e-01 7.446323181920843082e-01
1.018233441999999989e-01 4.693634969200000029e+01 9.438050353159999872e+01 4.172130045473948501e-02 6.577499065460618022e-01 7.520800446275730522e-01
9.247503019999999685e-01 4.686116195590000189e+01 9.434309038749999843e+01 1.087276257800254969e-01 6.595822697157284198e-01 7.437267864403478423e-01
1.756128453699999925e+00 4.671367681640000313e+01 9.424833197419999919e+01 1.654892102942885634e-01 6.604621209888626998e-01 7.323954587619080359e-01
2.595959128400000093e+00 4.649388290400000301e+01 9.409621927329999380e+01 2.149024367955973402e-01 6.558819669536538610e-01 7.236268293010703623e-01
3.444243655000000182e+00 4.620176884890000224e+01 9.388674326679999638e+01 2.620548208086738162e-01 6.496594267601963901e-01 7.136314876128621032e-01
-3.881732223499999801e+00 4.683933048579999792e+01 9.316519327780000026e+01 -2.913628960622954844e-01 6.477507772276797082e-01 7.039364981297172585e-01
-3.100870834100000195e+00 4.712400094440000231e+01 9.341321452169999873e+01 -2.395950216335342997e-01 6.587970828304777759e-01 7.131483921754840916e-01
-2.311564896100000155e+00 4.733643084780000265e+01 9.360393558760000587e+01 -1.860458827005282700e-01 6.682004510372057116e-01 7.203437282047067125e-01
-1.513813080400000066e+00 4.747660882649999792e+01 9.373734745720000205e+01 -1.261692362684912472e-01 6.730690583921034031e-01 7.287382015886041398e-01
-7.076140579999999902e-01 4.754452351079999772e+01 9.381344111219999604e+01 -6.212370661604592337e-02 6.735377640270460153e-01 7.365375248456325075e-01
1.070335000999999980e-01 4.754016353109999926e+01 9.383220753450000018e+01 4.434580653149880480e-02 6.726935783580154649e-01 7.385910905764835332e-01
9.301309231000000066e-01 4.746351751769999794e+01 9.379363770569999303e+01 1.119584299278355705e-01 6.709817064051160074e-01 7.329726186139374766e-01
1.761679539900000036e+00 4.731457410090000337e+01 9.369772260759999938e+01 1.716534655415101474e-01 6.665584405256141931e-01 7.254205215815520136e-01
2.601680679599999824e+00 4.709332191120000033e+01 9.354445322200000135e+01 2.205648512345388390e-01 6.607305117353666768e-01 7.174861233932019466e-01
3.450135671299999984e+00 4.679974957879999664e+01 9.333382053059999350e+01 2.672762024724242291e-01 6.534180834986752506e-01 7.082430654435231121e-01
-3.876756771700000215e+00 4.744515214729999997e+01 9.261848985679999657e+01 -2.945502648590734296e-01 6.508785087681348003e-01 6.997123039472856743e-01
-3.095724917200000093e+00 4.772836432849999966e+01 9.286535441600000240e+01 -2.434421544304411766e-01 6.615135268856335848e-01 7.093206406087411153e-01
-2.306248514099999980e+00 4.793933595469999887e+01 9.305491879710000092e+01 -1.905323351249559594e-01 6.704257263056909721e-01 7.170960708157018137e-01
-1.508326233300000041e+00 4.807805565609999832e+01 9.318717398200000446e+01 -1.315652115058220939e-01 6.748039454600099907e-01 7.261750686391210685e-01
-7.019567458000000038e-01 4.814451206310000231e+01 9.326211095220000402e+01 -6.671339309731280642e-02 6.768457936815122089e-01 7.330955563615751958e-01
1.128612774000000013e-01 4.813869380610000093e+01 9.327972068969999953e+01 4.684986843692940522e-02 6.787252576445897967e-01 7.328963872627068943e-01
9.361291655000000267e-01 4.806058951530000201e+01 9.323999417609999796e+01 1.144806672949098270e-01 6.767780776457041902e-01 7.272314696394108768e-01
1.767848247399999906e+00 4.791018782129999920e+01 9.314292239329999745e+01 1.741644241671193583e-01 6.721331005553636828e-01 7.196553678618460292e-01
2.608019852299999997e+00 4.768747735430000034e+01 9.298849632300000678e+01 2.230393932370739740e-01 6.661156975679706216e-01 7.117185585032709261e-01
3.456645309099999785e+00 4.739244674460000084e+01 9.277670694690000630e+01 2.697040160743803261e-01 6.586159664598492114e-01 7.024846990771466126e-01
-3.871155647200000161e+00 4.804562136860000265e+01 9.206754095670000027e+01 -2.967645907804870031e-01 6.546108136507569064e-01 6.952808499522936669e-01
-3.089953327599999966e+00 4.832737527260000121e+01 9.231324883109999746e+01 -2.458868341256397194e-01 6.650581967455476695e-01 7.051505227575394219e-01
-2.300306459300000217e+00 4.853688862149999750e+01 9.250165652750000334e+01 -1.931627182187540259e-01 6.737651263583398498e-01 7.132522126104289262e-01
-1.502213713499999992e+00 4.867415004560000114e+01 9.263275502749999646e+01 -1.345247615444986056e-01 6.779345256753334104e-01 7.227087016417863552e-01
-6.956737608999999933e-01 4.873914817530000221e+01 9.270653531310000517e+01 -6.430741110400127469e-02 6.831725093198989240e-01 7.274200158001247196e-01
1.193147274999999952e-01 4.873187164099999791e+01 9.272298836580000625e+01 4.935806325479436679e-02 6.847961605624584003e-01 7.270612079258880200e-01
9.427530805999999597e-01 4.865230907290000317e+01 9.268210516749999783e+01 1.170020181185815744e-01 6.826104619318308364e-01 7.213553112145162372e-01
1.774642627600000022e+00 4.850044910159999745e+01 9.258387669990000290e+01 1.766703096543338347e-01 6.777414224948182797e-01 7.137605802517689169e-01
2.614984697600000185e+00 4.827628035720000099e+01 9.242829394480000360e+01 2.255056951270517640e-01 6.715330056755176580e-01 7.058261852281131343e-01
3.463780619500000046e+00 4.797979147030000036e+01 9.221534788389999449e+01 2.721207960417627580e-01 6.638447158754490207e-01 6.966063921367949829e-01
-3.864920798700000049e+00 4.864066927390000217e+01 9.151229194590000304e+01 -2.988177727239303971e-01 6.580127054512705520e-01 6.911781377973471585e-01
-3.083548013999999782e+00 4.892096490050000313e+01 9.175684313559999339e+01 -2.480650050321434597e-01 6.682596664362184802e-01 7.013506765470157722e-01
-2.293730680699999969e+00 4.912901997209999649e+01 9.194409414720000484e+01 -1.954697851332747038e-01 6.767091502456847874e-01 7.098283518384670421e-01
-1.495467469700000107e+00 4.926482311889999721e+01 9.207403596250000533e+01 -1.322361036529649259e-01 6.843706374920505153e-01 7.170428462995824814e-01
-6.887570520000000363e-01 4.932836297130000247e+01 9.214665956330000540e+01 -6.188918930928421352e-02 6.895403661256579442e-01 7.215980957083610869e-01
1.264019013999999885e-01 4.931962815970000236e+01 9.216195593119999785e+01 5.186976983636868571e-02 6.909032295196229079e-01 7.210840827646090023e-01
9.500107196999999504e-01 4.923860731439999938e+01 9.211991604819999679e+01 1.195216758188431955e-01 6.884759557290283105e-01 7.153428740069035507e-01
1.782070731799999974e+00 4.908528906570000316e+01 9.202053089579999323e+01 1.791701849970399607e-01 6.833806606045474963e-01 7.077350616719642051e-01
2.622583266799999979e+00 4.885966204409999847e+01 9.186379145600000129e+01 2.279627391427090921e-01 6.769798345063342548e-01 6.998080402755670892e-01
3.471549653799999913e+00 4.856171487990000202e+01 9.164968871039999954e+01 2.745254641835704890e-01 6.691018746188168720e-01 6.906073058521605690e-01
-3.858044175099999862e+00 4.923022698689999999e+01 9.095268819289999840e+01 -2.969389883988037826e-01 6.645057146706205842e-01 6.857546152515362481e-01
-3.076500925299999967e+00 4.950906433629999981e+01 9.119608269789999611e+01 -2.460378219854894577e-01 6.747726590442648664e-01 6.958069047939730023e-01
-2.286513126900000081e+00 4.971566113059999736e+01 9.138217702480000071e+01 -1.933086434955177957e-01 6.832198901577164474e-01 7.041607416228204963e-01
-1.488079450799999925e+00 4.985000600010000227e+01 9.151096215530000677e+01 -1.299304231679604127e-01 6.908477050748175197e-01 7.112295926972196369e-01
-6.811985680000000043e-01 4.991208757519999750e+01 9.158242907129999821e+01 -5.945897439510095667e-02 6.959460946020208372e-01 7.156281602704562816e-01
1.341308505000000095e-01 4.990189448630000157e+01 9.159656875449999802e+01 5.438433052859112382e-02 6.970432828645722889e-01 7.149636399190777425e-01
9.579101339000000159e-01 4.981941536370000279e+01 9.155337218670000254e+01 1.220387991771285374e-01 6.943715463284236833e-01 7.091929830059502393e-01
1.790140611100000001e+00 4.966463883769999654e+01 9.145283034960000634e+01 1.816630809796644375e-01 6.890479722440369104e-01 7.015778053468887387e-01
2.630823611199999856e+00 4.943755353880000314e+01 9.129493422500000577e+01 2.304094777637756275e-01 6.824534950095865193e-01 6.936632466159816657e-01
3.479960463399999870e+00 4.913814809720000198e+01 9.107967479469999716e+01 2.769169150659778200e-01 6.743849064979883234e-01 6.844866836089958939e-01
-3.850517725100000010e+00 4.981422563179999941e+01 9.038867506639999760e+01 -2.950333303320409328e-01 6.710439214032611899e-01 6.801877605050821174e-01
-3.068804010200000043e+00 5.009160470380000163e+01 9.063091288660000089e+01 -2.439862981344664561e-01 6.813285833749513909e-01 6.901174159510256034e-01
-2.278645746700000085e+00 5.029674322080000337e+01 9.081585052869999686e+01 -1.911262295173705161e-01 6.897712082191279626e-01 6.983455052496564397e-01
-1.480041605500000079e+00 5.042962981299999825e+01 9.094347897449999607e+01 -1.276077076631169371e-01 6.973624016440723716e-01 7.052672923921651238e-01
-6.729902575999999748e-01 5.049025311089999946e+01 9.101378920579999487e+01 -5.701704853698197351e-02 7.023862851507933769e-01 7.095086769083234213e-01
1.425096260000000004e-01 5.047860174459999882e+01 9.102677220420000026e+01 5.690105104344651138e-02 7.032130156309535085e-01 7.086986136838221428e-01
9.664593744999999680e-01 5.039466434469999712e+01 9.098241895159999615e+01 1.245525126881494721e-01 7.002941128143257421e-01 7.029045647459297719e-01
1.798860316799999914e+00 5.023842954149999684e+01 9.088072042979999310e+01 1.841479968549064594e-01 6.947404189238385319e-01 6.952879012091716104e-01
2.639713782099999850e+00 5.000988596530000052e+01 9.072166762039999810e+01 2.328448346195041152e-01 6.879512117038396601e-01 6.873910192213996684e-01
3.489021099299999928e+00 4.970902224639999645e+01 9.050525150529999507e+01 2.792940170523904309e-01 6.796911973207169222e-01 6.782438560897322555e-01
-3.842333397400000017e+00 5.039259633239999658e+01 8.982019793470000479e+01 -2.931001285520169475e-01 6.776242227834655685e-01 6.744758908514784101e-01
-3.060449217399999977e+00 5.066851712710000299e+01 9.006127907020000123e+01 -2.419099659763590537e-01 6.879241991037615689e-01 6.842805452800521104e-01
-2.270120488799999947e+00 5.087219736680000182e+01 9.024506002750000278e+01 -1.889222930599928907e-01 6.963597449458932553e-01 6.923810170735796854e-01
-1.471345882500000091e+00 5.100362568170000088e+01 9.037153178859999514e+01 -1.252679771205578441e-01 7.039112572587049588e-01 6.991544005529771733e-01
-6.641240695000000249e-01 5.106279070229999917e+01 9.044068533509999952e+01 -5.456373037920243113e-02 7.088573886925711998e-01 7.032382255132714199e-01
1.515462791999999947e-01 5.104968105870000272e+01 9.045251164879999806e+01 5.941920045767357800e-02 7.094090007727895664e-01 7.022878528349489891e-01
9.756664927999999515e-01 5.096428538149999810e+01 9.040700171150000131e+01 1.270619070327282940e-01 7.062404274372845459e-01 6.964766546226857091e-01
1.808237900199999970e+00 5.080659230100000201e+01 9.030414650490000383e+01 1.866239011599376274e-01 7.004549677240170524e-01 6.888645423496494447e-01
2.649261830599999978e+00 5.057659044750000277e+01 9.014393701070000020e+01 2.352677055121062677e-01 6.934701240491151220e-01 6.809906708570785394e-01
3.498739612900000129e+00 5.027426845139999756e+01 8.992636421090000454e+01 2.816556134854852900e-01 6.850180561838945525e-01 6.718782464808292776e-01
-3.833483140799999855e+00 5.096527021269999835e+01 8.924720216650000282e+01 -2.911387320928067179e-01 6.842433723791503386e-01 6.686174137955133157e-01
-3.051428495600000179e+00 5.123973273010000185e+01 8.948712661710000305e+01 -2.398083823319504537e-01 6.945561212674100648e-01 6.782947251551524337e-01
-2.260929301900000077e+00 5.144195469249999775e+01 8.966975088969999774e+01 -1.866966131211774127e-01 7.029819962800779587e-01 6.862657557791715934e-01
-1.461984230499999926e+00 5.157192473020000278e+01 8.979506596599999568e+01 -1.229112853868915139e-01 7.104906594812492315e-01 6.928894852099010127e-01
-6.545919525000000183e-01 5.162963147340000347e+01 8.986306282779999322e+01 -5.209937592213221419e-02 7.153557178963391161e-01 6.968155077935174191e-01
1.612488613999999987e-01 5.161506355259999879e+01 8.987373245669999733e+01 6.193801134316213874e-02 7.156276909214432935e-01 6.957303290336692703e-01
9.855395401000000000e-01 5.152820959809999835e+01 8.982706583469999373e+01 1.295660397049011592e-01 7.122071574575831177e-01 6.899084042257911387e-01
1.818281412599999980e+00 5.136905824019999756e+01 8.972305394330000183e+01 1.890897326737883410e-01 7.061884931003282739e-01 6.823070314821934046e-01
2.659475807999999830e+00 5.113759810940000250e+01 8.956168776440000556e+01 2.376769595574882155e-01 6.990072881793782944e-01 6.744616178609570412e-01
3.509124055400000053e+00 5.083381783600000148e+01 8.934295827980000126e+01 2.840005239673369930e-01 6.903627171272845864e-01 6.653893756192014175e-01
-3.823958903899999928e+00 5.153217839660000266e+01 8.866963313009999581e+01 -2.891485113893035308e-01 6.908979799986317838e-01 6.626108357061177845e-01
-3.041733793700000188e+00 5.180518263679999791e+01 8.890840089600000340e+01 -2.376811305213880066e-01 7.012208204795241651e-01 6.721584940474223391e-01
-2.251064134900000013e+00 5.200594632189999800e+01 8.908986848390000546e+01 -1.844489997130946135e-01 7.096343142367165235e-01 6.799983136468971123e-01
-1.451948598400000012e+00 5.213445808230000011e+01 8.921402687539999476e+01 -1.205377216088440034e-01 7.170968545870174404e-01 6.864712366958682921e-01
-6.443858552000000239e-01 5.219070654819999788e+01 8.928086705239999787e+01 -4.962437933918840277e-02 7.218774489898209801e-01 6.902393567561536658e-01
1.716254237000000016e-01 5.217468035009999738e+01 8.929037999659999514e+01 6.445668003420344794e-02 7.218654207030327230e-01 6.890251452539318811e-01
9.960865675000000197e-01 5.208636811830000113e+01 8.924255668979999712e+01 1.320639357786739521e-01 7.181908674453711949e-01 6.831990886884374836e-01
1.828998905099999961e+00 5.192575848319999920e+01 8.913738811369999837e+01 1.915444015232968811e-01 7.119377790976938458e-01 6.756147873888828093e-01
2.670363765699999892e+00 5.169284007510000123e+01 8.897486524999999347e+01 2.400714405059446999e-01 7.045596789726938924e-01 6.678033858998434491e-01
3.520182478200000187e+00 5.138760152430000261e+01 8.875497908059999475e+01 2.863275458389788475e-01 6.957223410431374599e-01 6.587768671312647095e-01
-3.813752635699999782e+00 5.209325200829999858e+01 8.808743619409999326e+01 -2.871288607393061021e-01 6.975845120179768877e-01 6.564547706606977950e-01
-3.031357060299999961e+00 5.236479797119999802e+01 8.832504727529999400e+01 -2.355278225753256183e-01 7.079146237090487848e-01 6.658705056779447018e-01
-2.240516936400000159e+00 5.256410337900000229e+01 8.850535817840000163e+01 -1.821792957455878603e-01 7.163129081667874987e-01 6.735774059417973803e-01
-1.441230934800000085e+00 5.269115686199999971e+01 8.862835988519999830e+01 -1.181474116203346802e-01 7.237259494058497777e-01 6.798984771890702605e-01
-6.334977266000000329e-01 5.274594705060000166e+01 8.869404337740000699e+01 -4.713917369332496637e-02 7.284186242248640308e-01 6.835087462394806579e-01
1.826840174999999900e-01 5.272846257519999824e+01 8.870239963689999740e+01 6.697436704005174657e-02 7.281184096062229827e-01 6.821715442262956675e-01
1.007315626400000053e+00 5.263869206609999907e+01 8.865341964530000496e+01 1.345545888247506316e-01 7.241880220627071596e-01 6.763481140116429646e-01
1.840398429099999955e+00 5.247662415370000133e+01 8.854709438439999758e+01 1.939867904208652516e-01 7.176995219651060021e-01 6.687873513406706882e-01
2.681933754700000172e+00 5.224224746830000043e+01 8.838341483600000004e+01 2.424499681584042499e-01 7.101241925065356897e-01 6.610156156679881656e-01
3.531922932400000104e+00 5.193555064030000068e+01 8.816237198189999447e+01 2.886354557008786736e-01 7.010940179524821625e-01 6.520404525055107925e-01
-3.802856284699999811e+00 5.264842217150000181e+01 8.750055672710000465e+01 -2.850792008360358842e-01 7.042992922469247796e-01 6.501479494631721145e-01
-3.020290244299999927e+00 5.291850985709999833e+01 8.773701112349999676e+01 -2.333481015062605635e-01 7.146337156433654192e-01 6.594295383050272630e-01
-2.229279655300000051e+00 5.311635698759999968e+01 8.791616534189999754e+01 -1.798873789260797551e-01 7.230138466168554157e-01 6.670018804346831143e-01
-1.429823188599999906e+00 5.324195219330000128e+01 8.803801036389999979e+01 -1.157405192656776188e-01 7.303739138079141657e-01 6.731701703351248289e-01
-6.219195151999999949e-01 5.329528410470000210e+01 8.810253717140000163e+01 -4.464423154613108430e-02 7.349751550105674269e-01 6.766228004633363380e-01
1.944326939999999893e-01 5.327634135200000287e+01 8.810973674609999762e+01 6.949019760460334316e-02 7.343827654699160989e-01 6.751689168035148736e-01
1.019234767900000005e+00 5.318511256560000078e+01 8.805960006969999654e+01 1.370369619849048093e-01 7.301949893614009257e-01 6.693550243043309145e-01
1.852488035799999988e+00 5.302158637590000012e+01 8.795211812409999652e+01 1.964157560819511927e-01 7.234703332384188057e-01 6.618243933904572884e-01
2.694193826499999833e+00 5.278575141320000341e+01 8.778728189100000634e+01 2.448113399795145972e-01 7.156976488722652796e-01 6.540980685005468587e-01
3.544353469199999829e+00 5.247759630779999895e+01 8.756508235210000635e+01 2.909230111552402187e-01 7.064747695798749838e-01 6.451799760744518775e-01
-3.791261799799999999e+00 5.319762001029999965e+01 8.690894009749999327e+01 -2.829989813683464472e-01 7.110385033999555571e-01 6.436892287643392052e-01
-3.008525294300000041e+00 5.346624941860000035e+01 8.714423780920000695e+01 -2.311416435832124860e-01 7.213741406732934180e-01 6.528345041199329346e-01
-2.217344240100000086e+00 5.366263827179999879e+01 8.732223534269999732e+01 -1.775731636281991654e-01 7.297330598787392653e-01 6.602707269590898376e-01
-1.417717308400000098e+00 5.378677520019999747e+01 8.744292368000000693e+01 -1.133172476799578915e-01 7.370365838839357808e-01 6.662854308739889486e-01
-6.096431699000000037e-01 5.383864883430000248e+01 8.750629380270000013e+01 -4.214006545572608620e-02 7.415428257381192489e-01 6.695808035477962550e-01
2.068795043999999972e-01 5.381824780430000033e+01 8.751233669270000348e+01 7.200326243806157156e-02 7.406544885558646873e-01 6.680168102528006857e-01
1.031852043400000030e+00 5.372556074060000242e+01 8.746104333159999555e+01 1.395099892017590826e-01 7.362080445877347001e-01 6.622195089222524533e-01
1.865275776400000085e+00 5.356057627359999884e+01 8.735240470120000111e+01 1.988301307787147532e-01 7.292467432094467128e-01 6.547257186127137807e-01
2.707152032199999780e+00 5.332328303359999921e+01 8.718641178330000230e+01 2.471543328003020790e-01 7.212767953790441000e-01 6.470506318873154861e-01
3.557482139999999848e+00 5.301366965100000073e+01 8.696305555969999546e+01 2.931889526562436732e-01 7.118615522717692823e-01 6.381953998874972944e-01
-3.778961129699999866e+00 5.374077664859999715e+01 8.631253167379999525e+01 -2.808876836772409291e-01 7.177981891648540502e-01 6.370776002890787826e-01
-2.996054159099999836e+00 5.400794777960000204e+01 8.654667270070000029e+01 -2.289081606207717945e-01 7.281318055376179155e-01 6.460844586938644385e-01
-2.204702639799999808e+00 5.420287835549999755e+01 8.672351354959999981e+01 -1.752366027288967398e-01 7.364663431780682501e-01 6.533830870400292312e-01
-1.404905242999999970e+00 5.432555700670000220e+01 8.684304520210000078e+01 -1.108778404782748694e-01 7.437096658197779320e-01 6.592435342550644339e-01
-5.966606394000000257e-01 5.437597236340000251e+01 8.690525864010000134e+01 -3.962722834920555381e-02 7.481172983311459301e-01 6.623822089330806406e-01
2.200324999999999920e-01 5.435411305609999744e+01 8.691014484519999428e+01 7.451261860650690294e-02 7.469294762732909820e-01 6.607149363700721700e-01
1.045175504199999938e+00 5.425996771509999661e+01 8.685769479939999371e+01 1.419725766277120105e-01 7.422233745146958883e-01 6.549414094479794057e-01
1.878769702200000058e+00 5.409352497079999722e+01 8.674789948430000663e+01 2.012287240417162948e-01 7.350252048941829930e-01 6.474912731387250098e-01
2.720816423100000048e+00 5.385477345350000178e+01 8.658074988159999918e+01 2.494777047224989164e-01 7.268583101485299736e-01 6.398733248186058153e-01
3.571316996100000196e+00 5.354370179360000037e+01 8.635623697319999792e+01 2.954320054535302664e-01 7.172512602720531039e-01 6.310868084438587822e-01
-3.765946223099999823e+00 5.427782321040000113e+01 8.571127682460000585e+01 -2.787448234312710493e-01 7.245742569371104169e-01 6.303122000995254881e-01
-2.982868787400000166e+00 5.454353606410000310e+01 8.594426116680000405e+01 -2.266474022798496413e-01 7.349024826369606744e-01 6.391786104476812058e-01
-2.191346803100000074e+00 5.473700836270000281e+01 8.611994533079999314e+01 -1.728776894211853932e-01 7.432093606090307558e-01 6.463382634530527859e-01
-1.391378941099999933e+00 5.485822873659999743e+01 8.623832029860000148e+01 -1.084225828659847873e-01 7.503887405005104094e-01 6.520439261696456823e-01
-5.829638724000000272e-01 5.490718581600000192e+01 8.629937705179999341e+01 -3.710631375688420996e-02 7.546941175411798763e-01 6.550266486396683074e-01
2.338997321000000074e-01 5.488386823150000282e+01 8.630310657229999549e+01 7.701729059111166176e-02 7.532035285205027630e-01 6.532631794110765888e-01
1.059213201299999962e+00 5.478826461319999908e+01 8.624949984170000050e+01 1.444236041782357149e-01 7.482370822965561663e-01 6.475207264887394842e-01
1.892977864499999940e+00 5.462036359159999677e+01 8.613854784180000479e+01 2.036103245381621629e-01 7.408020984096399530e-01 6.401211500437540280e-01
2.735195050499999780e+00 5.438015379699999841e+01 8.597024155440000470e+01 2.517801971162842989e-01 7.324388060894544417e-01 6.325663029867615306e-01
3.585866088499999993e+00 5.406762385980000118e+01 8.574457196119999480e+01 2.976508817418713759e-01 7.226407292895050682e-01 6.238544132810304177e-01
-3.752209028799999846e+00 5.480869081969999712e+01 8.510512091840000437e+01 -2.765699533759757855e-01 7.313624812246160012e-01 6.233923178437348334e-01
-2.968961128000000116e+00 5.507294539610000328e+01 8.533694857579999393e+01 -2.243591583638249731e-01 7.416818140713162810e-01 6.321163300644567773e-01
-2.177268678599999951e+00 5.526495941740000006e+01 8.551147605510000460e+01 -1.704964589657484431e-01 7.499576497876787595e-01 6.391357297202857612e-01
-1.377130351499999961e+00 5.538472151399999888e+01 8.562869433810000430e+01 -1.059518026375593780e-01 7.570692688864839592e-01 6.446862319187032231e-01
-5.685448176999999825e-01 5.543222031610000045e+01 8.568859440660000359e+01 -3.457795589073209969e-02 7.612687169919282182e-01 6.475139423177558307e-01
2.484892518000000050e-01 5.540744445419999664e+01 8.569116724219999526e+01 7.951627152587710523e-02 7.594723536851857304e-01 6.456616037449550705e-01
1.073973186199999930e+00 5.531038255869999887e+01 8.563640382689999342e+01 1.468619272601902614e-01 7.542451928918338933e-01 6.399576261917526709e-01
1.907908314399999972e+00 5.514102325980000074e+01 8.552429514220000328e+01 2.059737020874917446e-01 7.465737358347127595e-01 6.326155949786359534e-01
2.750295965599999892e+00 5.489935518789999946e+01 8.535483217009999635e+01 2.540605367989098862e-01 7.380148352921374055e-01 6.251298637324642637e-01
3.601137468700000177e+00 5.458536697339999932e+01 8.512800589219999381e+01 2.998442828876191069e-01 7.280267404707276846e-01 6.164985573212454772e-01
-3.737741495599999908e+00 5.533331060039999727e+01 8.449400932359999672e+01 -2.743626660674252093e-01 7.381585077735203226e-01 6.163174059443267128e-01
-2.954323129700000106e+00 5.559610689950000051e+01 8.472468029620000607e+01 -2.220432610806690743e-01 7.484653164269512438e-01 6.248971597907659881e-01
-2.162460215099999861e+00 5.578666264350000148e+01 8.489805109079999568e+01 -1.680929903868417785e-01 7.567066272810450966e-01 6.317751394378814389e-01
-1.362151423000000028e+00 5.590496646270000269e+01 8.501411268910000274e+01 -1.034658710672173854e-01 7.637465981453892550e-01 6.371702655849904584e-01
-5.533954240999999774e-01 5.595100698760000313e+01 8.507285607279999340e+01 -3.204282958090363259e-02 7.678364259857984875e-01 6.398441060147421755e-01
2.638091106000000075e-01 5.592477284840000351e+01 8.507427222370000663e+01 8.200852461084691403e-02 7.657315752849682688e-01 6.379104611955763726e-01
1.089463510100000088e+00 5.582625267560000282e+01 8.501835212359999616e+01 1.492863786688783945e-01 7.602436589712519011e-01 6.322524465258597681e-01
1.923569103399999980e+00 5.565543509940000177e+01 8.490508675419999918e+01 2.083176098401631204e-01 7.523363665073092843e-01 6.249750115493107883e-01
2.766127219599999965e+00 5.541230875019999758e+01 8.473446709729999782e+01 2.563174383299778869e-01 7.435828937784850767e-01 6.175644507968155450e-01
3.617139187899999886e+00 5.509686225840000162e+01 8.450648413460000086e+01 3.020109017921148720e-01 7.334060246661414650e-01 6.090197190421022810e-01
-3.722535572099999968e+00 5.585161367639999952e+01 8.387788740880000660e+01 -2.721225966098038684e-01 7.449578584072863441e-01 6.090870886922226113e-01
-2.938946741100000093e+00 5.611295169819999984e+01 8.410740169669999489e+01 -2.196995872621546886e-01 7.552483862758103683e-01 6.175208226324220284e-01
-2.146913361499999784e+00 5.630204916499999968e+01 8.427961580650000428e+01 -1.656674080703987306e-01 7.634515947909802369e-01 6.242563354218721994e-01
-1.346434104200000093e+00 5.641889470689999797e+01 8.439452072000000271e+01 -1.009652036864615021e-01 7.704159685646161382e-01 6.294960389273278611e-01
-5.375076401999999698e-01 5.646347695450000259e+01 8.445210741889999895e+01 -2.950165003436605593e-02 7.743924770954759840e-01 6.320173605710389664e-01
2.798673595000000236e-01 5.643578453800000005e+01 8.445236688510000533e+01 8.449298471034487334e-02 7.719767392546620366e-01 6.300101980003791624e-01
1.105692224100000010e+00 5.633580608790000355e+01 8.439529010020000044e+01 1.516957706509318715e-01 7.662283674213665741e-01 6.244057031493284171e-01
1.939968282499999974e+00 5.616353023439999959e+01 8.428086804609999660e+01 2.106407866025211961e-01 7.580861827826279598e-01 6.171999663751893683e-01
2.782696863900000039e+00 5.591894560789999957e+01 8.410909170440000082e+01 2.585496064569944297e-01 7.491394266841716609e-01 6.098706587369521204e-01
