36.65 -36.9 -28.159
36.85 -36.9 -28.528
37.05 -36.9 -28.861
37.25 -36.9 -29.263
37.45 -36.9 -29.695
37.65 -36.9 -30.121
37.85 -36.9 -30.523
38.05 -36.9 -30.916
38.25 -36.9 -31.324
38.45 -36.9 -31.783
38.65 -36.9 -32.209
38.85 -36.9 -32.647
39.05 -36.9 -33.01
39.25 -36.9 -33.478
39.45 -36.9 -33.931
39.65 -36.9 -34.372
39.85 -36.9 -34.807
40.05 -36.9 -35.32
40.25 -36.9 -35.806
40.45 -36.9 -36.238
40.65 -36.9 -36.685
40.85 -36.9 -37.081
41.05 -36.9 -37.558
41.25 -36.9 -38.128
-38.15 -37.1 4.445
-37.95 -37.1 5.279
-37.75 -37.1 6.08
-37.55 -37.1 6.794
-37.35 -37.1 7.487
-37.15 -37.1 8.096
-36.95 -37.1 8.681
-36.75 -37.1 9.203
-36.55 -37.1 9.701
-36.35 -37.1 10.184
-36.15 -37.1 10.625
-35.95 -37.1 11.012
-35.75 -37.1 11.459
-35.55 -37.1 11.843
-35.35 -37.1 12.236
-35.15 -37.1 12.548
-34.95 -37.1 12.89
-34.75 -37.1 13.238
-34.55 -37.1 13.562
-34.35 -37.1 13.886
-34.15 -37.1 14.387
-33.95 -37.1 15.059
-33.75 -37.1 15.359
-33.55 -37.1 15.629
-33.35 -37.1 15.824
-33.15 -37.1 16.055
-32.95 -37.1 16.226
-32.75 -37.1 16.418
-32.55 -37.1 16.673
-32.35 -37.1 16.847
-32.15 -37.1 17.054
-31.95 -37.1 17.255
-31.75 -37.1 17.474
-31.55 -37.1 17.636
-31.35 -37.1 17.846
-31.15 -37.1 18.068
-30.95 -37.1 18.221
-30.75 -37.1 18.377
-30.55 -37.1 18.596
-30.35 -37.1 18.767
-30.15 -37.1 18.959
-29.95 -37.1 19.061
-29.75 -37.1 19.19
-29.55 -37.1 19.34
-29.35 -37.1 19.421
-29.15 -37.1 19.565
-28.95 -37.1 19.688
-28.75 -37.1 19.808
-28.55 -37.1 19.928
-28.35 -37.1 20.069
-28.15 -37.1 20.153
-27.95 -37.1 20.285
-27.75 -37.1 20.402
-27.55 -37.1 20.525
-27.35 -37.1 20.624
-27.15 -37.1 20.732
-26.95 -37.1 20.855
-26.75 -37.1 20.972
-26.55 -37.1 21.077
-26.35 -37.1 21.164
-26.15 -37.1 21.221
-25.95 -37.1 21.335
-25.75 -37.1 21.416
-25.55 -37.1 21.536
-25.35 -37.1 21.572
-25.15 -37.1 21.689
-24.95 -37.1 21.71
-24.75 -37.1 21.794
-24.55 -37.1 21.824
-24.35 -37.1 21.881
-24.15 -37.1 21.935
-23.95 -37.1 21.986
-23.75 -37.1 22.061
-23.55 -37.1 22.139
-23.35 -37.1 22.181
-23.15 -37.1 22.211
-22.95 -37.1 22.292
-22.75 -37.1 22.325
-22.55 -37.1 22.382
-22.35 -37.1 22.412
-22.15 -37.1 22.505
-21.95 -37.1 22.514
-21.75 -37.1 22.592
-21.55 -37.1 22.643
-21.35 -37.1 22.655
-21.15 -37.1 22.709
-20.95 -37.1 22.655
-20.75 -37.1 22.472
-20.55 -37.1 22.376
-20.35 -37.1 22.349
-20.15 -37.1 22.352
-19.95 -37.1 22.412
-19.75 -37.1 22.442
-19.55 -37.1 22.421
-19.35 -37.1 22.463
-19.15 -37.1 22.463
-18.95 -37.1 22.427
-18.75 -37.1 22.445
-18.55 -37.1 22.46
-18.35 -37.1 22.487
-18.15 -37.1 22.46
-17.95 -37.1 22.496
-17.75 -37.1 22.46
-17.55 -37.1 22.493
-17.35 -37.1 22.448
-17.15 -37.1 22.505
-16.95 -37.1 22.52
-16.75 -37.1 22.463
-16.55 -37.1 22.445
-16.35 -37.1 22.445
-16.15 -37.1 22.448
-15.95 -37.1 22.427
-15.75 -37.1 22.394
-15.55 -37.1 22.367
-15.35 -37.1 22.364
-15.15 -37.1 22.34
-14.95 -37.1 22.304
-14.75 -37.1 22.292
-14.55 -37.1 22.316
-14.35 -37.1 22.259
-14.15 -37.1 22.229
-13.95 -37.1 22.187
-13.75 -37.1 22.07
-13.55 -37.1 22.055
-13.35 -37.1 22.037
-13.15 -37.1 22.019
-12.95 -37.1 22.013
-12.75 -37.1 21.968
-12.55 -37.1 21.926
-12.35 -37.1 21.884
-12.15 -37.1 21.842
-11.95 -37.1 21.782
-11.75 -37.1 21.74
-11.55 -37.1 21.662
-11.35 -37.1 21.599
-11.15 -37.1 21.557
-10.95 -37.1 21.512
-10.75 -37.1 21.491
-10.55 -37.1 21.422
-10.35 -37.1 21.359
-10.15 -37.1 21.356
-9.95 -37.1 21.224
-9.75 -37.1 21.179
-9.55 -37.1 21.143
-9.35 -37.1 21.089
-9.15 -37.1 21.017
-8.95 -37.1 20.924
-8.75 -37.1 20.849
-8.55 -37.1 20.846
-8.35 -37.1 20.663
-8.15 -37.1 20.594
-7.95 -37.1 20.564
-7.75 -37.1 20.498
-7.55 -37.1 20.429
-7.35 -37.1 20.345
-7.15 -37.1 20.285
-6.95 -37.1 20.216
-6.75 -37.1 20.144
-6.55 -37.1 20.054
-6.35 -37.1 19.964
-6.15 -37.1 19.865
-5.95 -37.1 19.751
-5.75 -37.1 19.661
-5.55 -37.1 19.595
-5.35 -37.1 19.508
-5.15 -37.1 19.415
-4.95 -37.1 19.292
-4.75 -37.1 19.232
-4.55 -37.1 19.145
-4.35 -37.1 19.031
-4.15 -37.1 18.965
-3.95 -37.1 18.857
-3.75 -37.1 18.737
-3.55 -37.1 18.656
-3.35 -37.1 18.536
-3.15 -37.1 18.461
-2.95 -37.1 18.341
-2.75 -37.1 18.272
-2.55 -37.1 18.122
-2.35 -37.1 18.038
-2.15 -37.1 17.879
-1.95 -37.1 17.759
-1.75 -37.1 17.66
-1.55 -37.1 17.57
-1.35 -37.1 17.444
-1.15 -37.1 17.327
-0.95 -37.1 17.246
-0.75 -37.1 17.066
-0.55 -37.1 17.012
-0.35 -37.1 16.871
-0.15 -37.1 16.76
0.05 -37.1 16.628
0.25 -37.1 16.496
0.45 -37.1 16.424
0.65 -37.1 16.271
0.85 -37.1 16.127
1.05 -37.1 16.01
1.25 -37.1 15.854
1.45 -37.1 15.734
1.65 -37.1 15.608
1.85 -37.1 15.491
2.05 -37.1 15.344
2.25 -37.1 15.206
2.45 -37.1 15.101
2.65 -37.1 14.924
2.85 -37.1 14.81
3.05 -37.1 14.693
3.25 -37.1 14.522
3.45 -37.1 14.384
3.65 -37.1 14.222
3.85 -37.1 14.135
4.05 -37.1 13.952
4.25 -37.1 13.784
4.45 -37.1 13.652
4.65 -37.1 13.481
4.85 -37.1 13.352
5.05 -37.1 13.229
5.25 -37.1 13.043
5.45 -37.1 12.92
5.65 -37.1 12.746
5.85 -37.1 12.587
6.05 -37.1 12.464
6.25 -37.1 12.284
6.45 -37.1 12.131
6.65 -37.1 11.96
6.85 -37.1 11.834
7.05 -37.1 11.651
7.25 -37.1 11.492
7.45 -37.1 11.297
7.65 -37.1 11.171
7.85 -37.1 10.982
8.05 -37.1 10.82
8.25 -37.1 10.643
8.45 -37.1 10.499
8.65 -37.1 10.28
8.85 -37.1 10.112
9.05 -37.1 9.938
9.25 -37.1 9.764
9.45 -37.1 9.569
9.65 -37.1 9.395
9.85 -37.1 9.23
10.05 -37.1 9.05
10.25 -37.1 8.873
10.45 -37.1 8.663
10.65 -37.1 8.507
10.85 -37.1 8.3
11.05 -37.1 8.117
11.25 -37.1 7.916
11.45 -37.1 7.751
11.65 -37.1 7.547
11.85 -37.1 7.349
12.05 -37.1 7.16
12.25 -37.1 6.968
12.45 -37.1 6.755
12.65 -37.1 6.575
12.85 -37.1 6.344
13.05 -37.1 6.137
13.25 -37.1 5.966
13.45 -37.1 5.768
13.65 -37.1 5.537
13.85 -37.1 5.366
14.05 -37.1 5.162
14.25 -37.1 4.949
14.45 -37.1 4.733
14.65 -37.1 4.538
14.85 -37.1 4.313
15.05 -37.1 4.076
15.25 -37.1 3.887
15.45 -37.1 3.698
15.65 -37.1 3.434
15.85 -37.1 3.242
16.05 -37.1 3.005
16.25 -37.1 2.777
16.45 -37.1 2.576
16.65 -37.1 2.363
16.85 -37.1 2.129
17.05 -37.1 1.907
17.25 -37.1 1.664
17.45 -37.1 1.43
17.65 -37.1 1.184
17.85 -37.1 0.962
18.05 -37.1 0.71
18.25 -37.1 0.476
18.45 -37.1 0.224
18.65 -37.1 0.026
18.85 -37.1 -0.217
19.05 -37.1 -0.466
19.25 -37.1 -0.712
19.45 -37.1 -0.976
19.65 -37.1 -1.186
19.85 -37.1 -1.453
20.05 -37.1 -1.687
20.25 -37.1 -1.96
20.45 -37.1 -2.203
20.65 -37.1 -2.458
20.85 -37.1 -2.698
21.05 -37.1 -2.959
21.25 -37.1 -3.22
21.45 -37.1 -3.469
21.65 -37.1 -3.718
21.85 -37.1 -3.988
22.05 -37.1 -4.234
22.25 -37.1 -4.516
22.45 -37.1 -4.771
22.65 -37.1 -5.032
22.85 -37.1 -5.281
23.05 -37.1 -5.578
23.25 -37.1 -5.839
23.45 -37.1 -6.115
23.65 -37.1 -6.373
23.85 -37.1 -6.655
24.05 -37.1 -6.931
24.25 -37.1 -7.204
24.45 -37.1 -7.483
24.65 -37.1 -7.771
24.85 -37.1 -8.026
25.05 -37.1 -8.32
25.25 -37.1 -8.623
25.45 -37.1 -8.89
25.65 -37.1 -9.202
25.85 -37.1 -9.505
26.05 -37.1 -9.718
26.25 -37.1 -10.039
26.45 -37.1 -10.366
26.65 -37.1 -10.669
26.85 -37.1 -10.948
27.05 -37.1 -11.227
27.25 -37.1 -11.605
27.45 -37.1 -11.914
27.65 -37.1 -12.22
27.85 -37.1 -12.529
28.05 -37.1 -12.844
28.25 -37.1 -13.177
28.45 -37.1 -13.48
28.65 -37.1 -13.786
28.85 -37.1 -14.11
29.05 -37.1 -14.452
29.25 -37.1 -14.734
29.45 -37.1 -15.061
29.65 -37.1 -15.382
29.85 -37.1 -15.766
30.05 -37.1 -16.051
30.25 -37.1 -16.393
30.45 -37.1 -16.717
30.65 -37.1 -17.05
30.85 -37.1 -17.371
31.05 -37.1 -17.707
31.25 -37.1 -18.07
31.45 -37.1 -18.364
31.65 -37.1 -18.748
31.85 -37.1 -19.126
32.05 -37.1 -19.441
32.25 -37.1 -19.744
32.45 -37.1 -20.164
32.65 -37.1 -20.524
32.85 -37.1 -20.848
33.05 -37.1 -21.229
33.25 -37.1 -21.574
33.45 -37.1 -21.946
33.65 -37.1 -22.303
33.85 -37.1 -22.648
34.05 -37.1 -23.023
34.25 -37.1 -23.401
34.45 -37.1 -23.755
34.65 -37.1 -24.151
34.85 -37.1 -24.526
35.05 -37.1 -24.946
35.25 -37.1 -25.333
35.45 -37.1 -25.738
35.65 -37.1 -26.116
35.85 -37.1 -26.461
36.05 -37.1 -26.857
36.25 -37.1 -27.193
36.45 -37.1 -27.631
36.65 -37.1 -28.054
36.85 -37.1 -28.423
37.05 -37.1 -28.78
37.25 -37.1 -29.197
37.45 -37.1 -29.632
37.65 -37.1 -30.013
37.85 -37.1 -30.43
38.05 -37.1 -30.823
38.25 -37.1 -31.231
38.45 -37.1 -31.675
38.65 -37.1 -32.101
38.85 -37.1 -32.485
39.05 -37.1 -32.926
39.25 -37.1 -33.4
39.45 -37.1 -33.853
39.65 -37.1 -34.282
39.85 -37.1 -34.75
40.05 -37.1 -35.149
40.25 -37.1 -35.641
40.45 -37.1 -36.112
40.65 -37.1 -36.538
40.85 -37.1 -37.06
41.05 -37.1 -37.435
41.25 -37.1 -37.99
41.45 -37.1 -38.5
41.65 -37.1 -38.953
-38.15 -37.3 4.781
-37.95 -37.3 5.429
-37.75 -37.3 6.2
-37.55 -37.3 6.917
-37.35 -37.3 7.601
-37.15 -37.3 8.207
-36.95 -37.3 8.786
-36.75 -37.3 9.296
-36.55 -37.3 9.785
-36.35 -37.3 10.262
-36.15 -37.3 10.685
-35.95 -37.3 11.126
-35.75 -37.3 11.489
-35.55 -37.3 11.897
-35.35 -37.3 12.293
-35.15 -37.3 12.641
-34.95 -37.3 12.962
-34.75 -37.3 13.286
-34.55 -37.3 13.61
-34.35 -37.3 13.922
-34.15 -37.3 14.474
-33.95 -37.3 15.149
-33.75 -37.3 15.428
-33.55 -37.3 15.698
-33.35 -37.3 15.887
-33.15 -37.3 16.091
-32.95 -37.3 16.295
-32.75 -37.3 16.493
-32.55 -37.3 16.706
-32.35 -37.3 16.91
-32.15 -37.3 17.117
-31.95 -37.3 17.327
-31.75 -37.3 17.525
-31.55 -37.3 17.696
-31.35 -37.3 17.903
-31.15 -37.3 18.119
-30.95 -37.3 18.263
-30.75 -37.3 18.467
-30.55 -37.3 18.65
-30.35 -37.3 18.803
-30.15 -37.3 18.968
-29.95 -37.3 19.097
-29.75 -37.3 19.238
-29.55 -37.3 19.361
-29.35 -37.3 19.451
-29.15 -37.3 19.589
-28.95 -37.3 19.742
-28.75 -37.3 19.838
-28.55 -37.3 19.955
-28.35 -37.3 20.078
-28.15 -37.3 20.195
-27.95 -37.3 20.333
-27.75 -37.3 20.462
-27.55 -37.3 20.555
-27.35 -37.3 20.648
-27.15 -37.3 20.765
-26.95 -37.3 20.879
-26.75 -37.3 20.981
-26.55 -37.3 21.089
-26.35 -37.3 21.221
-26.15 -37.3 21.305
-25.95 -37.3 21.413
-25.75 -37.3 21.47
-25.55 -37.3 21.515
-25.35 -37.3 21.596
-25.15 -37.3 21.644
-24.95 -37.3 21.725
-24.75 -37.3 21.794
-24.55 -37.3 21.845
-24.35 -37.3 21.926
-24.15 -37.3 22.001
-23.95 -37.3 22.007
-23.75 -37.3 22.088
-23.55 -37.3 22.154
-23.35 -37.3 22.205
-23.15 -37.3 22.265
-22.95 -37.3 22.292
-22.75 -37.3 22.367
-22.55 -37.3 22.436
-22.35 -37.3 22.454
-22.15 -37.3 22.511
-21.95 -37.3 22.544
-21.75 -37.3 22.595
-21.55 -37.3 22.631
-21.35 -37.3 22.658
-21.15 -37.3 22.688
-20.95 -37.3 22.607
-20.75 -37.3 22.454
-20.55 -37.3 22.364
-20.35 -37.3 22.373
-20.15 -37.3 22.448
-19.95 -37.3 22.418
-19.75 -37.3 22.448
-19.55 -37.3 22.475
-19.35 -37.3 22.493
-19.15 -37.3 22.517
-18.95 -37.3 22.514
-18.75 -37.3 22.556
-18.55 -37.3 22.538
-18.35 -37.3 22.532
-18.15 -37.3 22.517
-17.95 -37.3 22.484
-17.75 -37.3 22.55
-17.55 -37.3 22.511
-17.35 -37.3 22.481
-17.15 -37.3 22.442
-16.95 -37.3 22.445
-16.75 -37.3 22.505
-16.55 -37.3 22.505
-16.35 -37.3 22.499
-16.15 -37.3 22.454
-15.95 -37.3 22.439
-15.75 -37.3 22.469
-15.55 -37.3 22.358
-15.35 -37.3 22.337
-15.15 -37.3 22.367
-14.95 -37.3 22.379
-14.75 -37.3 22.31
-14.55 -37.3 22.334
-14.35 -37.3 22.283
-14.15 -37.3 22.25
-13.95 -37.3 22.214
-13.75 -37.3 22.205
-13.55 -37.3 22.124
-13.35 -37.3 22.133
-13.15 -37.3 22.061
-12.95 -37.3 22.019
-12.75 -37.3 21.908
-12.55 -37.3 21.92
-12.35 -37.3 21.878
-12.15 -37.3 21.863
-11.95 -37.3 21.77
-11.75 -37.3 21.758
-11.55 -37.3 21.713
-11.35 -37.3 21.668
-11.15 -37.3 21.62
-10.95 -37.3 21.521
-10.75 -37.3 21.503
-10.55 -37.3 21.434
-10.35 -37.3 21.389
-10.15 -37.3 21.302
-9.95 -37.3 21.284
-9.75 -37.3 21.197
-9.55 -37.3 21.161
-9.35 -37.3 21.095
-9.15 -37.3 21.011
-8.95 -37.3 20.975
-8.75 -37.3 20.885
-8.55 -37.3 20.765
-8.35 -37.3 20.78
-8.15 -37.3 20.672
-7.95 -37.3 20.645
-7.75 -37.3 20.507
-7.55 -37.3 20.42
-7.35 -37.3 20.348
-7.15 -37.3 20.297
-6.95 -37.3 20.231
-6.75 -37.3 20.138
-6.55 -37.3 20.075
-6.35 -37.3 19.997
-6.15 -37.3 19.919
-5.95 -37.3 19.865
-5.75 -37.3 19.736
-5.55 -37.3 19.622
-5.35 -37.3 19.559
-5.15 -37.3 19.445
-4.95 -37.3 19.385
-4.75 -37.3 19.253
-4.55 -37.3 19.157
-4.35 -37.3 19.073
-4.15 -37.3 18.995
-3.95 -37.3 18.887
-3.75 -37.3 18.785
-3.55 -37.3 18.695
-3.35 -37.3 18.581
-3.15 -37.3 18.482
-2.95 -37.3 18.35
-2.75 -37.3 18.266
-2.55 -37.3 18.143
-2.35 -37.3 18.059
-2.15 -37.3 17.957
-1.95 -37.3 17.822
-1.75 -37.3 17.738
-1.55 -37.3 17.618
-1.35 -37.3 17.504
-1.15 -37.3 17.399
-0.95 -37.3 17.243
-0.75 -37.3 17.135
-0.55 -37.3 17.039
-0.35 -37.3 16.889
-0.15 -37.3 16.817
0.05 -37.3 16.664
0.25 -37.3 16.544
0.45 -37.3 16.343
0.65 -37.3 16.277
0.85 -37.3 16.166
1.05 -37.3 16.004
1.25 -37.3 15.887
1.45 -37.3 15.785
1.65 -37.3 15.638
1.85 -37.3 15.518
2.05 -37.3 15.395
2.25 -37.3 15.269
2.45 -37.3 15.083
2.65 -37.3 14.99
2.85 -37.3 14.882
3.05 -37.3 14.672
3.25 -37.3 14.519
3.45 -37.3 14.411
3.65 -37.3 14.255
3.85 -37.3 14.141
4.05 -37.3 13.982
4.25 -37.3 13.874
4.45 -37.3 13.715
4.65 -37.3 13.568
4.85 -37.3 13.394
5.05 -37.3 13.271
5.25 -37.3 13.103
5.45 -37.3 12.944
5.65 -37.3 12.803
5.85 -37.3 12.641
6.05 -37.3 12.497
6.25 -37.3 12.356
6.45 -37.3 12.182
6.65 -37.3 12.035
6.85 -37.3 11.873
7.05 -37.3 11.741
7.25 -37.3 11.552
7.45 -37.3 11.372
7.65 -37.3 11.222
7.85 -37.3 11.054
8.05 -37.3 10.859
8.25 -37.3 10.688
8.45 -37.3 10.541
8.65 -37.3 10.361
8.85 -37.3 10.151
9.05 -37.3 9.992
9.25 -37.3 9.824
9.45 -37.3 9.683
9.65 -37.3 9.5
9.85 -37.3 9.284
10.05 -37.3 9.098
10.25 -37.3 8.936
10.45 -37.3 8.732
10.65 -37.3 8.552
10.85 -37.3 8.36
11.05 -37.3 8.18
11.25 -37.3 7.991
11.45 -37.3 7.79
11.65 -37.3 7.622
11.85 -37.3 7.409
12.05 -37.3 7.223
12.25 -37.3 7.025
12.45 -37.3 6.86
12.65 -37.3 6.641
12.85 -37.3 6.428
13.05 -37.3 6.215
13.25 -37.3 6.026
13.45 -37.3 5.816
13.65 -37.3 5.603
13.85 -37.3 5.402
14.05 -37.3 5.237
14.25 -37.3 4.973
14.45 -37.3 4.793
14.65 -37.3 4.586
14.85 -37.3 4.358
15.05 -37.3 4.184
15.25 -37.3 3.95
15.45 -37.3 3.746
15.65 -37.3 3.491
15.85 -37.3 3.299
16.05 -37.3 3.056
16.25 -37.3 2.876
16.45 -37.3 2.648
16.65 -37.3 2.411
16.85 -37.3 2.204
17.05 -37.3 1.973
17.25 -37.3 1.745
17.45 -37.3 1.49
17.65 -37.3 1.271
17.85 -37.3 1.04
18.05 -37.3 0.803
18.25 -37.3 0.581
18.45 -37.3 0.323
18.65 -37.3 0.098
18.85 -37.3 -0.151
19.05 -37.3 -0.397
19.25 -37.3 -0.625
19.45 -37.3 -0.865
19.65 -37.3 -1.117
19.85 -37.3 -1.366
20.05 -37.3 -1.606
20.25 -37.3 -1.861
20.45 -37.3 -2.113
20.65 -37.3 -2.359
20.85 -37.3 -2.629
21.05 -37.3 -2.869
21.25 -37.3 -3.136
21.45 -37.3 -3.355
21.65 -37.3 -3.652
21.85 -37.3 -3.895
22.05 -37.3 -4.177
22.25 -37.3 -4.444
22.45 -37.3 -4.693
22.65 -37.3 -4.96
22.85 -37.3 -5.215
23.05 -37.3 -5.524
23.25 -37.3 -5.737
23.45 -37.3 -6.037
23.65 -37.3 -6.316
23.85 -37.3 -6.583
24.05 -37.3 -6.841
24.25 -37.3 -7.123
24.45 -37.3 -7.402
24.65 -37.3 -7.678
24.85 -37.3 -7.969
25.05 -37.3 -8.257
25.25 -37.3 -8.548
25.45 -37.3 -8.824
25.65 -37.3 -9.118
25.85 -37.3 -9.421
26.05 -37.3 -9.685
26.25 -37.3 -10.0
26.45 -37.3 -10.264
26.65 -37.3 -10.552
26.85 -37.3 -10.849
27.05 -37.3 -11.194
27.25 -37.3 -11.491
27.45 -37.3 -11.782
27.65 -37.3 -12.115
27.85 -37.3 -12.409
28.05 -37.3 -12.772
28.25 -37.3 -13.045
28.45 -37.3 -13.378
28.65 -37.3 -13.714
28.85 -37.3 -13.984
29.05 -37.3 -14.344
29.25 -37.3 -14.659
29.45 -37.3 -14.995
29.65 -37.3 -15.298
29.85 -37.3 -15.664
30.05 -37.3 -15.952
30.25 -37.3 -16.279
30.45 -37.3 -16.672
30.65 -37.3 -16.957
30.85 -37.3 -17.278
31.05 -37.3 -17.65
31.25 -37.3 -17.977
31.45 -37.3 -18.295
31.65 -37.3 -18.67
31.85 -37.3 -19.006
32.05 -37.3 -19.327
32.25 -37.3 -19.696
32.45 -37.3 -20.035
32.65 -37.3 -20.401
32.85 -37.3 -20.731
33.05 -37.3 -21.124
33.25 -37.3 -21.493
33.45 -37.3 -21.823
33.65 -37.3 -22.183
33.85 -37.3 -22.525
34.05 -37.3 -22.927
34.25 -37.3 -23.275
34.45 -37.3 -23.656
34.65 -37.3 -24.058
34.85 -37.3 -24.409
35.05 -37.3 -24.841
35.25 -37.3 -25.201
35.45 -37.3 -25.594
35.65 -37.3 -25.942
35.85 -37.3 -26.332
36.05 -37.3 -26.704
36.25 -37.3 -27.148
36.45 -37.3 -27.544
36.65 -37.3 -27.925
36.85 -37.3 -28.342
37.05 -37.3 -28.696
37.25 -37.3 -29.098
37.45 -37.3 -29.524
37.65 -37.3 -29.965
37.85 -37.3 -30.31
38.05 -37.3 -30.751
38.25 -37.3 -31.102
38.45 -37.3 -31.516
38.65 -37.3 -32.002
38.85 -37.3 -32.425
39.05 -37.3 -32.77
39.25 -37.3 -33.229
39.45 -37.3 -33.691
39.65 -37.3 -34.147
39.85 -37.3 -34.597
40.05 -37.3 -34.99
40.25 -37.3 -35.464
40.45 -37.3 -35.914
40.65 -37.3 -36.415
40.85 -37.3 -36.859
41.05 -37.3 -37.369
41.25 -37.3 -37.819
41.45 -37.3 -38.275
41.65 -37.3 -38.833
41.85 -37.3 -39.256
-38.15 -37.5 4.826
-37.95 -37.5 5.579
-37.75 -37.5 6.326
-37.55 -37.5 7.058
-37.35 -37.5 7.706
-37.15 -37.5 8.297
-36.95 -37.5 8.849
-36.75 -37.5 9.386
-36.55 -37.5 9.854
-36.35 -37.5 10.304
-36.15 -37.5 10.772
-35.95 -37.5 11.15
-35.75 -37.5 11.546
-35.55 -37.5 11.939
-35.35 -37.5 12.347
-35.15 -37.5 12.692
-34.95 -37.5 13.028
-34.75 -37.5 13.331
-34.55 -37.5 13.676
-34.35 -37.5 13.982
-34.15 -37.5 14.582
-33.95 -37.5 15.197
-33.75 -37.5 15.503
-33.55 -37.5 15.716
-33.35 -37.5 15.935
-33.15 -37.5 16.154
-32.95 -37.5 16.337
-32.75 -37.5 16.565
-32.55 -37.5 16.793
-32.35 -37.5 16.97
-32.15 -37.5 17.165
-31.95 -37.5 17.375
-31.75 -37.5 17.588
-31.55 -37.5 17.723
-31.35 -37.5 17.945
-31.15 -37.5 18.158
-30.95 -37.5 18.314
-30.75 -37.5 18.491
-30.55 -37.5 18.698
-30.35 -37.5 18.845
-30.15 -37.5 18.998
-29.95 -37.5 19.13
-29.75 -37.5 19.235
-29.55 -37.5 19.388
-29.35 -37.5 19.469
-29.15 -37.5 19.619
-28.95 -37.5 19.751
-28.75 -37.5 19.868
-28.55 -37.5 19.985
-28.35 -37.5 20.105
-28.15 -37.5 20.198
-27.95 -37.5 20.333
-27.75 -37.5 20.447
-27.55 -37.5 20.585
-27.35 -37.5 20.681
-27.15 -37.5 20.795
-26.95 -37.5 20.873
-26.75 -37.5 21.011
-26.55 -37.5 21.113
-26.35 -37.5 21.23
-26.15 -37.5 21.308
-25.95 -37.5 21.44
-25.75 -37.5 21.527
-25.55 -37.5 21.566
-25.35 -37.5 21.668
-25.15 -37.5 21.731
-24.95 -37.5 21.782
-24.75 -37.5 21.857
-24.55 -37.5 21.908
-24.35 -37.5 21.935
-24.15 -37.5 21.986
-23.95 -37.5 22.049
-23.75 -37.5 22.109
-23.55 -37.5 22.178
-23.35 -37.5 22.247
-23.15 -37.5 22.247
-22.95 -37.5 22.361
-22.75 -37.5 22.397
-22.55 -37.5 22.442
-22.35 -37.5 22.502
-22.15 -37.5 22.547
-21.95 -37.5 22.574
-21.75 -37.5 22.598
-21.55 -37.5 22.685
-21.35 -37.5 22.727
-21.15 -37.5 22.793
-20.95 -37.5 22.631
-20.75 -37.5 22.505
-20.55 -37.5 22.454
-20.35 -37.5 22.406
-20.15 -37.5 22.427
-19.95 -37.5 22.469
-19.75 -37.5 22.439
-19.55 -37.5 22.517
-19.35 -37.5 22.532
-19.15 -37.5 22.535
-18.95 -37.5 22.565
-18.75 -37.5 22.451
-18.55 -37.5 22.502
-18.35 -37.5 22.565
-18.15 -37.5 22.607
-17.95 -37.5 22.643
-17.75 -37.5 22.535
-17.55 -37.5 22.577
-17.35 -37.5 22.565
-17.15 -37.5 22.505
-16.95 -37.5 22.517
-16.75 -37.5 22.511
-16.55 -37.5 22.502
-16.35 -37.5 22.478
-16.15 -37.5 22.523
-15.95 -37.5 22.484
-15.75 -37.5 22.511
-15.55 -37.5 22.499
-15.35 -37.5 22.415
-15.15 -37.5 22.373
-14.95 -37.5 22.367
-14.75 -37.5 22.328
-14.55 -37.5 22.292
-14.35 -37.5 22.274
-14.15 -37.5 22.232
-13.95 -37.5 22.277
-13.75 -37.5 22.19
-13.55 -37.5 22.19
-13.35 -37.5 22.139
-13.15 -37.5 22.07
-12.95 -37.5 22.025
-12.75 -37.5 22.049
-12.55 -37.5 21.941
-12.35 -37.5 21.935
-12.15 -37.5 21.884
-11.95 -37.5 21.815
-11.75 -37.5 21.764
-11.55 -37.5 21.785
-11.35 -37.5 21.692
-11.15 -37.5 21.635
-10.95 -37.5 21.557
-10.75 -37.5 21.566
-10.55 -37.5 21.479
-10.35 -37.5 21.461
-10.15 -37.5 21.377
-9.95 -37.5 21.326
-9.75 -37.5 21.251
-9.55 -37.5 21.179
-9.35 -37.5 21.149
-9.15 -37.5 21.065
-8.95 -37.5 20.984
-8.75 -37.5 20.912
-8.55 -37.5 20.855
-8.35 -37.5 20.756
-8.15 -37.5 20.744
-7.95 -37.5 20.624
-7.75 -37.5 20.537
-7.55 -37.5 20.534
-7.35 -37.5 20.414
-7.15 -37.5 20.351
-6.95 -37.5 20.282
-6.75 -37.5 20.177
-6.55 -37.5 20.075
-6.35 -37.5 19.994
-6.15 -37.5 19.925
-5.95 -37.5 19.814
-5.75 -37.5 19.751
-5.55 -37.5 19.64
-5.35 -37.5 19.577
-5.15 -37.5 19.484
-4.95 -37.5 19.382
-4.75 -37.5 19.337
-4.55 -37.5 19.241
-4.35 -37.5 19.136
-4.15 -37.5 19.049
-3.95 -37.5 18.923
-3.75 -37.5 18.83
-3.55 -37.5 18.704
-3.35 -37.5 18.635
-3.15 -37.5 18.515
-2.95 -37.5 18.425
-2.75 -37.5 18.299
-2.55 -37.5 18.215
-2.35 -37.5 18.062
-2.15 -37.5 17.945
-1.95 -37.5 17.876
-1.75 -37.5 17.759
-1.55 -37.5 17.654
-1.35 -37.5 17.552
-1.15 -37.5 17.435
-0.95 -37.5 17.3
-0.75 -37.5 17.204
-0.55 -37.5 17.078
-0.35 -37.5 16.961
-0.15 -37.5 16.829
0.05 -37.5 16.715
0.25 -37.5 16.532
0.45 -37.5 16.454
0.65 -37.5 16.307
0.85 -37.5 16.214
1.05 -37.5 16.097
1.25 -37.5 15.941
1.45 -37.5 15.83
1.65 -37.5 15.698
1.85 -37.5 15.587
2.05 -37.5 15.473
2.25 -37.5 15.317
2.45 -37.5 15.194
2.65 -37.5 15.026
2.85 -37.5 14.909
3.05 -37.5 14.75
3.25 -37.5 14.651
3.45 -37.5 14.489
3.65 -37.5 14.336
3.85 -37.5 14.177
4.05 -37.5 14.057
4.25 -37.5 13.874
4.45 -37.5 13.754
4.65 -37.5 13.613
4.85 -37.5 13.457
5.05 -37.5 13.307
5.25 -37.5 13.157
5.45 -37.5 13.001
5.65 -37.5 12.893
5.85 -37.5 12.707
6.05 -37.5 12.578
6.25 -37.5 12.362
6.45 -37.5 12.224
6.65 -37.5 12.086
6.85 -37.5 11.906
7.05 -37.5 11.765
7.25 -37.5 11.555
7.45 -37.5 11.435
7.65 -37.5 11.243
7.85 -37.5 11.081
8.05 -37.5 10.895
8.25 -37.5 10.766
8.45 -37.5 10.58
8.65 -37.5 10.403
8.85 -37.5 10.232
9.05 -37.5 10.061
9.25 -37.5 9.845
9.45 -37.5 9.71
9.65 -37.5 9.527
9.85 -37.5 9.341
10.05 -37.5 9.158
10.25 -37.5 8.996
10.45 -37.5 8.798
10.65 -37.5 8.624
10.85 -37.5 8.42
11.05 -37.5 8.24
11.25 -37.5 8.072
11.45 -37.5 7.883
11.65 -37.5 7.649
11.85 -37.5 7.475
12.05 -37.5 7.295
12.25 -37.5 7.109
12.45 -37.5 6.884
12.65 -37.5 6.713
12.85 -37.5 6.488
13.05 -37.5 6.275
13.25 -37.5 6.083
13.45 -37.5 5.909
13.65 -37.5 5.675
13.85 -37.5 5.468
14.05 -37.5 5.246
14.25 -37.5 5.066
14.45 -37.5 4.853
14.65 -37.5 4.643
14.85 -37.5 4.436
15.05 -37.5 4.229
15.25 -37.5 4.013
15.45 -37.5 3.809
15.65 -37.5 3.575
15.85 -37.5 3.362
16.05 -37.5 3.134
16.25 -37.5 2.915
16.45 -37.5 2.717
16.65 -37.5 2.498
16.85 -37.5 2.27
17.05 -37.5 2.027
17.25 -37.5 1.799
17.45 -37.5 1.565
17.65 -37.5 1.34
17.85 -37.5 1.106
18.05 -37.5 0.86
18.25 -37.5 0.647
18.45 -37.5 0.389
18.65 -37.5 0.179
18.85 -37.5 -0.061
19.05 -37.5 -0.295
19.25 -37.5 -0.574
19.45 -37.5 -0.796
19.65 -37.5 -1.036
19.85 -37.5 -1.267
20.05 -37.5 -1.534
20.25 -37.5 -1.801
20.45 -37.5 -2.017
20.65 -37.5 -2.284
20.85 -37.5 -2.533
21.05 -37.5 -2.794
21.25 -37.5 -3.055
21.45 -37.5 -3.295
21.65 -37.5 -3.577
21.85 -37.5 -3.802
22.05 -37.5 -4.066
22.25 -37.5 -4.348
22.45 -37.5 -4.618
22.65 -37.5 -4.873
22.85 -37.5 -5.134
23.05 -37.5 -5.434
23.25 -37.5 -5.698
23.45 -37.5 -5.938
23.65 -37.5 -6.238
23.85 -37.5 -6.493
24.05 -37.5 -6.793
24.25 -37.5 -7.063
24.45 -37.5 -7.336
24.65 -37.5 -7.609
24.85 -37.5 -7.888
25.05 -37.5 -8.173
25.25 -37.5 -8.452
25.45 -37.5 -8.752
25.65 -37.5 -9.025
25.85 -37.5 -9.316
26.05 -37.5 -9.637
26.25 -37.5 -9.898
26.45 -37.5 -10.195
26.65 -37.5 -10.531
26.85 -37.5 -10.78
27.05 -37.5 -11.08
27.25 -37.5 -11.377
27.45 -37.5 -11.725
27.65 -37.5 -11.992
27.85 -37.5 -12.334
28.05 -37.5 -12.631
28.25 -37.5 -12.97
28.45 -37.5 -13.246
28.65 -37.5 -13.582
28.85 -37.5 -13.918
29.05 -37.5 -14.245
29.25 -37.5 -14.554
29.45 -37.5 -14.836
29.65 -37.5 -15.157
29.85 -37.5 -15.544
30.05 -37.5 -15.862
30.25 -37.5 -16.192
30.45 -37.5 -16.555
30.65 -37.5 -16.894
30.85 -37.5 -17.203
31.05 -37.5 -17.533
31.25 -37.5 -17.878
31.45 -37.5 -18.181
31.65 -37.5 -18.55
31.85 -37.5 -18.892
32.05 -37.5 -19.246
32.25 -37.5 -19.579
32.45 -37.5 -19.987
32.65 -37.5 -20.323
32.85 -37.5 -20.662
33.05 -37.5 -20.977
33.25 -37.5 -21.337
33.45 -37.5 -21.742
33.65 -37.5 -22.084
33.85 -37.5 -22.459
34.05 -37.5 -22.816
34.25 -37.5 -23.212
34.45 -37.5 -23.569
34.65 -37.5 -23.902
34.85 -37.5 -24.286
35.05 -37.5 -24.682
35.25 -37.5 -25.045
35.45 -37.5 -25.456
35.65 -37.5 -25.822
35.85 -37.5 -26.254
36.05 -37.5 -26.611
36.25 -37.5 -27.043
36.45 -37.5 -27.43
36.65 -37.5 -27.838
36.85 -37.5 -28.189
37.05 -37.5 -28.567
37.25 -37.5 -28.975
37.45 -37.5 -29.389
37.65 -37.5 -29.815
37.85 -37.5 -30.205
38.05 -37.5 -30.658
38.25 -37.5 -31.084
38.45 -37.5 -31.477
38.65 -37.5 -31.87
38.85 -37.5 -32.272
39.05 -37.5 -32.734
39.25 -37.5 -33.133
39.45 -37.5 -33.619
39.65 -37.5 -33.958
39.85 -37.5 -34.417
40.05 -37.5 -34.903
40.25 -37.5 -35.317
40.45 -37.5 -35.788
40.65 -37.5 -36.286
40.85 -37.5 -36.688
41.05 -37.5 -37.204
41.25 -37.5 -37.615
41.45 -37.5 -38.188
41.65 -37.5 -38.596
41.85 -37.5 -39.187
42.05 -37.5 -39.598
-38.15 -37.7 4.853
-37.95 -37.7 5.696
-37.75 -37.7 6.449
-37.55 -37.7 7.145
-37.35 -37.7 7.802
-37.15 -37.7 8.375
-36.95 -37.7 8.945
-36.75 -37.7 9.449
-36.55 -37.7 9.941
-36.35 -37.7 10.388
-36.15 -37.7 10.826
-35.95 -37.7 11.249
-35.75 -37.7 11.645
-35.55 -37.7 12.017
-35.35 -37.7 12.416
-35.15 -37.7 12.761
-34.95 -37.7 13.097
-34.75 -37.7 13.409
-34.55 -37.7 13.727
-34.35 -37.7 14.063
-34.15 -37.7 14.912
-33.95 -37.7 15.293
-33.75 -37.7 15.545
-33.55 -37.7 15.788
-33.35 -37.7 15.977
-33.15 -37.7 16.196
-32.95 -37.7 16.394
-32.75 -37.7 16.589
-32.55 -37.7 16.835
-32.35 -37.7 17.003
-32.15 -37.7 17.204
-31.95 -37.7 17.387
-31.75 -37.7 17.615
-31.55 -37.7 17.792
-31.35 -37.7 17.948
-31.15 -37.7 18.191
-30.95 -37.7 18.344
-30.75 -37.7 18.545
-30.55 -37.7 18.728
-30.35 -37.7 18.884
-30.15 -37.7 19.031
-29.95 -37.7 19.139
-29.75 -37.7 19.262
-29.55 -37.7 19.418
-29.35 -37.7 19.523
-29.15 -37.7 19.649
-28.95 -37.7 19.757
-28.75 -37.7 19.892
-28.55 -37.7 19.991
-28.35 -37.7 20.147
-28.15 -37.7 20.258
-27.95 -37.7 20.399
-27.75 -37.7 20.498
-27.55 -37.7 20.627
-27.35 -37.7 20.714
-27.15 -37.7 20.843
-26.95 -37.7 20.948
-26.75 -37.7 21.053
-26.55 -37.7 21.17
-26.35 -37.7 21.278
-26.15 -37.7 21.35
-25.95 -37.7 21.47
-25.75 -37.7 21.548
-25.55 -37.7 21.611
-25.35 -37.7 21.677
-25.15 -37.7 21.719
-24.95 -37.7 21.788
-24.75 -37.7 21.872
-24.55 -37.7 21.95
-24.35 -37.7 22.001
-24.15 -37.7 22.073
-23.95 -37.7 22.109
-23.75 -37.7 22.151
-23.55 -37.7 22.199
-23.35 -37.7 22.253
-23.15 -37.7 22.307
-22.95 -37.7 22.415
-22.75 -37.7 22.445
-22.55 -37.7 22.499
-22.35 -37.7 22.58
-22.15 -37.7 22.55
-21.95 -37.7 22.646
-21.75 -37.7 22.706
-21.55 -37.7 22.697
-21.35 -37.7 22.769
-21.15 -37.7 22.832
-20.95 -37.7 22.67
-20.75 -37.7 22.475
-20.55 -37.7 22.448
-20.35 -37.7 22.451
-20.15 -37.7 22.454
-19.95 -37.7 22.475
-19.75 -37.7 22.523
-19.55 -37.7 22.535
-19.35 -37.7 22.514
-19.15 -37.7 22.517
-18.95 -37.7 22.547
-18.75 -37.7 22.613
-18.55 -37.7 22.616
-18.35 -37.7 22.538
-18.15 -37.7 22.568
-17.95 -37.7 22.61
-17.75 -37.7 22.556
-17.55 -37.7 22.565
-17.35 -37.7 22.571
-17.15 -37.7 22.643
-16.95 -37.7 22.55
-16.75 -37.7 22.553
-16.55 -37.7 22.52
-16.35 -37.7 22.535
-16.15 -37.7 22.544
-15.95 -37.7 22.475
-15.75 -37.7 22.397
-15.55 -37.7 22.406
-15.35 -37.7 22.364
-15.15 -37.7 22.391
-14.95 -37.7 22.343
-14.75 -37.7 22.37
-14.55 -37.7 22.334
-14.35 -37.7 22.283
-14.15 -37.7 22.319
-13.95 -37.7 22.232
-13.75 -37.7 22.232
-13.55 -37.7 22.16
-13.35 -37.7 22.142
-13.15 -37.7 22.127
-12.95 -37.7 22.082
-12.75 -37.7 22.052
-12.55 -37.7 21.995
-12.35 -37.7 21.962
-12.15 -37.7 21.917
-11.95 -37.7 21.845
-11.75 -37.7 21.86
-11.55 -37.7 21.746
-11.35 -37.7 21.704
-11.15 -37.7 21.662
-10.95 -37.7 21.647
-10.75 -37.7 21.572
-10.55 -37.7 21.497
-10.35 -37.7 21.449
-10.15 -37.7 21.422
-9.95 -37.7 21.317
-9.75 -37.7 21.266
-9.55 -37.7 21.203
-9.35 -37.7 21.152
-9.15 -37.7 21.119
-8.95 -37.7 21.035
-8.75 -37.7 20.933
-8.55 -37.7 20.876
-8.35 -37.7 20.801
-8.15 -37.7 20.723
-7.95 -37.7 20.678
-7.75 -37.7 20.609
-7.55 -37.7 20.483
-7.35 -37.7 20.45
-7.15 -37.7 20.354
-6.95 -37.7 20.258
-6.75 -37.7 20.213
-6.55 -37.7 20.117
-6.35 -37.7 20.051
-6.15 -37.7 19.985
-5.95 -37.7 19.886
-5.75 -37.7 19.775
-5.55 -37.7 19.736
-5.35 -37.7 19.613
-5.15 -37.7 19.505
-4.95 -37.7 19.424
-4.75 -37.7 19.322
-4.55 -37.7 19.259
-4.35 -37.7 19.157
-4.15 -37.7 19.064
-3.95 -37.7 18.989
-3.75 -37.7 18.878
-3.55 -37.7 18.779
-3.35 -37.7 18.635
-3.15 -37.7 18.56
-2.95 -37.7 18.443
-2.75 -37.7 18.314
-2.55 -37.7 18.236
-2.35 -37.7 18.179
-2.15 -37.7 18.074
-1.95 -37.7 17.945
-1.75 -37.7 17.822
-1.55 -37.7 17.72
-1.35 -37.7 17.582
-1.15 -37.7 17.468
-0.95 -37.7 17.378
-0.75 -37.7 17.222
-0.55 -37.7 17.12
-0.35 -37.7 17.012
-0.15 -37.7 16.895
0.05 -37.7 16.727
0.25 -37.7 16.643
0.45 -37.7 16.505
0.65 -37.7 16.379
0.85 -37.7 16.211
1.05 -37.7 16.106
1.25 -37.7 15.995
1.45 -37.7 15.89
1.65 -37.7 15.767
1.85 -37.7 15.653
2.05 -37.7 15.47
2.25 -37.7 15.347
2.45 -37.7 15.227
2.65 -37.7 15.068
2.85 -37.7 14.963
3.05 -37.7 14.813
3.25 -37.7 14.654
3.45 -37.7 14.543
3.65 -37.7 14.402
3.85 -37.7 14.282
4.05 -37.7 14.105
4.25 -37.7 13.964
4.45 -37.7 13.838
4.65 -37.7 13.64
4.85 -37.7 13.502
5.05 -37.7 13.361
5.25 -37.7 13.196
5.45 -37.7 13.073
5.65 -37.7 12.872
5.85 -37.7 12.755
6.05 -37.7 12.602
6.25 -37.7 12.434
6.45 -37.7 12.269
6.65 -37.7 12.134
6.85 -37.7 11.954
7.05 -37.7 11.807
7.25 -37.7 11.633
7.45 -37.7 11.459
7.65 -37.7 11.297
7.85 -37.7 11.168
8.05 -37.7 10.97
8.25 -37.7 10.796
8.45 -37.7 10.628
8.65 -37.7 10.454
8.85 -37.7 10.28
9.05 -37.7 10.094
9.25 -37.7 9.911
9.45 -37.7 9.752
9.65 -37.7 9.575
9.85 -37.7 9.386
10.05 -37.7 9.212
10.25 -37.7 9.053
10.45 -37.7 8.843
10.65 -37.7 8.666
10.85 -37.7 8.495
11.05 -37.7 8.309
11.25 -37.7 8.114
11.45 -37.7 7.916
11.65 -37.7 7.754
11.85 -37.7 7.565
12.05 -37.7 7.361
12.25 -37.7 7.145
12.45 -37.7 6.971
12.65 -37.7 6.776
12.85 -37.7 6.563
13.05 -37.7 6.347
13.25 -37.7 6.143
13.45 -37.7 5.96
13.65 -37.7 5.735
13.85 -37.7 5.546
14.05 -37.7 5.348
14.25 -37.7 5.12
14.45 -37.7 4.934
14.65 -37.7 4.709
14.85 -37.7 4.514
15.05 -37.7 4.295
15.25 -37.7 4.073
15.45 -37.7 3.872
15.65 -37.7 3.659
15.85 -37.7 3.434
16.05 -37.7 3.194
16.25 -37.7 2.984
16.45 -37.7 2.78
16.65 -37.7 2.558
16.85 -37.7 2.297
17.05 -37.7 2.072
17.25 -37.7 1.826
17.45 -37.7 1.616
17.65 -37.7 1.373
17.85 -37.7 1.166
18.05 -37.7 0.926
18.25 -37.7 0.695
18.45 -37.7 0.485
18.65 -37.7 0.227
18.85 -37.7 -0.013
19.05 -37.7 -0.241
19.25 -37.7 -0.475
19.45 -37.7 -0.736
19.65 -37.7 -0.964
19.85 -37.7 -1.201
20.05 -37.7 -1.465
20.25 -37.7 -1.723
20.45 -37.7 -1.972
20.65 -37.7 -2.194
20.85 -37.7 -2.446
21.05 -37.7 -2.707
21.25 -37.7 -2.98
21.45 -37.7 -3.211
21.65 -37.7 -3.478
21.85 -37.7 -3.727
22.05 -37.7 -4.003
22.25 -37.7 -4.24
22.45 -37.7 -4.537
22.65 -37.7 -4.774
22.85 -37.7 -5.044
23.05 -37.7 -5.353
23.25 -37.7 -5.608
23.45 -37.7 -5.857
23.65 -37.7 -6.139
23.85 -37.7 -6.418
24.05 -37.7 -6.688
24.25 -37.7 -6.964
24.45 -37.7 -7.267
24.65 -37.7 -7.558
24.85 -37.7 -7.789
25.05 -37.7 -8.11
25.25 -37.7 -8.371
25.45 -37.7 -8.689
25.65 -37.7 -8.992
25.85 -37.7 -9.268
26.05 -37.7 -9.565
26.25 -37.7 -9.835
26.45 -37.7 -10.084
26.65 -37.7 -10.441
26.85 -37.7 -10.807
27.05 -37.7 -10.975
27.25 -37.7 -11.305
27.45 -37.7 -11.593
27.65 -37.7 -11.947
27.85 -37.7 -12.19
28.05 -37.7 -12.523
28.25 -37.7 -12.844
28.45 -37.7 -13.159
28.65 -37.7 -13.474
28.85 -37.7 -13.801
29.05 -37.7 -14.143
29.25 -37.7 -14.422
29.45 -37.7 -14.791
29.65 -37.7 -15.088
29.85 -37.7 -15.412
30.05 -37.7 -15.775
30.25 -37.7 -16.117
30.45 -37.7 -16.444
30.65 -37.7 -16.78
30.85 -37.7 -17.125
31.05 -37.7 -17.425
31.25 -37.7 -17.752
31.45 -37.7 -18.076
31.65 -37.7 -18.487
31.85 -37.7 -18.799
32.05 -37.7 -19.105
32.25 -37.7 -19.489
32.45 -37.7 -19.864
32.65 -37.7 -20.233
32.85 -37.7 -20.608
33.05 -37.7 -20.953
33.25 -37.7 -21.274
33.45 -37.7 -21.631
33.65 -37.7 -22.003
33.85 -37.7 -22.354
34.05 -37.7 -22.735
34.25 -37.7 -23.089
34.45 -37.7 -23.443
34.65 -37.7 -23.833
34.85 -37.7 -24.211
35.05 -37.7 -24.568
35.25 -37.7 -24.964
35.45 -37.7 -25.33
35.65 -37.7 -25.693
35.85 -37.7 -26.077
36.05 -37.7 -26.512
36.25 -37.7 -26.836
36.45 -37.7 -27.25
36.65 -37.7 -27.67
36.85 -37.7 -28.084
37.05 -37.7 -28.462
37.25 -37.7 -28.873
37.45 -37.7 -29.296
37.65 -37.7 -29.722
37.85 -37.7 -30.175
38.05 -37.7 -30.535
38.25 -37.7 -30.952
38.45 -37.7 -31.354
38.65 -37.7 -31.81
38.85 -37.7 -32.2
39.05 -37.7 -32.656
39.25 -37.7 -33.118
39.45 -37.7 -33.508
39.65 -37.7 -33.931
39.85 -37.7 -34.339
40.05 -37.7 -34.789
40.25 -37.7 -35.26
40.45 -37.7 -35.653
40.65 -37.7 -36.154
41.25 -37.7 -37.585
41.45 -37.7 -38.044
41.65 -37.7 -38.512
41.85 -37.7 -38.986
42.05 -37.7 -39.418
-38.15 -37.9 5.18
-37.95 -37.9 5.831
-37.75 -37.9 6.581
-37.55 -37.9 7.253
-37.35 -37.9 7.901
-37.15 -37.9 8.459
-36.95 -37.9 9.029
-36.75 -37.9 9.536
-36.55 -37.9 9.983
-36.35 -37.9 10.463
-36.15 -37.9 10.898
-35.95 -37.9 11.297
-35.75 -37.9 11.705
-35.55 -37.9 12.113
-35.35 -37.9 12.488
-35.15 -37.9 12.827
-34.95 -37.9 13.151
-34.75 -37.9 13.49
-34.55 -37.9 13.787
-34.35 -37.9 14.15
-34.15 -37.9 14.939
-33.95 -37.9 15.389
-33.75 -37.9 15.584
-33.55 -37.9 15.833
-33.35 -37.9 16.022
-33.15 -37.9 16.241
-32.95 -37.9 16.442
-32.75 -37.9 16.595
-32.55 -37.9 16.85
-32.35 -37.9 17.045
-32.15 -37.9 17.231
-31.95 -37.9 17.435
-31.75 -37.9 17.63
-31.55 -37.9 17.831
-31.35 -37.9 18.008
-31.15 -37.9 18.242
-30.95 -37.9 18.392
-30.75 -37.9 18.593
-30.55 -37.9 18.788
-30.35 -37.9 18.929
-30.15 -37.9 19.073
-29.95 -37.9 19.19
-29.75 -37.9 19.319
-29.55 -37.9 19.439
-29.35 -37.9 19.571
-29.15 -37.9 19.712
-28.95 -37.9 19.871
-28.75 -37.9 19.973
-28.55 -37.9 20.054
-28.35 -37.9 20.195
-28.15 -37.9 20.321
-27.95 -37.9 20.435
-27.75 -37.9 20.543
-27.55 -37.9 20.63
-27.35 -37.9 20.738
-27.15 -37.9 20.876
-26.95 -37.9 20.969
-26.75 -37.9 21.095
-26.55 -37.9 21.236
-26.35 -37.9 21.335
-26.15 -37.9 21.407
-25.95 -37.9 21.515
-25.75 -37.9 21.596
-25.55 -37.9 21.647
-25.35 -37.9 21.719
-25.15 -37.9 21.797
-24.95 -37.9 21.869
-24.75 -37.9 21.917
-24.55 -37.9 21.974
-24.35 -37.9 21.998
-24.15 -37.9 22.07
-23.95 -37.9 22.136
-23.75 -37.9 22.199
-23.55 -37.9 22.232
-23.35 -37.9 22.319
-23.15 -37.9 22.376
-22.95 -37.9 22.421
-22.75 -37.9 22.454
-22.55 -37.9 22.514
-22.35 -37.9 22.577
-22.15 -37.9 22.604
-21.95 -37.9 22.661
-21.75 -37.9 22.679
-21.55 -37.9 22.751
-21.35 -37.9 22.787
-21.15 -37.9 22.79
-20.95 -37.9 22.658
-20.75 -37.9 22.496
-20.55 -37.9 22.478
-20.35 -37.9 22.472
-20.15 -37.9 22.496
-19.95 -37.9 22.544
-19.75 -37.9 22.538
-19.55 -37.9 22.577
-19.35 -37.9 22.622
-19.15 -37.9 22.631
-18.95 -37.9 22.622
-18.75 -37.9 22.556
-18.55 -37.9 22.601
-18.35 -37.9 22.649
-18.15 -37.9 22.589
-17.95 -37.9 22.568
-17.75 -37.9 22.616
-17.55 -37.9 22.583
-17.35 -37.9 22.61
-17.15 -37.9 22.613
-16.95 -37.9 22.613
-16.75 -37.9 22.592
-16.55 -37.9 22.526
-16.35 -37.9 22.424
-16.15 -37.9 22.505
-15.95 -37.9 22.532
-15.75 -37.9 22.502
-15.55 -37.9 22.538
-15.35 -37.9 22.493
-15.15 -37.9 22.451
-14.95 -37.9 22.451
-14.75 -37.9 22.415
-14.55 -37.9 22.376
-14.35 -37.9 22.337
-14.15 -37.9 22.298
-13.95 -37.9 22.295
-13.75 -37.9 22.244
-13.55 -37.9 22.262
-13.35 -37.9 22.187
-13.15 -37.9 22.166
-12.95 -37.9 22.124
-12.75 -37.9 22.07
-12.55 -37.9 22.031
-12.35 -37.9 22.01
-12.15 -37.9 21.983
-11.95 -37.9 21.935
-11.75 -37.9 21.851
-11.55 -37.9 21.824
-11.35 -37.9 21.686
-11.15 -37.9 21.71
-10.95 -37.9 21.614
-10.75 -37.9 21.599
-10.55 -37.9 21.545
-10.35 -37.9 21.482
-10.15 -37.9 21.434
-9.95 -37.9 21.374
-9.75 -37.9 21.296
-9.55 -37.9 21.263
-9.35 -37.9 21.164
-9.15 -37.9 21.122
-8.95 -37.9 21.017
-8.75 -37.9 20.93
-8.55 -37.9 20.909
-8.35 -37.9 20.888
-8.15 -37.9 20.822
-7.95 -37.9 20.726
-7.75 -37.9 20.633
-7.55 -37.9 20.591
-7.35 -37.9 20.513
-7.15 -37.9 20.408
-6.95 -37.9 20.318
-6.75 -37.9 20.204
-6.55 -37.9 20.096
-6.35 -37.9 20.138
-6.15 -37.9 20.0
-5.95 -37.9 19.94
-5.75 -37.9 19.82
-5.55 -37.9 19.718
-5.35 -37.9 19.631
-5.15 -37.9 19.553
-4.95 -37.9 19.442
-4.75 -37.9 19.361
-4.55 -37.9 19.283
-4.35 -37.9 19.196
-4.15 -37.9 19.097
-3.95 -37.9 18.989
-3.75 -37.9 18.893
-3.55 -37.9 18.8
-3.35 -37.9 18.692
-3.15 -37.9 18.65
-2.95 -37.9 18.539
-2.75 -37.9 18.386
-2.55 -37.9 18.305
-2.35 -37.9 18.176
-2.15 -37.9 18.068
-1.95 -37.9 17.978
-1.75 -37.9 17.828
-1.55 -37.9 17.714
-1.35 -37.9 17.636
-1.15 -37.9 17.486
-0.95 -37.9 17.348
-0.75 -37.9 17.288
-0.55 -37.9 17.141
-0.35 -37.9 17.033
-0.15 -37.9 16.922
0.05 -37.9 16.781
0.25 -37.9 16.691
0.45 -37.9 16.562
0.65 -37.9 16.418
0.85 -37.9 16.331
1.05 -37.9 16.19
1.25 -37.9 16.058
1.45 -37.9 15.947
1.65 -37.9 15.806
1.85 -37.9 15.686
2.05 -37.9 15.554
2.25 -37.9 15.38
2.45 -37.9 15.26
2.65 -37.9 15.152
2.85 -37.9 15.002
3.05 -37.9 14.831
3.25 -37.9 14.738
3.45 -37.9 14.582
3.65 -37.9 14.435
3.85 -37.9 14.291
4.05 -37.9 14.156
4.25 -37.9 13.982
4.45 -37.9 13.874
4.65 -37.9 13.715
4.85 -37.9 13.556
5.05 -37.9 13.418
5.25 -37.9 13.22
5.45 -37.9 13.091
5.65 -37.9 12.977
5.85 -37.9 12.785
6.05 -37.9 12.662
6.25 -37.9 12.491
6.45 -37.9 12.341
6.65 -37.9 12.146
6.85 -37.9 12.011
7.05 -37.9 11.834
7.25 -37.9 11.663
7.45 -37.9 11.504
7.65 -37.9 11.378
7.85 -37.9 11.171
8.05 -37.9 11.003
8.25 -37.9 10.829
8.45 -37.9 10.673
8.65 -37.9 10.517
8.85 -37.9 10.373
9.05 -37.9 10.178
9.25 -37.9 9.983
9.45 -37.9 9.809
9.65 -37.9 9.617
9.85 -37.9 9.437
10.05 -37.9 9.266
10.25 -37.9 9.092
10.45 -37.9 8.903
10.65 -37.9 8.747
10.85 -37.9 8.525
11.05 -37.9 8.363
11.25 -37.9 8.168
11.45 -37.9 7.985
11.65 -37.9 7.799
11.85 -37.9 7.61
12.05 -37.9 7.412
12.25 -37.9 7.229
12.45 -37.9 7.016
12.65 -37.9 6.833
12.85 -37.9 6.62
13.05 -37.9 6.431
13.25 -37.9 6.224
13.45 -37.9 6.023
13.65 -37.9 5.792
13.85 -37.9 5.621
14.05 -37.9 5.408
14.25 -37.9 5.216
14.45 -37.9 5.0
14.65 -37.9 4.787
14.85 -37.9 4.55
15.05 -37.9 4.343
15.25 -37.9 4.145
15.45 -37.9 3.938
15.65 -37.9 3.737
15.85 -37.9 3.503
16.05 -37.9 3.35
16.25 -37.9 3.065
16.45 -37.9 2.861
16.65 -37.9 2.585
16.85 -37.9 2.378
17.05 -37.9 2.174
17.25 -37.9 1.925
17.45 -37.9 1.721
17.65 -37.9 1.46
17.85 -37.9 1.232
18.05 -37.9 1.028
18.25 -37.9 0.767
18.45 -37.9 0.533
18.65 -37.9 0.293
18.85 -37.9 0.044
19.05 -37.9 -0.202
19.25 -37.9 -0.424
19.45 -37.9 -0.661
19.65 -37.9 -0.889
19.85 -37.9 -1.144
20.05 -37.9 -1.399
20.25 -37.9 -1.642
20.45 -37.9 -1.879
20.65 -37.9 -2.143
20.85 -37.9 -2.404
21.05 -37.9 -2.653
21.25 -37.9 -2.887
21.45 -37.9 -3.139
21.65 -37.9 -3.382
21.85 -37.9 -3.673
22.05 -37.9 -3.904
22.25 -37.9 -4.177
22.45 -37.9 -4.456
22.65 -37.9 -4.714
22.85 -37.9 -4.972
23.05 -37.9 -5.209
23.25 -37.9 -5.518
23.45 -37.9 -5.815
23.65 -37.9 -6.019
23.85 -37.9 -6.331
24.05 -37.9 -6.589
24.25 -37.9 -6.874
24.45 -37.9 -7.153
24.65 -37.9 -7.456
24.85 -37.9 -7.72
25.05 -37.9 -8.023
25.25 -37.9 -8.311
25.45 -37.9 -8.563
25.65 -37.9 -8.869
25.85 -37.9 -9.178
26.05 -37.9 -9.466
26.85 -37.9 -10.66
27.05 -37.9 -10.972
27.25 -37.9 -11.236
27.45 -37.9 -11.569
27.65 -37.9 -11.86
27.85 -37.9 -12.133
28.05 -37.9 -12.463
28.25 -37.9 -12.766
28.45 -37.9 -13.078
28.65 -37.9 -13.411
28.85 -37.9 -13.729
29.05 -37.9 -14.017
29.25 -37.9 -14.329
29.45 -37.9 -14.65
29.65 -37.9 -14.947
29.85 -37.9 -15.271
30.05 -37.9 -15.634
30.25 -37.9 -15.988
30.45 -37.9 -16.318
30.65 -37.9 -16.657
30.85 -37.9 -16.99
31.05 -37.9 -17.305
31.25 -37.9 -17.653
31.45 -37.9 -18.001
31.65 -37.9 -18.358
31.85 -37.9 -18.709
32.05 -37.9 -19.084
32.25 -37.9 -19.372
32.45 -37.9 -19.753
32.65 -37.9 -20.14
32.85 -37.9 -20.467
33.05 -37.9 -20.827
33.25 -37.9 -21.202
33.45 -37.9 -21.559
33.65 -37.9 -21.898
33.85 -37.9 -22.252
34.05 -37.9 -22.642
34.25 -37.9 -23.014
34.45 -37.9 -23.365
34.65 -37.9 -23.761
34.85 -37.9 -24.079
35.05 -37.9 -24.439
35.25 -37.9 -24.877
35.45 -37.9 -25.24
35.65 -37.9 -25.633
35.85 -37.9 -26.02
36.05 -37.9 -26.374
36.25 -37.9 -26.728
36.45 -37.9 -27.166
36.65 -37.9 -27.559
36.85 -37.9 -27.976
37.05 -37.9 -28.366
37.25 -37.9 -28.777
37.45 -37.9 -29.155
37.65 -37.9 -29.575
37.85 -37.9 -29.971
38.05 -37.9 -30.472
38.25 -37.9 -30.826
38.45 -37.9 -31.264
38.65 -37.9 -31.675
38.85 -37.9 -32.122
39.05 -37.9 -32.488
39.25 -37.9 -32.986
39.45 -37.9 -33.343
39.65 -37.9 -33.847
39.85 -37.9 -34.273
40.05 -37.9 -34.72
40.25 -37.9 -35.155
40.45 -37.9 -35.602
40.65 -37.9 -36.079
40.85 -37.9 -36.55
41.25 -37.9 -37.48
41.45 -37.9 -38.017
41.65 -37.9 -38.368
-38.15 -38.1 5.138
-37.95 -38.1 5.948
-37.75 -38.1 6.695
-37.55 -38.1 7.361
-37.35 -38.1 8.006
-37.15 -38.1 8.57
-36.95 -38.1 9.116
-36.75 -38.1 9.617
-36.55 -38.1 10.112
-36.35 -38.1 10.55
-36.15 -38.1 11.024
-35.95 -38.1 11.417
-35.75 -38.1 11.807
-35.55 -38.1 12.194
-35.35 -38.1 12.518
-35.15 -38.1 12.872
-34.95 -38.1 13.178
-34.75 -38.1 13.532
-34.55 -38.1 13.865
-34.35 -38.1 14.204
-34.15 -38.1 14.903
-33.95 -38.1 15.416
-33.75 -38.1 15.611
-33.55 -38.1 15.857
-33.35 -38.1 16.064
-33.15 -38.1 16.268
-32.95 -38.1 16.463
-32.75 -38.1 16.67
-32.55 -38.1 16.889
-32.35 -38.1 17.081
-32.15 -38.1 17.291
-31.95 -38.1 17.51
-31.75 -38.1 17.699
-31.55 -38.1 17.867
-31.35 -38.1 18.071
-31.15 -38.1 18.236
-30.95 -38.1 18.431
-30.75 -38.1 18.626
-30.55 -38.1 18.824
-30.35 -38.1 18.98
-30.15 -38.1 19.118
-29.95 -38.1 19.235
-29.75 -38.1 19.343
-29.55 -38.1 19.514
-29.35 -38.1 19.634
-29.15 -38.1 19.754
-28.95 -38.1 19.874
-28.75 -38.1 19.997
-28.55 -38.1 20.093
-28.35 -38.1 20.222
-28.15 -38.1 20.357
-27.95 -38.1 20.432
-27.75 -38.1 20.558
-27.55 -38.1 20.714
-27.35 -38.1 20.795
-27.15 -38.1 20.945
-26.95 -38.1 21.05
-26.75 -38.1 21.17
-26.55 -38.1 21.242
-26.35 -38.1 21.335
-26.15 -38.1 21.422
-25.95 -38.1 21.536
-25.75 -38.1 21.623
-25.55 -38.1 21.686
-25.35 -38.1 21.731
-25.15 -38.1 21.794
-24.95 -38.1 21.875
-24.75 -38.1 21.92
-24.55 -38.1 21.983
-24.35 -38.1 22.019
-24.15 -38.1 22.127
-23.95 -38.1 22.184
-23.75 -38.1 22.202
-23.55 -38.1 22.259
-23.35 -38.1 22.316
-23.15 -38.1 22.373
-22.95 -38.1 22.427
-22.75 -38.1 22.514
-22.55 -38.1 22.532
-22.35 -38.1 22.583
-22.15 -38.1 22.664
-21.95 -38.1 22.7
-21.75 -38.1 22.748
-21.55 -38.1 22.793
-21.35 -38.1 22.793
-21.15 -38.1 22.808
-20.95 -38.1 22.661
-20.75 -38.1 22.583
-20.55 -38.1 22.493
-20.35 -38.1 22.439
-20.15 -38.1 22.517
-19.95 -38.1 22.532
-19.75 -38.1 22.556
-19.55 -38.1 22.583
-19.35 -38.1 22.568
-19.15 -38.1 22.586
-18.95 -38.1 22.643
-18.75 -38.1 22.661
-18.55 -38.1 22.655
-18.35 -38.1 22.688
-18.15 -38.1 22.652
-17.95 -38.1 22.652
-17.75 -38.1 22.673
-17.55 -38.1 22.658
-17.35 -38.1 22.697
-17.15 -38.1 22.631
-16.95 -38.1 22.625
-16.75 -38.1 22.61
-16.55 -38.1 22.643
-16.35 -38.1 22.679
-16.15 -38.1 22.583
-15.95 -38.1 22.577
-15.75 -38.1 22.535
-15.55 -38.1 22.553
-15.35 -38.1 22.496
-15.15 -38.1 22.523
-14.95 -38.1 22.484
-14.75 -38.1 22.424
-14.55 -38.1 22.418
-14.35 -38.1 22.328
-14.15 -38.1 22.319
-13.95 -38.1 22.328
-13.75 -38.1 22.322
-13.55 -38.1 22.22
-13.35 -38.1 22.241
-13.15 -38.1 22.166
-12.95 -38.1 22.148
-12.75 -38.1 22.1
-12.55 -38.1 22.037
-12.35 -38.1 21.947
-12.15 -38.1 21.908
-11.95 -38.1 21.926
-11.75 -38.1 21.893
-11.55 -38.1 21.842
-11.35 -38.1 21.809
-11.15 -38.1 21.734
-10.95 -38.1 21.677
-10.75 -38.1 21.692
-10.55 -38.1 21.632
-10.35 -38.1 21.554
-10.15 -38.1 21.467
-9.95 -38.1 21.416
-9.75 -38.1 21.347
-9.55 -38.1 21.278
-9.35 -38.1 21.233
-9.15 -38.1 21.182
-8.95 -38.1 21.158
-8.75 -38.1 21.044
-8.55 -38.1 20.966
-8.35 -38.1 20.861
-8.15 -38.1 20.825
-7.95 -38.1 20.708
-7.75 -38.1 20.636
-7.55 -38.1 20.54
-7.35 -38.1 20.483
-7.15 -38.1 20.459
-6.95 -38.1 20.369
-6.75 -38.1 20.318
-6.55 -38.1 20.222
-6.35 -38.1 20.102
-6.15 -38.1 20.069
-5.95 -38.1 19.952
-5.75 -38.1 19.88
-5.55 -38.1 19.769
-5.35 -38.1 19.676
-5.15 -38.1 19.601
-4.95 -38.1 19.52
-4.75 -38.1 19.421
-4.55 -38.1 19.331
-4.35 -38.1 19.226
-4.15 -38.1 19.115
-3.95 -38.1 19.016
-3.75 -38.1 18.932
-3.55 -38.1 18.842
-3.35 -38.1 18.668
-3.15 -38.1 18.536
-2.95 -38.1 18.509
-2.75 -38.1 18.404
-2.55 -38.1 18.269
-2.35 -38.1 18.176
-2.15 -38.1 18.089
-1.95 -38.1 17.975
-1.75 -38.1 17.867
-1.55 -38.1 17.774
-1.35 -38.1 17.678
-1.15 -38.1 17.588
-0.95 -38.1 17.444
-0.75 -38.1 17.324
-0.55 -38.1 17.204
-0.35 -38.1 17.066
-0.15 -38.1 16.976
0.05 -38.1 16.895
0.25 -38.1 16.706
0.45 -38.1 16.595
0.65 -38.1 16.463
0.85 -38.1 16.319
1.05 -38.1 16.226
1.25 -38.1 16.106
1.45 -38.1 15.968
1.65 -38.1 15.827
1.85 -38.1 15.707
2.05 -38.1 15.569
2.25 -38.1 15.428
2.45 -38.1 15.299
2.65 -38.1 15.137
2.85 -38.1 15.023
3.05 -38.1 14.924
3.25 -38.1 14.774
3.45 -38.1 14.612
3.65 -38.1 14.489
3.85 -38.1 14.366
4.05 -38.1 14.171
4.25 -38.1 14.048
4.45 -38.1 13.904
4.65 -38.1 13.781
4.85 -38.1 13.547
5.05 -38.1 13.481
5.25 -38.1 13.301
5.45 -38.1 13.163
5.65 -38.1 13.001
5.85 -38.1 12.857
6.05 -38.1 12.686
6.25 -38.1 12.536
6.45 -38.1 12.356
6.65 -38.1 12.221
6.85 -38.1 12.077
7.05 -38.1 11.891
7.25 -38.1 11.765
7.45 -38.1 11.552
7.65 -38.1 11.414
7.85 -38.1 11.243
8.05 -38.1 11.048
8.25 -38.1 10.922
8.45 -38.1 10.721
8.65 -38.1 10.577
8.85 -38.1 10.37
9.05 -38.1 10.199
9.25 -38.1 10.031
9.45 -38.1 9.833
9.65 -38.1 9.704
9.85 -38.1 9.506
10.05 -38.1 9.335
10.25 -38.1 9.152
10.45 -38.1 8.96
10.65 -38.1 8.78
10.85 -38.1 8.573
11.05 -38.1 8.42
11.25 -38.1 8.204
11.45 -38.1 8.03
11.65 -38.1 7.844
11.85 -38.1 7.661
12.05 -38.1 7.487
12.25 -38.1 7.277
12.45 -38.1 7.103
12.65 -38.1 6.881
12.85 -38.1 6.686
13.05 -38.1 6.473
13.25 -38.1 6.326
13.45 -38.1 6.077
13.65 -38.1 5.876
13.85 -38.1 5.696
14.05 -38.1 5.486
14.25 -38.1 5.267
14.45 -38.1 5.093
14.65 -38.1 4.841
14.85 -38.1 4.682
15.05 -38.1 4.436
15.25 -38.1 4.217
15.45 -38.1 3.986
15.65 -38.1 3.794
15.85 -38.1 3.572
16.05 -38.1 3.344
16.25 -38.1 3.137
16.45 -38.1 2.927
16.65 -38.1 2.675
16.85 -38.1 2.432
17.05 -38.1 2.228
17.25 -38.1 2.003
17.45 -38.1 1.772
17.65 -38.1 1.535
17.85 -38.1 1.301
18.05 -38.1 1.085
18.25 -38.1 0.821
18.45 -38.1 0.599
18.65 -38.1 0.374
18.85 -38.1 0.137
19.05 -38.1 -0.127
19.25 -38.1 -0.367
19.45 -38.1 -0.583
19.65 -38.1 -0.817
19.85 -38.1 -1.078
20.05 -38.1 -1.33
20.25 -38.1 -1.549
20.45 -38.1 -1.828
20.65 -38.1 -2.077
20.85 -38.1 -2.311
21.05 -38.1 -2.578
21.25 -38.1 -2.821
21.45 -38.1 -3.079
21.65 -38.1 -3.292
21.85 -38.1 -3.586
22.05 -38.1 -3.841
22.25 -38.1 -4.081
22.45 -38.1 -4.354
22.65 -38.1 -4.621
22.85 -38.1 -4.879
23.05 -38.1 -5.164
23.25 -38.1 -5.425
23.45 -38.1 -5.707
23.65 -38.1 -5.965
23.85 -38.1 -6.232
24.05 -38.1 -6.493
24.25 -38.1 -6.781
24.45 -38.1 -7.048
24.65 -38.1 -7.345
24.85 -38.1 -7.627
25.05 -38.1 -7.93
25.25 -38.1 -8.209
25.45 -38.1 -8.479
25.65 -38.1 -8.797
25.85 -38.1 -9.061
26.05 -38.1 -9.349
26.25 -38.1 -9.589
26.85 -38.1 -10.555
27.05 -38.1 -10.876
27.25 -38.1 -11.14
27.45 -38.1 -11.455
27.65 -38.1 -11.761
27.85 -38.1 -12.064
28.05 -38.1 -12.364
28.25 -38.1 -12.694
28.45 -38.1 -12.988
28.65 -38.1 -13.315
28.85 -38.1 -13.624
29.05 -38.1 -13.93
29.25 -38.1 -14.23
29.45 -38.1 -14.611
29.65 -38.1 -14.872
29.85 -38.1 -15.244
30.05 -38.1 -15.55
30.25 -38.1 -15.895
30.45 -38.1 -16.183
30.65 -38.1 -16.567
30.85 -38.1 -16.864
31.05 -38.1 -17.2
31.25 -38.1 -17.536
31.45 -38.1 -17.875
31.65 -38.1 -18.244
31.85 -38.1 -18.607
32.05 -38.1 -18.859
32.25 -38.1 -19.282
32.45 -38.1 -19.657
32.65 -38.1 -19.987
32.85 -38.1 -20.386
33.05 -38.1 -20.734
33.25 -38.1 -21.115
33.45 -38.1 -21.448
33.65 -38.1 -21.817
33.85 -38.1 -22.165
34.05 -38.1 -22.495
34.25 -38.1 -22.885
34.45 -38.1 -23.257
34.65 -38.1 -23.653
34.85 -38.1 -24.028
35.05 -38.1 -24.367
35.25 -38.1 -24.757
35.45 -38.1 -25.144
35.65 -38.1 -25.54
35.85 -38.1 -25.9
36.05 -38.1 -26.266
36.25 -38.1 -26.695
36.45 -38.1 -27.052
36.65 -38.1 -27.412
36.85 -38.1 -27.847
37.05 -38.1 -28.243
37.25 -38.1 -28.624
37.45 -38.1 -29.041
37.65 -38.1 -29.449
37.85 -38.1 -29.827
38.05 -38.1 -30.277
38.25 -38.1 -30.676
38.45 -38.1 -31.141
38.65 -38.1 -31.534
38.85 -38.1 -31.972
39.05 -38.1 -32.458
39.25 -38.1 -32.8
39.45 -38.1 -33.259
39.65 -38.1 -33.748
39.85 -38.1 -34.18
40.05 -38.1 -34.642
40.25 -38.1 -35.074
40.45 -38.1 -35.482
40.65 -38.1 -35.956
40.85 -38.1 -36.517
41.05 -38.1 -36.988
41.25 -38.1 -37.279
41.45 -38.1 -37.861
41.65 -38.1 -38.389
-38.35 -38.3 4.412
-38.15 -38.3 5.291
-37.95 -38.3 6.08
-37.75 -38.3 6.824
-37.55 -38.3 7.493
-37.35 -38.3 8.102
-37.15 -38.3 8.687
-36.95 -38.3 9.194
-36.75 -38.3 9.704
-36.55 -38.3 10.187
-36.35 -38.3 10.61
-36.15 -38.3 11.039
-35.95 -38.3 11.501
-35.75 -38.3 11.864
-35.55 -38.3 12.215
-35.35 -38.3 12.575
-35.15 -38.3 12.938
-34.95 -38.3 13.244
-34.75 -38.3 13.556
-34.55 -38.3 13.856
-34.35 -38.3 14.258
-34.15 -38.3 15.269
-33.95 -38.3 15.476
-33.75 -38.3 15.695
-33.55 -38.3 15.917
-33.35 -38.3 16.118
-33.15 -38.3 16.316
-32.95 -38.3 16.523
-32.75 -38.3 16.736
-32.55 -38.3 16.946
-32.35 -38.3 17.15
-32.15 -38.3 17.318
-31.95 -38.3 17.534
-31.75 -38.3 17.765
-31.55 -38.3 17.915
-31.35 -38.3 18.113
-31.15 -38.3 18.293
-30.95 -38.3 18.485
-30.75 -38.3 18.665
-30.55 -38.3 18.86
-30.35 -38.3 19.028
-30.15 -38.3 19.16
-29.95 -38.3 19.298
-29.75 -38.3 19.424
-29.55 -38.3 19.544
-29.35 -38.3 19.667
-29.15 -38.3 19.787
-28.95 -38.3 19.928
-28.75 -38.3 20.048
-28.55 -38.3 20.15
-28.35 -38.3 20.261
-28.15 -38.3 20.369
-27.95 -38.3 20.495
-27.75 -38.3 20.636
-27.55 -38.3 20.72
-27.35 -38.3 20.855
-27.15 -38.3 20.96
-26.95 -38.3 21.05
-26.75 -38.3 21.152
-26.55 -38.3 21.269
-26.35 -38.3 21.365
-26.15 -38.3 21.497
-25.95 -38.3 21.575
-25.75 -38.3 21.638
-25.55 -38.3 21.716
-25.35 -38.3 21.794
-25.15 -38.3 21.815
-24.95 -38.3 21.893
-24.75 -38.3 21.989
-24.55 -38.3 22.043
-24.35 -38.3 22.112
-24.15 -38.3 22.142
-23.95 -38.3 22.226
-23.75 -38.3 22.256
-23.55 -38.3 22.31
-23.35 -38.3 22.361
-23.15 -38.3 22.412
