-2.111489	-35.244171	-73.908737	254	235	254
-34.342594	-29.699371	-1.042138	110	102	145
-33.932392	-29.700140	-1.047109	109	109	142
-33.727436	-29.700190	-1.045353	113	111	142
-33.522377	-29.700481	-1.046668	117	110	142
-33.112465	-29.700607	-1.043508	120	106	144
-32.908058	-29.699492	-1.027008	119	109	155
-32.499763	-29.696285	-0.981675	124	116	151
-32.294758	-29.696541	-0.982530	130	116	155
-31.882923	-29.700758	-1.031124	133	112	155
-31.677549	-29.701710	-1.040790	128	113	156
-31.268307	-29.700623	-1.022279	124	116	154
-31.063896	-29.699703	-1.008265	121	112	158
-30.655514	-29.697123	-0.970864	124	119	161
-30.450237	-29.697910	-0.978456	120	116	155
-30.036970	-29.704411	-1.055933	116	115	154
-29.831036	-29.706305	-1.077511	119	118	155
-29.422026	-29.704935	-1.055441	124	117	164
-29.217192	-29.704861	-1.052122	126	116	161
-28.805691	-29.707865	-1.085354	122	112	153
-28.600971	-29.707586	-1.079471	117	111	157
-28.193287	-29.704159	-1.031339	115	112	153
-27.995121	-29.693201	-0.890319	114	110	147
-20.182896	-35.416412	-73.251198	143	132	177
-18.504248	-35.414417	-73.206451	153	143	185
-17.786314	-35.411819	-73.165237	168	138	186
-16.107424	-35.410896	-73.134041	157	146	180
-14.906500	-35.412457	-73.139862	183	162	213
-13.465132	-35.414646	-73.150856	205	212	226
-12.265047	-35.415333	-73.145599	225	210	255
-11.313297	-35.407177	-73.031281	226	218	255
-11.068004	-35.412910	-73.101051	253	242	255
-7.464900	-35.418583	-73.130997	237	237	255
-34.545906	-29.909166	-1.101742	96	92	133
-34.341999	-29.906609	-1.067222	108	104	136
-33.932060	-29.906700	-1.063664	114	106	141
-33.727108	-29.906721	-1.061570	114	108	144
-33.317474	-29.906174	-1.049963	114	104	140
-33.112865	-29.905464	-1.038699	120	105	141
-32.703732	-29.903954	-1.014977	117	109	146
-32.499069	-29.903442	-1.006210	118	113	149
-31.882713	-29.906866	-1.042203	131	117	150
-31.473230	-29.906218	-1.029316	119	111	140
-31.268970	-29.904966	-1.011230	120	110	140
-30.037535	-29.908998	-1.047806	114	113	140
-29.626514	-29.911253	-1.071465	120	114	138
-29.422136	-29.910341	-1.057647	125	113	148
-29.011951	-29.911083	-1.062263	134	111	146
-28.806444	-29.912169	-1.073541	130	109	152
-28.398224	-29.909580	-1.036284	118	112	149
-28.194180	-29.908224	-1.016890	118	111	155
-22.352468	-35.643639	-73.109047	118	113	159
-22.117828	-35.635612	-73.005333	124	114	158
-21.376585	-35.666832	-73.389618	127	123	203
-21.141685	-35.659283	-73.291931	128	121	182
-20.425226	-35.654007	-73.217346	143	126	163
-19.942322	-35.657955	-73.261467	136	122	155
-19.696674	-35.665646	-73.355377	129	133	185
-19.452320	-35.671452	-73.425629	136	147	214
-19.214502	-35.668350	-73.383873	146	147	199
-18.749092	-35.648746	-73.131859	145	141	195
-18.268509	-35.649609	-73.137207	155	136	200
-17.545237	-35.653954	-73.183548	157	136	166
-17.301834	-35.658295	-73.235352	147	134	175
-17.061077	-35.659252	-73.244637	147	143	205
-16.582924	-35.656982	-73.210587	162	145	203
-16.343067	-35.656837	-73.206032	157	146	193
-15.621542	-35.658802	-73.222443	176	165	241
-15.381883	-35.658436	-73.215080	184	174	253
-15.144526	-35.655357	-73.173622	201	181	236
-13.937296	-35.664028	-73.268829	204	194	230
-12.980277	-35.660896	-73.218445	230	221	255
-12.738110	-35.663364	-73.246719	195	214	255
-12.033051	-35.647427	-73.038086	219	218	255
-11.795794	-35.644665	-73.000626	226	219	255
-7.714911	-35.649288	-73.011879	233	220	254
-32.293285	-30.111002	-1.033107	121	112	154
-30.860327	-30.108437	-0.984725	123	112	145
-30.655365	-30.108620	-0.984689	119	113	147
-30.450232	-30.109127	-0.988705	116	115	150
-27.795761	-30.095245	-0.784933	113	118	160
-22.587065	-35.892750	-73.219963	123	110	152
-22.350891	-35.886837	-73.143349	123	112	172
-22.114258	-35.881729	-73.076820	125	114	162
-21.622299	-35.899483	-73.293213	128	124	158
-21.145708	-35.894291	-73.222885	126	115	158
-20.909468	-35.888813	-73.151665	122	115	160
-20.669359	-35.888962	-73.150787	126	119	169
-20.428268	-35.890503	-73.167351	127	127	164
-19.941517	-35.899891	-73.279205	124	124	159
-19.691490	-35.913658	-73.448486	125	136	168
-19.445101	-35.922218	-73.552757	137	150	198
-19.209820	-35.915565	-73.466881	149	156	232
-18.986319	-35.893169	-73.184296	147	148	202
-18.756411	-35.879700	-73.013214	151	145	199
-18.516844	-35.879246	-73.004829	155	143	200
-18.272820	-35.884663	-73.069801	159	139	190
-17.791687	-35.886314	-73.084991	149	133	164
-17.549158	-35.889648	-73.123924	150	132	184
-17.306759	-35.892773	-73.160202	142	131	161
-17.066004	-35.893776	-73.170006	142	138	166
-16.583118	-35.897465	-73.210640	163	148	194
-16.101814	-35.899128	-73.225960	168	150	178
-15.864004	-35.896488	-73.190277	187	151	204
-15.386912	-35.893112	-73.142632	195	167	251
-15.147036	-35.893051	-73.139145	204	180	237
-14.906257	-35.894066	-73.149071	200	171	197
-14.421446	-35.899853	-73.215912	197	196	238
-14.179113	-35.902607	-73.247604	187	180	203
-13.939715	-35.901958	-73.236778	186	191	216
-13.704151	-35.896950	-73.171494	191	183	254
-13.223640	-35.897713	-73.175560	223	198	254
-12.735141	-35.907341	-73.290367	188	202	255
-12.499915	-35.902119	-73.222389	184	207	255
-12.031613	-35.889557	-73.060013	229	225	255
-11.793372	-35.887829	-73.035675	254	215	255
-11.552608	-35.888832	-73.045502	254	220	254
-11.063261	-35.899105	-73.168373	254	253	255
-10.815762	-35.907124	-73.265823	232	230	255
-10.571159	-35.912014	-73.324196	253	233	255
-7.745087	-35.860466	-72.647476	232	233	255
-34.752243	-30.317486	-1.076294	76	68	100
-34.341419	-30.319670	-1.098808	107	100	135
-34.136932	-30.318514	-1.082149	108	104	136
-33.726643	-30.319382	-1.088321	116	107	141
-33.521633	-30.319506	-1.087552	116	106	139
-33.112827	-30.317043	-1.052352	116	108	139
-32.908115	-30.316559	-1.044027	118	110	140
-32.497791	-30.317591	-1.052236	116	109	141
-32.292747	-30.317848	-1.053107	117	112	143
-31.883234	-30.317177	-1.040170	116	115	143
-31.678930	-30.315939	-1.022472	119	116	145
-31.270178	-30.313869	-0.992148	118	114	145
-31.065237	-30.313993	-0.991388	117	111	146
-30.654799	-30.315327	-1.003344	115	112	143
-30.449585	-30.315971	-1.009044	111	114	154
-30.039326	-30.316927	-1.016290	119	114	141
-29.834278	-30.317245	-1.017945	116	117	137
-29.424839	-30.316706	-1.006639	119	112	141
-29.219675	-30.317247	-1.011069	117	111	142
-28.808599	-30.319613	-1.035826	119	106	141
-28.604370	-30.318516	-1.019895	118	109	142
-28.196497	-30.315420	-0.976834	134	109	141
-27.997818	-30.305151	-0.846956	139	112	140
-22.111082	-36.127327	-73.140892	129	118	165
-21.628328	-36.131378	-73.185837	133	132	178
-20.907606	-36.132298	-73.189140	125	122	167
-20.428793	-36.130539	-73.161896	115	123	178
-19.689091	-36.157894	-73.493546	123	134	179
-19.209644	-36.156712	-73.473457	145	144	216
-18.520950	-36.114437	-72.940300	171	144	192
-18.034435	-36.123322	-73.045242	152	143	174
-17.792976	-36.125328	-73.067467	148	140	176
-17.310072	-36.129246	-73.110725	137	143	173
-16.826551	-36.133842	-73.162415	150	141	169
-16.582287	-36.139233	-73.226654	152	148	180
-16.101013	-36.140842	-73.241241	169	149	202
-15.628574	-36.131691	-73.122177	185	160	215
-15.387401	-36.133198	-73.138199	187	167	224
-14.900683	-36.141361	-73.234161	192	174	198
-14.179195	-36.143215	-73.249115	182	183	246
-13.703088	-36.138832	-73.189278	187	176	242
-12.971591	-36.152004	-73.344742	205	212	255
-12.494876	-36.148373	-73.294243	203	205	254
-11.785033	-36.137459	-73.150597	254	221	255
-11.302804	-36.140099	-73.177986	225	221	255
-10.562788	-36.161514	-73.435799	254	219	255
-34.341602	-30.525068	-1.100312	110	104	144
-33.726997	-30.524363	-1.084742	122	112	147
-33.317299	-30.523876	-1.074169	114	103	147
-33.112850	-30.522760	-1.058115	115	106	148
-32.498001	-30.522869	-1.052607	121	110	160
-32.088120	-30.522947	-1.049002	113	109	140
-31.883726	-30.521852	-1.033205	113	108	144
-31.270355	-30.519165	-0.993164	120	115	154
-30.860088	-30.520164	-1.000941	125	112	158
-30.654696	-30.521158	-1.010938	126	113	157
-30.039467	-30.522280	-1.017928	114	113	152
-29.630804	-30.520294	-0.988865	113	115	147
-29.425970	-30.520252	-0.986059	119	114	152
-28.809111	-30.524305	-1.029250	115	106	149
-28.401068	-30.521418	-0.989036	116	108	141
-28.196539	-30.520889	-0.980238	116	108	142
-22.346996	-36.374470	-73.225983	127	119	160
-22.109179	-36.371044	-73.181000	130	124	170
-21.870319	-36.369255	-73.156250	134	129	190
-21.628899	-36.371346	-73.179390	133	130	197
-20.904919	-36.377026	-73.241486	135	123	159
-20.667068	-36.373840	-73.199471	129	122	158
-20.428411	-36.371872	-73.172501	126	121	164
-19.939842	-36.383911	-73.315796	134	123	157
-19.690453	-36.396923	-73.473732	123	131	178
-19.446918	-36.401611	-73.528946	134	137	203
-19.213781	-36.391937	-73.406860	143	143	205
-18.989676	-36.370125	-73.134880	158	146	224
-18.760166	-36.355972	-72.957520	184	151	210
-18.522146	-36.353470	-72.923935	172	143	191
-18.278143	-36.358971	-72.989182	157	141	185
-17.792313	-36.366882	-73.081474	157	139	166
-17.550692	-36.369072	-73.105835	142	139	155
-17.310692	-36.369144	-73.104065	144	138	166
-17.071026	-36.368793	-73.097076	145	136	165
-16.582762	-36.379375	-73.222351	144	134	166
-16.339083	-36.383987	-73.276634	145	134	174
-16.101065	-36.381516	-73.243439	170	150	191
-15.866250	-36.375141	-73.162064	174	156	186
-15.386770	-36.374638	-73.150520	162	157	188
-15.141839	-36.380657	-73.222115	180	171	198
-14.897892	-36.385414	-73.278168	183	167	213
-14.419269	-36.383812	-73.253067	209	181	255
-13.945411	-36.376736	-73.160378	196	196	254
-13.704446	-36.377941	-73.172554	198	186	241
-13.214180	-36.389801	-73.313637	210	201	254
-12.968977	-36.395699	-73.383751	203	198	255
-12.726825	-36.398094	-73.410645	229	206	254
-12.490215	-36.394279	-73.360878	205	213	244
-11.778721	-36.384987	-73.238159	223	219	255
-11.296894	-36.387112	-73.259018	214	219	255
-11.054685	-36.389549	-73.286430	226	220	254
-10.811022	-36.393509	-73.332634	243	231	255
-10.562348	-36.402725	-73.443748	236	222	255
-2.903970	-36.385189	-73.141762	200	202	255
-2.656651	-36.391792	-73.220596	194	194	255
-2.398025	-36.408173	-73.420052	211	208	255
-2.131807	-36.430958	-73.698563	225	219	255
-34.752045	-30.729715	-1.097058	71	65	101
-34.137215	-30.729494	-1.087569	115	107	144
-32.908520	-30.727163	-1.045410	116	108	137
-31.679476	-30.726185	-1.019839	115	110	146
-30.449083	-30.728199	-1.031006	120	115	146
-29.219484	-30.728771	-1.024469	127	110	139
-27.982746	-30.741571	-1.168019	118	111	141
-19.691864	-36.635864	-73.453072	135	134	177
-18.520996	-36.595654	-72.946419	157	134	195
-14.656487	-36.627834	-73.298973	181	174	228
-14.186696	-36.615810	-73.146126	192	184	254
-12.489007	-36.636379	-73.379982	237	210	255
-10.072680	-36.653610	-73.564926	251	242	255
-9.837633	-36.648361	-73.497849	253	253	255
-34.753292	-30.932409	-1.065493	72	66	107
-34.342152	-30.935425	-1.097805	110	104	149
-34.137451	-30.934757	-1.087421	112	106	154
-33.727894	-30.933868	-1.072106	107	108	149
-33.522980	-30.933775	-1.068718	110	107	146
-33.113766	-30.932220	-1.045292	112	104	145
-32.909431	-30.930868	-1.026558	113	105	148
-32.499870	-30.930264	-1.014700	113	109	149
-32.294277	-30.931736	-1.030440	115	107	144
-31.883928	-30.932833	-1.039350	117	111	158
-31.679260	-30.932322	-1.030863	114	112	157
-31.269228	-30.932770	-1.031863	124	113	154
-31.064838	-30.931742	-1.017093	142	125	166
-30.655811	-30.930264	-0.994577	120	116	143
-30.450136	-30.931808	-1.011182	112	110	141
-30.039499	-30.933466	-1.026944	111	107	147
-29.834803	-30.933115	-1.020423	115	110	154
-29.424198	-30.934673	-1.034959	118	114	152
-29.218338	-30.936447	-1.054360	120	108	147
-28.808315	-30.936895	-1.055371	113	105	145
-28.604084	-30.935753	-1.039201	116	107	149
-28.193344	-30.937471	-1.055683	120	108	144
-27.762911	-30.972300	-1.476086	111	108	149
-22.582615	-36.863228	-73.322838	117	116	147
-22.102457	-36.863102	-73.316071	129	130	192
-21.623604	-36.861031	-73.285568	126	130	180
-21.140486	-36.865414	-73.333786	134	128	161
-20.901577	-36.863644	-73.309578	133	120	169
-20.663969	-36.860008	-73.262604	139	122	179
-20.183338	-36.860729	-73.266159	128	125	149
-19.938145	-36.868050	-73.352814	128	125	167
-19.218134	-36.867657	-73.340195	150	142	207
-17.785450	-36.857372	-73.198990	138	132	155
-16.339588	-36.864883	-73.274925	139	134	182
-16.101204	-36.862835	-73.247330	151	140	172
-15.383479	-36.860058	-73.205597	165	154	204
-15.139612	-36.864811	-73.260918	172	161	194
-14.189935	-36.852642	-73.102020	192	185	254
-13.705186	-36.858418	-73.167267	205	194	236
-13.215305	-36.869972	-73.302940	206	189	255
-12.972801	-36.872852	-73.335419	207	193	255
-12.731709	-36.874092	-73.347923	221	195	255
-11.792006	-36.851635	-73.063568	241	216	255
-11.310111	-36.854027	-73.087532	220	218	237
-11.055142	-36.870426	-73.284920	209	216	244
-10.796282	-36.890820	-73.530975	208	211	254
-10.550763	-36.896660	-73.599579	200	220	255
-10.076428	-36.890457	-73.518730	233	229	255
-2.886700	-36.881592	-73.332047	200	197	235
-2.645088	-36.883137	-73.348244	206	191	235
-34.549107	-31.136299	-1.046556	94	89	128
-34.342438	-31.140574	-1.096179	110	103	136
-33.933029	-31.139265	-1.075890	111	107	135
-33.728306	-31.138697	-1.066763	111	106	133
-33.318741	-31.137915	-1.052858	114	102	140
-33.114231	-31.136925	-1.038632	113	103	138
-32.705673	-31.134016	-0.998948	112	105	136
-32.500778	-31.133991	-0.996421	112	107	140
-32.089458	-31.137245	-1.031466	120	106	139
-31.884060	-31.138269	-1.041660	119	105	142
-31.473492	-31.139791	-1.055702	115	109	143
-31.268681	-31.139572	-1.050825	119	114	142
-30.861444	-31.134411	-0.983817	130	115	137
-30.656965	-31.133631	-0.972124	116	109	134
-30.245323	-31.137306	-1.012292	113	107	134
-30.039995	-31.138157	-1.020380	110	105	137
-29.629351	-31.139799	-1.035873	114	110	136
-29.423292	-31.141960	-1.059866	113	109	133
-29.012400	-31.143953	-1.079626	111	108	132
-28.808090	-31.142904	-1.064690	110	106	133
-28.398212	-31.143085	-1.062459	114	109	134
-28.192492	-31.144535	-1.077825	116	106	129
-22.819935	-37.108646	-73.384247	125	106	142
-22.339323	-37.109119	-73.384804	127	127	164
-22.097527	-37.111675	-73.413185	124	132	185
-21.858807	-37.109455	-73.383675	122	130	185
-21.619442	-37.108265	-73.366669	123	129	176
-21.140387	-37.106461	-73.339592	131	127	184
-20.901438	-37.104733	-73.316017	132	122	169
-20.662844	-37.102516	-73.286568	137	122	171
-20.423559	-37.101357	-73.269897	133	122	167
-19.937750	-37.109493	-73.363403	140	130	164
-19.693417	-37.115501	-73.433678	159	134	177
-19.453222	-37.115578	-73.431992	154	142	191
-19.218023	-37.108673	-73.345657	139	143	192
-18.755518	-37.084351	-73.045555	142	146	203
-18.520840	-37.077168	-72.955894	136	146	198
-18.279245	-37.079475	-72.981262	149	140	191
-17.538540	-37.107265	-73.310448	143	134	169
-17.298563	-37.107166	-73.306656	141	135	188
-17.060902	-37.104061	-73.266396	150	140	193
-16.580378	-37.104675	-73.268669	142	141	181
-16.339827	-37.105354	-73.274307	141	133	178
-16.101400	-37.103340	-73.247299	139	135	201
-15.864183	-37.099850	-73.202370	148	141	184
-15.382743	-37.101688	-73.219505	162	164	195
-15.139807	-37.105316	-73.260872	154	163	191
-14.899044	-37.106247	-73.269592	172	166	216
-14.424915	-37.099209	-73.179085	217	179	254
-14.188652	-37.094818	-73.123260	199	189	254
-13.947222	-37.096611	-73.142380	200	206	254
-13.702204	-37.102600	-73.212387	204	196	243
-13.215862	-37.110062	-73.297668	201	198	255
-12.974854	-37.111233	-73.309288	212	197	255
-12.735529	-37.110470	-73.297455	198	198	255
-12.498223	-37.107430	-73.257988	227	215	255
-12.033108	-37.090839	-73.051674	253	207	255
-11.805064	-37.077690	-72.889664	254	214	255
-11.568055	-37.074635	-72.850029	254	230	255
-10.777494	-37.152008	-73.780304	210	221	254
-10.533345	-37.156273	-73.829399	199	218	255
-7.459343	-37.108047	-73.211067	232	224	255
-2.884082	-37.124550	-73.361893	196	196	226
-2.642786	-37.125805	-73.374512	201	193	239
-2.162373	-37.126366	-73.376144	237	212	255
-27.986645	-31.351784	-1.099713	112	109	140
-21.619135	-37.349670	-73.376495	136	131	166
-20.902651	-37.343807	-73.298126	124	127	157
-20.422155	-37.344269	-73.298576	140	121	151
-19.696259	-37.352356	-73.388344	131	129	180
-19.220839	-37.345577	-73.301483	136	145	198
-18.521042	-37.317551	-72.955986	144	147	175
-18.032824	-37.328949	-73.088226	142	137	175
-17.783911	-37.340961	-73.230476	136	137	171
-17.296289	-37.350975	-73.346046	148	142	166
-16.820013	-37.345963	-73.280479	140	131	168
-16.580811	-37.344894	-73.265038	141	132	172
-16.102455	-37.342758	-73.234146	132	130	170
-15.624377	-37.340359	-73.200119	158	143	175
-15.384227	-37.340576	-73.200165	164	148	186
-14.902140	-37.343204	-73.226700	188	162	217
-14.186536	-37.338020	-73.156540	188	188	235
-13.457674	-37.348667	-73.277138	202	196	254
-12.977576	-37.348816	-73.273819	197	194	255
-12.271105	-37.333553	-73.082161	241	210	255
-11.812800	-37.309536	-72.787598	239	226	254
-2.643747	-37.365582	-73.365555	209	193	246
-2.163229	-37.366238	-73.368370	229	211	255
-34.756100	-31.542763	-1.000049	74	72	103
-34.343498	-31.549641	-1.078173	103	103	135
-34.139015	-31.548431	-1.061495	109	106	129
-33.729397	-31.547716	-1.048589	119	104	137
-33.524601	-31.547344	-1.041974	119	108	137
-33.114765	-31.547237	-1.036353	120	111	140
-32.909908	-31.547062	-1.032082	123	108	137
-32.500763	-31.545477	-1.008752	118	108	146
-32.295876	-31.545422	-1.005919	121	107	142
-31.884470	-31.548836	-1.042501	115	105	137
-31.678495	-31.551065	-1.067050	113	110	142
-31.268770	-31.550787	-1.059381	113	110	133
-31.065580	-31.547255	-1.014867	113	107	139
-30.657858	-31.543129	-0.961081	116	110	139
-30.451914	-31.545252	-0.984366	114	114	138
-30.040257	-31.548933	-1.024148	118	119	142
-29.835264	-31.549129	-1.024341	118	113	148
-29.424252	-31.551447	-1.047784	119	110	140
-29.218723	-31.552620	-1.059655	112	107	136
-28.809523	-31.551561	-1.042638	109	106	138
-28.604609	-31.551619	-1.041160	109	108	133
-28.196747	-31.548309	-0.997151	115	107	135
-27.995350	-31.542328	-0.923298	116	107	132
-21.619225	-37.590469	-73.378952	133	129	173
-21.143372	-37.583752	-73.293358	124	122	186
-20.903076	-37.584053	-73.294426	126	126	169
-20.661980	-37.585545	-73.309776	139	123	160
-20.420765	-37.587193	-73.327003	141	126	178
-19.938940	-37.589554	-73.350189	124	127	159
-19.699360	-37.588791	-73.338531	130	130	180
-19.461452	-37.585663	-73.298492	136	133	179
-18.990013	-37.573433	-73.146851	140	148	206
-18.756044	-37.565041	-73.043747	147	145	206
-18.520161	-37.559433	-72.973984	151	149	186
-18.279516	-37.560444	-72.983574	142	138	181
-17.785572	-37.579506	-73.206932	139	143	187
-17.538349	-37.589157	-73.320023	146	142	175
-17.294779	-37.593815	-73.373291	142	138	183
-17.055813	-37.592339	-73.353104	137	136	192
-16.581673	-37.584553	-73.254723	136	129	177
-16.104124	-37.581379	-73.211601	136	132	173
-15.865120	-37.580128	-73.194061	137	137	166
-15.385624	-37.579556	-73.182121	164	146	192
-15.144649	-37.580807	-73.194572	170	150	194
-14.903640	-37.582085	-73.207367	173	163	213
-14.423515	-37.582306	-73.204933	197	170	227
-14.183426	-37.582455	-73.204178	196	176	221
-13.940975	-37.585434	-73.237335	214	190	254
-13.698631	-37.588253	-73.268555	220	207	255
-13.217759	-37.589310	-73.276131	183	196	255
-12.976257	-37.591076	-73.294762	199	204	255
-12.736651	-37.590630	-73.286880	195	208	255
-12.498752	-37.588234	-73.255630	227	210	255
-12.269104	-37.576454	-73.111954	225	213	254
-12.037962	-37.566528	-72.990509	245	210	255
-11.812904	-37.549885	-72.788559	243	214	255
-11.578264	-37.544189	-72.717773	218	202	215
-7.448313	-37.600384	-73.347885	241	219	254
-2.890607	-37.599907	-73.293938	203	192	237
-2.647731	-37.602623	-73.323952	217	193	246
-2.402295	-37.607613	-73.381165	222	208	254
-33.320728	-31.750618	-1.016159	129	109	153
-33.115421	-31.751493	-1.024455	124	108	148
-32.500294	-31.752275	-1.027332	125	108	149
-32.090073	-31.753092	-1.032776	117	109	142
-31.884333	-31.754862	-1.051716	113	105	141
-30.861689	-31.750885	-0.993599	118	114	152
-30.657032	-31.750422	-0.985934	118	114	156
-30.040022	-31.755035	-1.034473	112	106	148
-29.630171	-31.755154	-1.031583	121	112	156
-29.424850	-31.755960	-1.039063	122	108	149
-28.399853	-31.756998	-1.040681	113	109	139
-28.199371	-31.749264	-0.946389	108	105	137
-21.861532	-37.828037	-73.345375	143	130	181
-19.229324	-37.815193	-73.164673	151	141	172
-16.348471	-37.816498	-73.150055	138	139	178
-7.933414	-37.835751	-73.291420	238	219	255
-34.757263	-31.951426	-0.978441	75	70	101
-34.344414	-31.959063	-1.064671	112	103	136
-34.140125	-31.957346	-1.042207	115	106	139
-33.731010	-31.955423	-1.015183	116	106	133
-32.910515	-31.957214	-1.027914	117	108	143
-31.678661	-31.962179	-1.073980	117	111	140
-31.268991	-31.961758	-1.064728	116	117	139
-30.450457	-31.959452	-1.028915	115	114	137
-29.220020	-31.961479	-1.040191	114	108	131
-28.811085	-31.959944	-1.017769	116	108	141
-21.382685	-38.066772	-73.318466	127	122	176
-20.905867	-38.061588	-73.252068	128	122	166
-20.179317	-38.070961	-73.355637	133	123	161
-19.700651	-38.068680	-73.323631	143	141	180
-18.993818	-38.049576	-73.089897	153	144	177
-18.516190	-38.046345	-73.046623	148	145	166
-17.786451	-38.059864	-73.199303	137	139	167
-16.113811	-38.050354	-73.069252	130	143	179
-14.904376	-38.062622	-73.202110	182	176	227
-13.701204	-38.066631	-73.237144	181	185	253
-12.488979	-38.081020	-73.395126	189	211	255
-34.757420	-32.156860	-0.980801	73	69	109
-34.344849	-32.163815	-1.058489	118	105	151
-34.140629	-32.161930	-1.034207	126	109	151
-33.731876	-32.159107	-0.996744	121	108	145
-33.527332	-32.158169	-0.983592	116	105	143
-33.117149	-32.158997	-0.989128	111	106	145
-32.911724	-32.160175	-1.000929	113	110	158
-32.500679	-32.162910	-1.028939	116	112	149
-32.295029	-32.164528	-1.045873	116	112	148
-31.884411	-32.166172	-1.061021	115	113	143
-31.679417	-32.166298	-1.060398	118	114	156
-31.269365	-32.166695	-1.060868	115	115	148
-31.064365	-32.166843	-1.060519	112	110	153
-30.654848	-32.166172	-1.048402	116	110	149
-30.450010	-32.166019	-1.044506	112	113	149
-30.039711	-32.166965	-1.051453	112	112	147
-29.834892	-32.166794	-1.047312	117	111	147
-29.425573	-32.165874	-1.032282	122	111	147
-29.220778	-32.165695	-1.028075	114	110	150
-28.812407	-32.163128	-0.993622	113	111	152
-28.607965	-32.162361	-0.982485	116	111	147
-28.203062	-32.153809	-0.877565	117	107	145
-28.000818	-32.149303	-0.822425	117	109	141
-22.111494	-38.294220	-73.171295	129	127	167
-21.865568	-38.303524	-73.278412	121	125	168
-21.617838	-38.315502	-73.416985	127	121	156
-21.142902	-38.307171	-73.313927	128	119	164
-20.426273	-38.301609	-73.241066	133	117	165
-19.938229	-38.313293	-73.373749	144	130	166
-19.700277	-38.310108	-73.333763	150	139	183
-19.466936	-38.300282	-73.215591	160	146	200
-18.995371	-38.288113	-73.067322	148	137	167
-18.753399	-38.290955	-73.098335	142	136	166
-18.511209	-38.294064	-73.132477	138	137	165
-18.270929	-38.294468	-73.134773	134	138	159
-17.784422	-38.303429	-73.235397	141	131	182
-17.538336	-38.311676	-73.330032	145	136	158
-17.294966	-38.316124	-73.379967	150	139	184
-17.058414	-38.311371	-73.321533	155	138	186
-16.590672	-38.295021	-73.124054	129	144	186
-16.354237	-38.290398	-73.067146	138	147	193
-16.115990	-38.288208	-73.038895	143	146	192
-15.629959	-38.296158	-73.127586	150	154	173
-15.386316	-38.300850	-73.180397	159	162	196
-15.144932	-38.302631	-73.198891	189	169	197
-14.904249	-38.303509	-73.206795	195	180	206
-14.419394	-38.309559	-73.273109	193	198	241
-14.178425	-38.310741	-73.284546	215	208	254
-13.940681	-38.307976	-73.249542	199	204	254
-13.216559	-38.312946	-73.300667	183	202	253
-12.970291	-38.320370	-73.385612	191	192	228
-12.728700	-38.322189	-73.404594	203	200	254
-12.490170	-38.320412	-73.381180	200	211	255
-12.024496	-38.303799	-73.180664	234	217	255
-11.788314	-38.299500	-73.127579	217	219	255
-11.305714	-38.302666	-73.159935	225	225	255
-11.063995	-38.304695	-73.181358	235	218	255
-10.815615	-38.314144	-73.290169	239	225	254
-10.571280	-38.318989	-73.344734	235	217	255
-2.658515	-38.314594	-73.211769	208	198	242
-2.398551	-38.332966	-73.425552	212	202	251
-2.145317	-38.345039	-73.565224	214	208	255
-34.344475	-32.370659	-1.076860	111	100	127
-33.936028	-32.366890	-1.028569	120	106	134
-33.731613	-32.365570	-1.011019	123	106	143
-33.322361	-32.364079	-0.989386	116	110	131
-33.117336	-32.364323	-0.990160	114	108	133
-32.706722	-32.366123	-1.007096	112	105	134
-32.500999	-32.367947	-1.026366	118	108	138
-32.089622	-32.371330	-1.061833	120	113	137
-31.884647	-32.371407	-1.060658	122	112	135
-31.474794	-32.371365	-1.055996	114	107	144
-31.269466	-32.372204	-1.063747	112	108	138
-30.858879	-32.373707	-1.077166	120	113	139
-30.654055	-32.373486	-1.072502	115	108	138
-30.244366	-32.373161	-1.064536	111	110	132
-30.039389	-32.373276	-1.063791	109	109	137
-29.630520	-32.371422	-1.037930	125	108	140
-29.425976	-32.370747	-1.027962	121	108	132
-29.017117	-32.369030	-1.003702	118	114	138
-28.813543	-32.366634	-0.973527	124	115	145
-28.404566	-32.365307	-0.953849	117	104	135
-28.205326	-32.355282	-0.834370	124	109	135
-22.117767	-38.524998	-73.057381	133	122	156
-21.372328	-38.564831	-73.516479	130	120	156
-20.428797	-38.538658	-73.200256	135	123	164
-19.701601	-38.549049	-73.314621	144	134	183
-19.239693	-38.522556	-72.999527	166	137	180
-18.997576	-38.525688	-73.033745	155	137	168
-17.782108	-38.547424	-73.276100	156	133	187
-17.296999	-38.554226	-73.350845	162	137	179
-16.588299	-38.538895	-73.164040	149	141	170
-16.112284	-38.533730	-73.098648	153	155	221
-15.384923	-38.543362	-73.204155	162	155	210
-14.903866	-38.544727	-73.215256	196	172	219
-14.179227	-38.550510	-73.275658	205	201	254
-13.704307	-38.544312	-73.198189	205	207	254
-12.973468	-38.557373	-73.343803	197	199	253
-12.493616	-38.557140	-73.336189	220	228	255
-11.307893	-38.540840	-73.133202	215	216	255
-11.070148	-38.538399	-73.102180	223	226	255
-34.757328	-32.568848	-0.998356	74	71	119
-28.005445	-32.552055	-0.734845	108	104	141
-22.595842	-38.769035	-73.103935	130	125	152
-22.357479	-38.766308	-73.069756	131	126	150
-21.369925	-38.809635	-73.564575	127	120	164
-21.139290	-38.794640	-73.387573	125	118	154
-20.912773	-38.773548	-73.139565	126	117	151
-20.673933	-38.771721	-73.115875	122	116	159
-20.430265	-38.777271	-73.178101	126	118	164
-20.184801	-38.785439	-73.270790	131	122	163
-19.942757	-38.788368	-73.302460	136	126	177
-19.705498	-38.784161	-73.251068	134	131	175
-19.477636	-38.766224	-73.039818	150	136	177
-19.246969	-38.752674	-72.879677	170	138	174
-19.004366	-38.756607	-72.923035	159	136	186
-18.493095	-38.801357	-73.439217	140	136	160
-18.255518	-38.797733	-73.394600	143	126	165
-17.781311	-38.789360	-73.292305	149	136	183
-17.540512	-38.790367	-73.301620	152	134	179
-17.299976	-38.791008	-73.306671	152	133	177
-17.062222	-38.787872	-73.267754	166	137	189
-16.824795	-38.784351	-73.224335	163	143	195
-16.586447	-38.782120	-73.195923	158	148	170
-16.346691	-38.781788	-73.189682	159	150	183
-16.106869	-38.781559	-73.184570	147	154	187
-15.866528	-38.782013	-73.187477	142	148	182
-15.384953	-38.784073	-73.206596	154	146	190
-15.144763	-38.784321	-73.207108	175	163	189
-14.904202	-38.785046	-73.213112	184	169	218
-14.421167	-38.788868	-73.252777	201	188	255
-14.181509	-38.788441	-73.245377	185	191	254
-13.942872	-38.786762	-73.223434	183	191	255
-13.703922	-38.785496	-73.206299	189	200	255
-13.220962	-38.789143	-73.243927	188	182	255
-12.979060	-38.791443	-73.268265	197	191	254
-12.738633	-38.791958	-73.271866	192	199	255
-12.498834	-38.791733	-73.266808	193	235	255
-12.021828	-38.788273	-73.221710	199	222	254
-11.784521	-38.785198	-73.183502	211	215	254
-11.547328	-38.782036	-73.144295	216	206	254
-11.074173	-38.774452	-73.051178	223	227	255
-10.830935	-38.778263	-73.093163	224	226	255
-10.587365	-38.782406	-73.138962	229	222	254
-2.632660	-38.819725	-73.493713	196	181	243
-2.407655	-38.805912	-73.330566	193	186	234
-34.758129	-32.772579	-0.980723	75	74	109
-34.344479	-32.782444	-1.090868	107	101	128
-34.139999	-32.781136	-1.073696	109	105	134
-33.730564	-32.779850	-1.054741	110	106	128
-33.525837	-32.779270	-1.045968	111	102	131
-33.116756	-32.777287	-1.018919	112	106	130
-32.912022	-32.776810	-1.011347	112	108	128
-32.501125	-32.779202	-1.034992	116	108	133
-32.295383	-32.781036	-1.054170	120	109	138
-31.885084	-32.781960	-1.060801	126	112	142
-31.680267	-32.781689	-1.055602	121	112	142
-31.270128	-32.782261	-1.058169	113	105	133
-31.064587	-32.783546	-1.071021	114	106	131
-30.653564	-32.785927	-1.094509	113	107	140
-30.448776	-32.785610	-1.088807	111	108	140
-30.039827	-32.783772	-1.063442	112	109	141
-29.835611	-32.782387	-1.045349	112	111	141
-29.427076	-32.779919	-1.012709	121	108	140
-29.222446	-32.779430	-1.005020	117	108	138
-28.814619	-32.775822	-0.959161	113	105	133
-28.610861	-32.773800	-0.933691	114	104	135
-28.207771	-32.761883	-0.791644	111	103	131
-28.005995	-32.756531	-0.727628	108	104	130
-19.251987	-38.985985	-72.798119	154	137	183
-18.484915	-39.053982	-73.578087	140	127	168
-16.101307	-39.029671	-73.272758	147	147	196
-15.622735	-39.027718	-73.245361	150	148	189
-14.662286	-39.028225	-73.241684	209	184	255
-13.461023	-39.029793	-73.247894	177	196	254
-34.345219	-32.986412	-1.075583	105	105	142
-33.730804	-32.985096	-1.054369	109	106	139
-33.320984	-32.984848	-1.047456	111	101	137
-33.116405	-32.983936	-1.034949	111	103	144
-32.501282	-32.984623	-1.036804	121	108	146
-32.090504	-32.986664	-1.056277	120	110	157
-31.885578	-32.986622	-1.053761	115	109	153
-31.270771	-32.986618	-1.047673	115	105	145
-30.859943	-32.988659	-1.067131	115	106	147
-30.654673	-32.989361	-1.073174	118	107	167
-30.041145	-32.986824	-1.037926	113	106	144
-29.632439	-32.984650	-1.008844	113	105	149
-29.427868	-32.984032	-0.999704	117	106	149
-28.814472	-32.981701	-0.966815	108	106	148
-28.405617	-32.980118	-0.944560	111	105	139
-28.207205	-32.968410	-0.807759	114	112	142
-17.782393	-39.269524	-73.281425	130	131	186
-17.303503	-39.267811	-73.256996	143	132	165
-14.903749	-39.267120	-73.225403	194	175	201
-12.260013	-39.271805	-73.253296	202	223	254
-11.308280	-39.262344	-73.134949	218	213	255
-11.067211	-39.263672	-73.147881	222	217	255
-34.551792	-33.188072	-1.035981	92	94	130
-34.140560	-33.191460	-1.070777	103	103	131
-32.911015	-33.190815	-1.051393	110	107	137
-31.680586	-33.192497	-1.058673	114	106	133
-30.451384	-33.191681	-1.037348	114	105	137
-29.223101	-33.189442	-0.999734	118	113	144
-22.129412	-39.469143	-72.854996	125	119	155
-20.667873	-39.503632	-73.235741	129	130	167
-20.182688	-39.511333	-73.319244	130	126	162
-19.943172	-39.510422	-73.306435	138	131	179
-19.708382	-39.502407	-73.212372	143	138	189
-18.994383	-39.493347	-73.101631	145	131	158
-18.254915	-39.521309	-73.414696	143	135	203
-17.783981	-39.508121	-73.259048	142	141	200
-16.582333	-39.510025	-73.269127	148	147	193
-16.338665	-39.514908	-73.322678	151	149	181
-16.096117	-39.518223	-73.358269	151	148	189
-15.856457	-39.517658	-73.349464	156	150	205
-15.382687	-39.509308	-73.249199	177	151	188
-15.144510	-39.506908	-73.219398	192	158	185
-14.904042	-39.507504	-73.223892	179	161	179
-14.181774	-39.510365	-73.249634	188	179	246
-13.939347	-39.513401	-73.282013	203	184	254
-13.696664	-39.516716	-73.317612	197	204	254
-13.215781	-39.517719	-73.324409	186	193	253
-12.978336	-39.514561	-73.285942	189	198	233
-12.741127	-39.511169	-73.244766	189	199	243
-12.499982	-39.512562	-73.258369	204	210	251
-11.545849	-39.505756	-73.171127	208	197	255
-11.062146	-39.510189	-73.217201	195	209	255
-2.174460	-39.521561	-73.260742	192	194	247
-34.552486	-33.392105	-1.021855	94	93	145
-34.347080	-33.393288	-1.033333	103	99	140
-34.141510	-33.394875	-1.049424	106	101	139
-33.731190	-33.395855	-1.056617	116	105	146
-33.525829	-33.396839	-1.065840	123	107	144
-33.115780	-33.397110	-1.065004	114	108	138
-32.911236	-33.396099	-1.051489	111	108	136
-32.501038	-33.396782	-1.055299	112	108	151
-32.295990	-33.396999	-1.055795	113	109	153
-31.886305	-33.396523	-1.046446	115	109	151
-31.681005	-33.397324	-1.053592	112	107	152
-31.271366	-33.396809	-1.043730	111	104	150
-31.067129	-33.395313	-1.024746	111	107	164
-30.657965	-33.393906	-1.004773	115	106	147
-30.453022	-33.393990	-1.003724	111	103	146
-30.042606	-33.395237	-1.013991	116	108	145
-29.837524	-33.395596	-1.016109	114	108	153
-29.428041	-33.394985	-1.005178	117	112	165
-29.223127	-33.395035	-1.003762	115	113	153
-28.812626	-33.396423	-1.015649	107	103	138
-28.607244	-33.397354	-1.024233	109	102	148
-28.204021	-33.385292	-0.882984	114	103	142
-28.002718	-33.378899	-0.808191	112	102	140
-22.593948	-39.735695	-73.157753	123	111	137
-22.121809	-39.722462	-73.002457	123	117	150
-21.377481	-39.761711	-73.442314	121	121	168
-20.906736	-39.746460	-73.264069	135	129	160
-20.423353	-39.751411	-73.315811	144	130	160
-19.707323	-39.744865	-73.234329	148	142	166
-19.237114	-39.730064	-73.061195	132	138	166
-18.992126	-39.737461	-73.143105	136	136	151
-18.497316	-39.758953	-73.383110	145	136	155
-18.022371	-39.751354	-73.291962	150	138	219
-17.308088	-39.743046	-73.190460	147	142	165
-16.579735	-39.754391	-73.312622	158	149	195
-16.093399	-39.762730	-73.402908	155	150	183
-15.618157	-39.756134	-73.323219	153	150	180
-15.382445	-39.750404	-73.255692	157	149	201
-14.906111	-39.745583	-73.196159	168	154	181
-14.180977	-39.752140	-73.263863	195	182	233
-13.695310	-39.759197	-73.339546	192	196	252
-12.975194	-39.759178	-73.332344	194	197	252
-12.501733	-39.751183	-73.236710	186	203	255
-11.786594	-39.745487	-73.164978	200	205	255
-11.304900	-39.747620	-73.184578	189	191	243
-11.061391	-39.751766	-73.229469	198	200	254
-10.570795	-39.764023	-73.364349	202	215	255
-10.087311	-39.767929	-73.404167	213	223	255
-34.347733	-33.597443	-1.020637	105	98	130
-33.936268	-33.601456	-1.062173	115	107	132
-33.730957	-33.602318	-1.069996	117	108	134
-33.320415	-33.603794	-1.082779	115	109	140
-33.115776	-33.602962	-1.071421	112	105	139
-32.706020	-33.602531	-1.062604	112	105	130
-32.500595	-33.603634	-1.073127	117	106	141
-32.091000	-33.602886	-1.060730	115	106	146
-31.886065	-33.602848	-1.058344	114	102	137
-31.475586	-33.604145	-1.069130	112	106	138
-31.271227	-33.602856	-1.052580	113	109	140
-30.863245	-33.598824	-1.002999	117	109	131
-30.658600	-33.598267	-0.994754	116	108	132
-30.247499	-33.600952	-1.021216	114	108	132
-30.041742	-33.602680	-1.038841	114	115	137
-29.631790	-33.602928	-1.037715	112	114	140
-29.427135	-33.602425	-1.030070	115	112	139
-29.016874	-33.603310	-1.036176	119	107	132
-28.811296	-33.604603	-1.048859	118	105	130
-28.400639	-33.606197	-1.062970	114	101	140
-28.202648	-33.593391	-0.916035	112	98	135
-22.833385	-39.977692	-73.176834	120	115	156
-22.353836	-39.976658	-73.160545	119	115	149
-21.871378	-39.980484	-73.199249	117	114	159
-21.626362	-39.988541	-73.288177	115	116	160
-21.145123	-39.990139	-73.301651	128	125	175
-20.905594	-39.989189	-73.288620	131	133	170
-20.663290	-39.992638	-73.325386	139	135	175
-20.421194	-39.995708	-73.357857	146	137	188
-19.940760	-39.995941	-73.355888	157	139	180
-19.704887	-39.989441	-73.280022	150	137	167
-19.469635	-39.982124	-73.194870	148	141	173
-18.989130	-39.982723	-73.197060	136	140	175
-18.743845	-39.990444	-73.282188	144	140	171
-18.499937	-39.996033	-73.343170	148	138	190
-18.259125	-39.997051	-73.352364	148	140	209
-17.786291	-39.986496	-73.228302	147	145	208
-17.548725	-39.982979	-73.186211	156	145	204
-17.308029	-39.983925	-73.194611	154	144	180
-17.065113	-39.987957	-73.237953	151	147	177
-16.576590	-39.999550	-73.364616	157	148	197
-16.332371	-40.005165	-73.425873	160	149	183
-16.090504	-40.007523	-73.450264	150	149	176
-15.851431	-40.006096	-73.431801	158	154	187
-15.379794	-39.994705	-73.298294	160	147	190
-15.144954	-39.987858	-73.218498	179	147	204
-14.907853	-39.984062	-73.173241	171	165	211
-14.422750	-39.990665	-73.243416	198	176	217
-14.179509	-39.994789	-73.287766	211	185	251
-13.938073	-39.996567	-73.305626	191	195	241
-13.694082	-40.001545	-73.359657	189	202	254
-13.209092	-40.007595	-73.423546	205	204	253
-12.972649	-40.003101	-73.370399	205	204	254
-12.738421	-39.995960	-73.287270	187	197	255
-12.266919	-39.985661	-73.166100	212	223	255
-12.029554	-39.982559	-73.128693	207	221	255
-11.790104	-39.981987	-73.119957	213	207	254
-11.548219	-39.984318	-73.144012	208	197	240
-11.062120	-39.991619	-73.222084	209	194	254
-10.819074	-39.995205	-73.260368	217	208	234
-10.575063	-39.999863	-73.310791	227	214	254
-10.333190	-40.002010	-73.332832	217	214	255
-9.854818	-40.000156	-73.307251	237	236	255
-8.417505	-39.997368	-73.261932	201	217	255
-8.177370	-39.997570	-73.261932	205	221	255
-2.385147	-40.030472	-73.579247	182	184	246
-34.554428	-33.798630	-0.976588	97	94	145
-28.202890	-33.798512	-0.915213	109	101	154
-28.001760	-33.791687	-0.836431	107	100	140
-22.111362	-40.221569	-73.207733	121	114	144
-17.785709	-40.228157	-73.241013	146	154	211
-9.862519	-40.232113	-73.210632	228	231	255
-2.628746	-40.267826	-73.544456	179	187	217
-2.390393	-40.266235	-73.524300	187	189	230
-34.554703	-34.003769	-0.975333	91	94	132
-34.349060	-34.005661	-0.994592	100	102	129
-34.143002	-34.008606	-1.025655	103	107	129
-33.731915	-34.011620	-1.055583	114	106	134
-33.526421	-34.012947	-1.068509	114	106	131
-33.116142	-34.013767	-1.073874	110	99	132
-32.911449	-34.013077	-1.064228	113	103	133
-32.501152	-34.013954	-1.070201	116	105	138
-32.295887	-34.014660	-1.076198	112	104	133
-31.885845	-34.014923	-1.075314	112	106	128
-31.680923	-34.014839	-1.072437	108	105	133
-31.272032	-34.012592	-1.043452	108	105	132
-31.067993	-34.010628	-1.019546	109	107	129
-30.659107	-34.008595	-0.992900	109	107	129
-30.453325	-34.010445	-1.011707	110	109	134
-30.040281	-34.017094	-1.082336	114	108	133
-29.834816	-34.018166	-1.092416	115	111	143
-29.426224	-34.015594	-1.059804	118	107	143
-29.221958	-34.014297	-1.043368	119	106	137
-28.812132	-34.014313	-1.039689	110	105	138
-28.606819	-34.015095	-1.046529	105	103	135
-28.203974	-34.002064	-0.896765	106	98	135
-28.002815	-33.995266	-0.818751	110	100	128
-22.112164	-40.461143	-73.196884	129	113	159
-20.906027	-40.470348	-73.288719	128	127	161
-20.178892	-40.480980	-73.401009	135	130	157
-19.699972	-40.478809	-73.372185	147	143	171
-18.985735	-40.469505	-73.261276	154	144	191
-18.503328	-40.472824	-73.293915	168	145	208
-17.785704	-40.469006	-73.244423	155	153	197
-17.303032	-40.472633	-73.280540	181	143	185
-16.578524	-40.478607	-73.340706	157	149	220
-16.094765	-40.483501	-73.390984	154	143	187
-15.370337	-40.488995	-73.445740	162	155	211
-13.693295	-40.484180	-73.376129	194	196	252
-11.302047	-40.473091	-73.229507	216	189	251
-10.106915	-40.467678	-73.157669	239	209	255
-9.866158	-40.468632	-73.166084	233	217	255
-8.886568	-40.490887	-73.406227	241	229	255
-8.649258	-40.487865	-73.370155	217	220	255
-33.321606	-34.218414	-1.068559	112	104	134
-33.116482	-34.218784	-1.070769	112	104	142
-32.502583	-34.216354	-1.037995	105	104	147
-32.091785	-34.218452	-1.057563	110	105	140
-31.886654	-34.218861	-1.060220	110	106	143
-30.864298	-34.213696	-0.993212	111	107	137
-30.659525	-34.213406	-0.988060	111	108	143
-30.040636	-34.222088	-1.079079	115	105	141
-29.630657	-34.222294	-1.077558	118	109	152
-29.426764	-34.220203	-1.052389	118	108	155
-28.403738	-34.217278	-1.010289	107	99	143
-28.205887	-34.204037	-0.860925	108	99	150
-22.351040	-40.704151	-73.226601	129	116	154
-22.116350	-40.694981	-73.122261	126	120	153
-21.879017	-40.690414	-73.069176	122	117	154
-21.635504	-40.696205	-73.131424	123	116	154
-21.147112	-40.709724	-73.277527	125	118	144
-20.906734	-40.710140	-73.279938	122	118	145
-20.666399	-40.710487	-73.281555	123	119	152
-20.424524	-40.713280	-73.310455	129	122	157
-19.940880	-40.718582	-73.365028	140	140	171
-19.701635	-40.717178	-73.347176	139	141	177
-19.463915	-40.713467	-73.303612	150	139	170
-18.986891	-40.708633	-73.245346	153	144	178
-18.746368	-40.709301	-73.250549	159	143	199
-18.505564	-40.710381	-73.260345	156	142	195
-18.265558	-40.710270	-73.256874	147	141	194
-17.302181	-40.714699	-73.297295	165	141	171
-17.059217	-40.718781	-73.340546	171	146	189
-16.581667	-40.715084	-73.294922	158	145	206
-16.341564	-40.715126	-73.293159	156	146	197
-16.098900	-40.718693	-73.330666	157	142	175
-15.856014	-40.722519	-73.371017	148	140	171
-15.368708	-40.732079	-73.473030	161	147	197
-15.134966	-40.723526	-73.375580	163	150	208
-14.908341	-40.705666	-73.174469	160	164	229
-13.937799	-40.719315	-73.317535	192	187	255
-13.696857	-40.720455	-73.328003	180	192	254
-13.214888	-40.722809	-73.349770	193	190	250
-12.979709	-40.716690	-73.279419	193	209	255
-12.747303	-40.707207	-73.171600	208	211	254
-12.275353	-40.697403	-73.058006	211	215	255
-12.034001	-40.699169	-73.075455	240	207	255
-11.791155	-40.702728	-73.112862	228	200	255
-11.545559	-40.709560	-73.186684	251	195	255
-11.056997	-40.719841	-73.296715	210	207	254
-10.347563	-40.707512	-73.152748	208	208	255
-9.865804	-40.709709	-73.172760	224	219	255
-9.614758	-40.722427	-73.312164	216	223	255
-9.366855	-40.731426	-73.410095	221	220	255
-9.128731	-40.729256	-73.383728	224	232	255
-8.648168	-40.729832	-73.385696	211	217	255
-2.406045	-40.732632	-73.358994	175	180	230
-33.938736	-34.418533	-1.016838	109	101	130
-33.733028	-34.420498	-1.036700	107	103	128
-32.912006	-34.423405	-1.061399	106	104	135
-31.682390	-34.423069	-1.046390	105	104	128
-31.272989	-34.421978	-1.030529	102	104	128
-30.453079	-34.422394	-1.027637	111	107	133
-29.018253	-34.423267	-1.024133	111	104	134
-28.813269	-34.423428	-1.024038	110	103	130
-21.639479	-40.930447	-73.062019	128	118	173
-20.906120	-40.952072	-73.294930	136	117	157
-20.427423	-40.949585	-73.262978	125	124	156
-19.706158	-40.951077	-73.272865	139	140	191
-19.227575	-40.948593	-73.240952	155	140	197
-18.987774	-40.948166	-73.234039	150	137	176
-18.505777	-40.950928	-73.260231	152	138	191
-17.790949	-40.943039	-73.166229	164	145	201
-16.820368	-40.957886	-73.321831	164	144	202
-16.583549	-40.953289	-73.268745	164	142	230
-16.100220	-40.957722	-73.313446	173	136	178
-15.611069	-40.969986	-73.444817	159	139	202
-15.370368	-40.970745	-73.451050	170	154	241
-14.668520	-40.946190	-73.172485	159	165	219
-13.702788	-40.953632	-73.246109	188	196	254
-12.515961	-40.937195	-73.053070	222	215	254
-12.276165	-40.937054	-73.049332	223	219	254
-11.790470	-40.944237	-73.124466	207	199	248
-11.055639	-40.962219	-73.316971	196	209	254
-10.580251	-40.956738	-73.251846	213	208	255
-10.106466	-40.949539	-73.167755	252	208	255
-9.367388	-40.971600	-73.405411	231	217	255
-8.890946	-40.967487	-73.355484	244	217	255
-8.647662	-40.971165	-73.393982	222	210	255
-2.640080	-40.979057	-73.426331	175	180	228
-2.172167	-40.967457	-73.293480	186	192	242
-34.556183	-34.617367	-0.951446	103	96	157
-34.350990	-34.618073	-0.957363	105	101	150
-34.145542	-34.619453	-0.970699	109	102	145
-33.734085	-34.623604	-1.012708	110	103	140
-33.528309	-34.625725	-1.034214	109	103	142
-33.117622	-34.627647	-1.051697	111	109	151
-32.913071	-34.626614	-1.038426	112	105	142
-32.504154	-34.624184	-1.007944	109	103	143
-32.298836	-34.625099	-1.016155	114	103	148
-31.888407	-34.626381	-1.026548	111	103	149
-31.683832	-34.625534	-1.015364	107	103	148
-31.273756	-34.626019	-1.016965	112	105	146
-31.068659	-34.626389	-1.019214	108	104	143
-30.658873	-34.626247	-1.013933	110	100	135
-30.453060	-34.628162	-1.033149	116	105	143
-30.041243	-34.632286	-1.074859	107	106	141
-29.836628	-34.631611	-1.065539	109	101	145
-29.428349	-34.628387	-1.026337	110	105	152
-29.223526	-34.628212	-1.022547	104	104	151
-28.812920	-34.629776	-1.036037	111	104	142
-28.608305	-34.629208	-1.027909	113	102	148
-28.207418	-34.612247	-0.837339	107	100	143
-28.006569	-34.604801	-0.753445	107	101	135
-22.350554	-41.186893	-73.244476	120	117	162
-22.120703	-41.169319	-73.048737	121	123	160
-21.885248	-41.161575	-72.961212	122	121	167
-21.148094	-41.189987	-73.267685	138	120	151
-20.666067	-41.192890	-73.295273	128	122	159
-19.712263	-41.182419	-73.171204	146	145	194
-18.987932	-41.188797	-73.234917	145	135	183
-18.745855	-41.191822	-73.266083	148	135	182
-18.266232	-41.190998	-73.252617	144	136	201
-18.029381	-41.186222	-73.197853	148	138	227
-17.550270	-41.184792	-73.177719	167	141	176
-17.306364	-41.190388	-73.237167	168	148	185
-16.344870	-41.192184	-73.248238	188	143	189
-16.100805	-41.197762	-73.307503	175	135	174
-15.854660	-41.206135	-73.397530	158	134	172
-15.373894	-41.206856	-73.401123	159	147	216
-15.139394	-41.199272	-73.315414	153	148	201
-14.429096	-41.186184	-73.164734	180	161	221
-14.189463	-41.185719	-73.157417	186	167	249
-13.709524	-41.185692	-73.152740	204	190	242
-13.224316	-41.192410	-73.222382	178	185	215
-12.986194	-41.190025	-73.193947	194	195	247
-12.033492	-41.181122	-73.087166	212	198	254
-11.548988	-41.186802	-73.145355	191	187	228
-11.060268	-41.197422	-73.257965	185	187	254
-10.818437	-41.199615	-73.279961	207	193	255
-10.579128	-41.198795	-73.268730	216	207	255
-10.341434	-41.196083	-73.236687	212	206	255
-9.854503	-41.204220	-73.321938	208	212	255
-9.608551	-41.211094	-73.395477	208	207	255
-9.368736	-41.210835	-73.390404	238	212	255
-9.137172	-41.201149	-73.281570	222	223	255
-8.654374	-41.204353	-73.312508	211	206	255
-8.406287	-41.213440	-73.410385	208	207	255
-8.160123	-41.220276	-73.483505	202	213	255
-2.868500	-41.231159	-73.555359	184	184	218
-2.630666	-41.228996	-73.529381	178	180	237
-2.396024	-41.223747	-73.469398	172	188	251
-34.351143	-34.823544	-0.959764	109	100	138
-33.940449	-34.825737	-0.980113	110	106	136
-33.734707	-34.827835	-1.001297	108	104	127
-33.323479	-34.831249	-1.034994	108	105	131
-33.118240	-34.831944	-1.040793	107	104	131
-32.708355	-34.831844	-1.035988	110	103	130
-32.503391	-34.831860	-1.034321	107	100	126
-32.093163	-34.832634	-1.039140	112	105	134
-31.888559	-34.831818	-1.028318	110	106	138
-31.478989	-34.831097	-1.016751	110	105	129
-31.273411	-34.832554	-1.030879	113	104	130
-30.863085	-34.833557	-1.038187	113	102	132
-30.657927	-34.834042	-1.041657	109	103	127
-30.246281	-34.837837	-1.079543	109	104	131
-30.041206	-34.838100	-1.080602	112	107	130
-29.633394	-34.833817	-1.029984	109	101	132
-29.429039	-34.832672	-1.015577	108	101	134
-29.017637	-34.835846	-1.046671	106	101	124
-28.812057	-34.837154	-1.059158	110	104	123
-28.403835	-34.834026	-1.021193	106	101	131
-28.206594	-34.819378	-0.858860	102	103	126
-22.586988	-41.434334	-73.321907	114	114	154
-22.352266	-41.424881	-73.216202	117	117	162
-22.119421	-41.412384	-73.077118	128	123	169
-21.881987	-41.407944	-73.026299	133	127	164
-21.640202	-41.410934	-73.056900	137	126	153
-20.905775	-41.434540	-73.309067	133	121	168
-20.663191	-41.438522	-73.350540	135	119	168
-20.429420	-41.428204	-73.235306	133	120	171
-20.196365	-41.416924	-73.109566	132	129	178
-19.958195	-41.413963	-73.074982	134	136	179
-19.715670	-41.417915	-73.116135	135	139	169
-19.472506	-41.422806	-73.167534	141	142	186
-18.985987	-41.432659	-73.271172	138	131	176
-18.743406	-41.436440	-73.310425	142	134	171
-18.502405	-41.437778	-73.322945	139	134	175
-18.263340	-41.436199	-73.303482	134	136	211
-17.787733	-41.429413	-73.224823	148	144	198
-17.549179	-41.427208	-73.198486	159	145	194
-17.308765	-41.427738	-73.202164	167	147	216
-16.587366	-41.429554	-73.215553	173	144	199
-16.345770	-41.431740	-73.237381	178	142	189
-14.907393	-41.429226	-73.196884	161	149	203
-14.431641	-41.423557	-73.130440	176	153	204
-14.192624	-41.422291	-73.114426	183	160	223
-13.952441	-41.422577	-73.115410	185	170	226
-13.710940	-41.424580	-73.135193	194	180	250
-13.224311	-41.433174	-73.224998	173	175	222
-12.984434	-41.433010	-73.221039	180	180	242
-12.748825	-41.427448	-73.157982	191	185	254
-12.274538	-41.420399	-73.076447	204	187	254
-12.032408	-41.423138	-73.104286	206	183	225
-11.791171	-41.424747	-73.119736	186	177	238
-11.550093	-41.426144	-73.132881	187	178	248
-11.066212	-41.430981	-73.181549	172	179	255
-2.379381	-41.480797	-73.649529	174	185	242
-34.556324	-35.028786	-0.961496	109	92	142
-28.004620	-35.019535	-0.802281	105	103	145
-19.717100	-41.656487	-73.095123	132	137	147
-17.783541	-41.676479	-73.295868	143	138	184
-15.381647	-41.677971	-73.290749	169	147	202
-14.672699	-41.662846	-73.119537	166	149	220
-13.708481	-41.668526	-73.172867	172	164	227
-12.271950	-41.664322	-73.114273	184	181	246
