-23.191948	-8.348304	-39.697655	48	48	67
-22.346790	-8.326870	-38.819759	49	49	71
-21.712402	-8.312030	-38.209389	51	49	71
-21.080774	-8.296773	-37.582928	51	50	70
-20.450603	-8.281679	-36.962898	51	49	70
-18.569162	-8.237140	-35.132114	53	52	75
-18.361895	-8.231884	-34.916851	52	50	73
-17.945272	-8.222423	-34.527050	52	51	75
-17.736340	-8.218040	-34.345680	52	52	74
-17.319931	-8.208926	-33.969429	53	52	74
-17.112978	-8.204003	-33.767132	53	52	74
-16.700432	-8.193876	-33.351643	53	50	72
-16.494276	-8.188882	-33.146584	53	52	74
-16.082682	-8.178851	-32.734909	55	52	73
-15.877903	-8.173578	-32.519115	54	53	74
-15.469510	-8.162844	-32.080238	56	56	73
-15.264396	-8.157914	-31.877781	56	54	71
-9.237388	-7.999971	-25.419212	95	88	122
-8.585981	-8.001289	-25.436527	93	87	125
-7.938114	-8.001589	-25.414429	92	89	123
-5.547687	-8.006882	-25.495750	91	83	127
-4.900643	-8.006999	-25.466591	94	86	118
-2.506677	-8.013037	-25.576696	86	84	123
-1.856539	-8.013957	-25.578632	88	86	117
0.529516	-8.017875	-25.606661	91	84	118
1.182157	-8.019381	-25.631233	94	87	117
1.827882	-8.019286	-25.593908	92	84	118
4.878464	-8.027251	-25.744801	102	89	126
7.271996	-8.032565	-25.826765	107	94	127
7.922152	-8.033452	-25.827404	102	95	132
10.311922	-8.037881	-25.875153	102	98	126
10.966781	-8.039682	-25.911076	102	94	130
13.368774	-8.046300	-26.043352	98	92	124
14.021934	-8.047709	-26.064131	99	91	126
18.227242	-8.181628	-31.054800	53	52	73
18.750536	-8.197015	-31.626112	53	49	73
19.272417	-8.211967	-32.180588	54	52	74
28.542210	-8.468114	-41.662319	47	47	67
28.817320	-8.476296	-41.966335	47	48	67
29.089401	-8.483967	-42.250549	49	48	69
29.359301	-8.491259	-42.520153	50	49	65
29.630423	-8.498698	-42.795444	50	51	67
30.175329	-8.513865	-43.357033	63	60	67
30.423664	-8.517710	-43.493698	79	72	80
-21.923338	-8.540456	-38.421982	52	49	71
-21.711714	-8.535571	-38.224689	50	50	70
-21.500614	-8.530537	-38.021713	51	51	72
-21.290098	-8.525331	-37.812256	49	49	70
-21.080008	-8.520028	-37.599087	50	50	68
-20.870169	-8.514707	-37.385242	48	50	71
-20.660397	-8.509448	-37.173759	49	51	72
-20.450745	-8.504227	-36.963730	50	50	70
-20.241213	-8.499041	-36.755081	49	49	73
-20.031809	-8.493889	-36.547714	52	51	74
-19.822277	-8.488876	-36.345650	52	50	73
-19.612543	-8.484031	-36.149975	49	50	71
-19.402786	-8.479275	-35.957699	49	51	72
-19.193535	-8.474388	-35.760479	51	50	74
-18.985180	-8.469215	-35.552353	52	51	71
-18.777607	-8.463807	-35.335293	52	51	74
-14.440603	-8.359735	-31.140982	53	52	80
-13.828721	-8.344648	-30.533796	56	52	77
-13.216274	-8.330354	-29.956831	55	54	76
-11.160831	-8.222526	-25.735409	86	84	123
-10.957514	-8.218589	-25.574759	92	88	124
-10.747000	-8.216946	-25.501291	93	92	128
-10.532133	-8.216675	-25.479980	94	90	126
-10.315888	-8.216835	-25.475088	92	89	127
-10.099962	-8.216900	-25.466557	92	90	127
-9.884701	-8.216765	-25.450436	91	89	124
-9.453402	-8.216745	-25.427681	94	88	123
-9.236283	-8.217182	-25.433254	98	90	122
-8.801914	-8.218090	-25.445774	95	88	121
-8.585922	-8.218190	-25.438595	93	87	123
-8.154311	-8.218290	-25.420385	91	87	125
-7.937811	-8.218546	-25.419121	92	88	125
-7.503550	-8.219422	-25.430424	90	85	123
-7.286141	-8.219938	-25.439039	89	85	125
-7.069033	-8.220367	-25.444334	94	87	119
-6.852486	-8.220636	-25.443558	94	84	116
-6.636224	-8.220826	-25.439777	91	82	116
-6.419649	-8.221105	-25.439375	86	86	115
-6.202275	-8.221606	-25.447428	86	86	116
-5.765947	-8.223039	-25.479893	86	82	119
-5.548545	-8.223541	-25.487968	88	83	125
-5.117026	-8.223649	-25.470089	93	86	122
-4.901385	-8.223676	-25.460093	94	85	118
-4.467423	-8.224453	-25.467642	91	85	122
-4.249576	-8.225071	-25.480143	92	83	120
-4.031665	-8.225704	-25.493176	94	87	118
-3.814132	-8.226233	-25.502317	96	87	118
-3.597430	-8.226544	-25.503122	93	86	119
-3.381405	-8.226679	-25.497223	90	85	117
-3.165108	-8.226885	-25.494078	87	84	114
-2.727862	-8.228498	-25.533352	85	83	117
-2.507262	-8.229803	-25.571939	83	82	117
-2.069651	-8.231478	-25.613539	84	85	120
-1.855093	-8.231236	-25.593374	89	86	121
-1.430012	-8.229760	-25.515354	89	87	118
-1.215680	-8.229483	-25.493828	90	86	117
-0.999343	-8.229708	-25.491379	90	84	114
-0.781763	-8.230240	-25.500603	89	83	117
-0.563819	-8.230860	-25.513153	88	85	116
-0.345687	-8.231523	-25.527348	89	86	113
-0.127205	-8.232268	-25.544662	90	84	115
0.311037	-8.234056	-25.590584	90	83	117
0.530106	-8.234930	-25.612782	89	84	117
2.260823	-8.236695	-25.591894	93	83	125
2.473855	-8.236156	-25.560467	93	84	125
2.688016	-8.235885	-25.539179	92	86	119
2.904210	-8.236084	-25.535738	87	84	118
3.122601	-8.236785	-25.551357	91	82	114
3.341929	-8.237695	-25.574928	90	86	118
3.561135	-8.238573	-25.597267	90	87	118
4.219921	-8.241441	-25.673172	95	88	117
4.880886	-8.244744	-25.765575	103	90	122
5.747857	-8.245956	-25.767622	100	90	126
6.398489	-8.246954	-25.772549	100	90	126
7.273057	-8.249776	-25.835653	108	95	129
7.923754	-8.250771	-25.840448	101	99	131
8.794458	-8.252736	-25.871092	107	96	131
9.447701	-8.254242	-25.895254	102	94	129
10.313725	-8.255238	-25.889107	98	98	124
10.969062	-8.257143	-25.928444	102	93	131
11.843999	-8.259880	-25.988297	104	93	129
12.496721	-8.261233	-26.006701	97	92	127
13.369856	-8.263568	-26.051300	97	92	126
14.023563	-8.265086	-26.075893	99	92	129
14.896310	-8.267303	-26.116066	95	90	130
20.321327	-8.462781	-33.302185	52	52	71
20.844282	-8.477633	-33.842503	55	53	71
21.105255	-8.484904	-34.106796	53	50	73
21.367508	-8.492352	-34.377762	52	51	74
21.632103	-8.500156	-34.662224	52	49	71
21.898146	-8.508162	-34.954266	53	48	71
22.163240	-8.515958	-35.238377	52	50	72
22.424992	-8.523140	-35.499218	52	53	72
22.683264	-8.529691	-35.736149	52	52	71
22.940155	-8.535971	-35.962788	52	51	69
23.198399	-8.542441	-36.196644	52	50	70
-26.613970	-8.881548	-43.072781	101	84	94
-25.968536	-8.865429	-42.436455	53	50	69
-25.327036	-8.848204	-41.758862	49	48	69
-25.113701	-8.842433	-41.531906	50	48	68
-24.687159	-8.831172	-41.088600	50	47	70
-24.043547	-8.817041	-40.526859	50	49	69
-23.828854	-8.812594	-40.349491	48	48	68
-23.402946	-8.802239	-39.940151	47	49	71
-23.191751	-8.796349	-39.708817	48	46	68
-22.346838	-8.773920	-38.826077	50	48	70
-22.134600	-8.769040	-38.632580	51	49	71
-12.817351	-8.536901	-29.467381	54	55	76
-12.624076	-8.528648	-29.148428	55	54	79
-12.436383	-8.518630	-28.763580	55	56	79
-12.254429	-8.506826	-28.312113	52	53	76
-12.076922	-8.493696	-27.811155	52	51	82
-11.724281	-8.467139	-26.798254	47	48	65
-10.747969	-8.433570	-25.491417	90	92	129
-10.099787	-8.433866	-25.470144	92	86	128
-9.235611	-8.434277	-25.442381	96	90	119
-8.586053	-8.435039	-25.438530	92	85	119
-7.937898	-8.435394	-25.419504	92	87	123
-7.068402	-8.437430	-25.452414	92	88	121
-6.418865	-8.438203	-25.448921	87	86	116
-5.548227	-8.440523	-25.492428	88	86	125
-4.901463	-8.440530	-25.460396	92	86	122
-4.032485	-8.442369	-25.485975	95	86	117
-3.382142	-8.443368	-25.490908	89	83	115
-2.507593	-8.446633	-25.569654	85	83	112
-1.854533	-8.448303	-25.599628	89	87	122
-0.998982	-8.446667	-25.495605	88	84	113
-0.345147	-8.448540	-25.533155	87	84	113
0.530065	-8.451840	-25.613150	86	81	112
1.187364	-8.454485	-25.679464	92	88	113
2.053277	-8.455460	-25.672749	90	86	119
2.690278	-8.453287	-25.559532	89	88	121
3.343464	-8.454936	-25.588732	91	87	116
3.780438	-8.456374	-25.620831	93	85	120
3.998937	-8.457091	-25.636801	97	87	121
4.218972	-8.458155	-25.665665	94	90	122
4.440532	-8.459558	-25.707174	99	90	125
4.661983	-8.460927	-25.747450	100	90	132
4.882128	-8.461995	-25.776474	101	92	126
5.100327	-8.462621	-25.789055	104	89	126
5.317204	-8.462951	-25.790571	98	89	125
5.533062	-8.463054	-25.783678	98	89	131
5.748653	-8.463099	-25.774639	99	88	127
5.964386	-8.463180	-25.766859	95	88	129
6.181408	-8.463544	-25.769684	97	88	124
6.399748	-8.464196	-25.783218	98	90	128
6.619016	-8.465048	-25.804184	98	90	132
6.837876	-8.465807	-25.821707	97	92	132
7.056050	-8.466414	-25.833588	98	92	124
7.273671	-8.466901	-25.840965	103	95	129
7.491197	-8.467366	-25.847532	103	97	129
7.708420	-8.467765	-25.851658	107	95	132
7.925181	-8.468066	-25.852106	108	97	137
8.141747	-8.468326	-25.851032	107	97	137
8.358885	-8.468706	-25.854460	110	98	136
8.576974	-8.469287	-25.865332	113	96	133
8.795756	-8.470011	-25.881536	110	96	133
9.014304	-8.470682	-25.895802	107	94	131
9.231852	-8.471144	-25.902239	103	96	129
9.448058	-8.471327	-25.898306	107	97	131
9.663443	-8.471341	-25.888098	109	95	132
9.879025	-8.471398	-25.879484	106	96	133
10.095782	-8.471699	-25.879915	102	97	130
10.313911	-8.472280	-25.890776	103	97	129
10.532811	-8.473015	-25.907396	102	95	135
10.751740	-8.473752	-25.924126	103	94	138
11.189015	-8.475102	-25.952900	100	94	131
11.407406	-8.475724	-25.965302	100	96	134
11.625445	-8.476274	-25.975023	101	96	132
11.843386	-8.476803	-25.983952	104	93	131
12.061410	-8.477346	-25.993448	104	93	133
12.279566	-8.477915	-26.003851	100	92	132
12.497395	-8.478416	-26.011803	99	91	132
12.714853	-8.478846	-26.017006	99	93	132
12.932405	-8.479292	-26.022867	96	92	130
13.150725	-8.479886	-26.034258	96	92	128
13.369764	-8.480618	-26.050779	97	92	131
13.588821	-8.481352	-26.067322	97	91	125
13.807022	-8.481917	-26.077620	98	93	126
14.024253	-8.482295	-26.080933	99	92	130
14.240998	-8.482579	-26.080772	98	92	133
14.458255	-8.482962	-26.084259	97	92	131
14.676541	-8.483540	-26.095015	101	92	131
14.896459	-8.484425	-26.117193	101	91	131
15.119693	-8.485931	-26.162531	96	89	131
15.352060	-8.489148	-26.271496	93	89	125
15.603994	-8.496014	-26.516207	92	85	123
15.886026	-8.508457	-26.968491	84	80	120
16.199549	-8.526683	-27.635899	78	73	108
25.602871	-8.835370	-38.735523	51	51	70
-26.831270	-9.111674	-43.252239	163	145	163
-26.613699	-9.107375	-43.083385	99	88	91
-26.397940	-9.102128	-42.879719	71	63	72
-26.183235	-9.096395	-42.658203	58	55	71
-25.969023	-9.090506	-42.430988	53	50	68
-25.755074	-9.084594	-42.202961	52	50	73
-25.541307	-9.078705	-41.975777	51	51	71
-23.828733	-9.036961	-40.355709	48	47	69
-23.191790	-9.020314	-39.711914	47	47	70
-22.346567	-8.997595	-38.834427	51	49	70
-20.449448	-8.950034	-36.991264	50	50	72
-15.878843	-8.834424	-32.512939	54	52	75
-15.262861	-8.818735	-31.905416	54	52	76
-14.441140	-8.798976	-31.138039	54	52	75
-14.034069	-8.788142	-30.719435	54	53	78
-13.829704	-8.783131	-30.524994	55	54	78
-13.216714	-8.768459	-29.955065	56	54	75
-8.586031	-8.651936	-25.440186	91	86	118
-4.900858	-8.657578	-25.467693	89	85	123
-2.507931	-8.663462	-25.567308	86	83	114
4.882082	-8.678963	-25.776596	102	88	128
7.273405	-8.683841	-25.839224	101	94	128
13.368730	-8.697485	-26.043447	98	91	129
25.601578	-9.058363	-38.727325	52	50	69
26.400120	-9.081109	-39.525421	50	49	69
26.667215	-9.088758	-39.793892	50	49	70
26.935179	-9.096510	-40.066082	48	49	71
27.471302	-9.111915	-40.606857	49	48	70
27.736698	-9.119111	-40.858746	51	51	67
28.000952	-9.126080	-41.102268	52	49	70
28.811163	-9.149611	-41.928730	49	49	67
-23.828419	-9.261436	-40.365566	51	47	68
-23.191954	-9.244221	-39.712692	47	48	71
-19.615051	-9.149558	-36.119003	50	53	69
-19.406227	-9.144114	-35.912178	49	49	72
-19.197208	-9.138844	-35.711628	52	50	72
-18.988190	-9.133657	-35.514095	50	51	73
-18.779285	-9.128504	-35.317825	53	51	71
-18.570337	-9.123453	-35.125202	52	52	71
-18.361143	-9.118585	-34.939175	53	52	74
-18.151707	-9.113894	-34.759548	52	51	77
-17.942440	-9.109206	-34.580055	53	51	72
-17.733749	-9.104353	-34.394623	55	51	74
-17.525890	-9.099235	-34.199615	51	51	75
-17.318838	-9.093866	-33.995605	55	54	75
-17.112518	-9.088284	-33.783878	54	53	76
-16.701351	-9.076777	-33.348221	53	52	75
-16.495911	-9.071095	-33.132950	55	51	73
-13.217707	-8.987239	-29.944284	56	53	74
-10.749286	-8.867001	-25.479027	89	88	124
-10.099768	-8.867707	-25.473457	92	86	124
-9.235373	-8.868148	-25.448023	93	89	120
-8.585704	-8.868932	-25.445255	88	86	122
-7.936584	-8.869555	-25.436686	95	89	122
-7.065204	-8.872168	-25.489468	90	85	119
-6.414679	-8.873205	-25.495829	87	84	123
-5.544518	-8.875395	-25.533333	90	86	120
-4.899802	-8.874763	-25.479626	92	83	125
-4.033813	-8.875773	-25.474705	89	87	117
-3.381533	-8.877308	-25.498924	88	82	117
-2.508352	-8.880268	-25.564148	85	83	120
-1.856095	-8.881748	-25.586445	94	87	118
-0.993342	-8.881891	-25.550320	95	86	121
-0.341702	-8.883207	-25.566696	92	85	119
0.528217	-8.885220	-25.597784	89	84	114
1.188316	-8.888628	-25.689426	88	88	118
2.058262	-8.890574	-25.718117	90	83	115
3.347282	-8.889644	-25.622795	93	86	116
4.219152	-8.892056	-25.668264	91	86	119
4.881238	-8.895748	-25.770033	99	86	125
5.747883	-8.896873	-25.769220	96	90	126
6.402180	-8.898698	-25.803869	97	92	130
7.272738	-8.900691	-25.834265	101	95	126
7.926861	-8.902439	-25.866131	104	96	128
8.797637	-8.904442	-25.896843	104	95	131
9.449233	-8.905611	-25.907949	103	94	126
10.310928	-8.905665	-25.868637	101	93	122
10.969911	-8.908387	-25.935509	99	94	131
11.844385	-8.911100	-25.991743	101	90	127
12.499969	-8.913054	-26.030998	97	95	128
13.367525	-8.914311	-26.034889	98	91	126
14.023231	-8.916258	-26.073860	99	90	126
14.892952	-8.917929	-26.092651	98	91	124
18.501278	-9.070195	-31.424917	53	51	74
18.759472	-9.077762	-31.686123	52	52	75
19.019049	-9.085540	-31.954887	55	53	74
19.280264	-9.093575	-32.232868	59	53	72
19.542753	-9.101796	-32.517551	58	53	75
19.805433	-9.110002	-32.801655	57	51	73
20.328701	-9.125879	-33.350624	53	50	72
20.588755	-9.133456	-33.612106	53	51	72
20.848223	-9.140880	-33.868088	53	50	73
21.107895	-9.148296	-34.123791	53	52	73
30.477663	-9.428616	-43.809826	77	71	82
31.210939	-9.438832	-44.144112	139	150	219
31.422239	-9.436837	-44.061844	160	165	212
31.637899	-9.435558	-44.005299	160	165	195
-26.614590	-9.558204	-43.073975	95	85	90
-25.969740	-9.540797	-42.425327	53	50	68
-24.473179	-9.499822	-40.899406	48	49	69
-23.828009	-9.485975	-40.377262	53	48	66
-23.192200	-9.468088	-39.711948	50	48	70
-22.771486	-9.455112	-39.231220	50	49	71
-22.560139	-9.449300	-39.014843	50	47	70
-22.348122	-9.443929	-38.814060	49	48	72
-22.135807	-9.438801	-38.621956	48	49	70
-21.711508	-9.428663	-38.241898	51	49	70
-21.499910	-9.423463	-38.047215	51	49	71
-20.867815	-9.407132	-37.437386	51	49	72
-20.657965	-9.401479	-37.226711	52	50	71
-20.448675	-9.395661	-37.010220	51	49	69
-20.239971	-9.389672	-36.787670	51	49	69
-19.823311	-9.377653	-36.341110	51	50	70
-11.903428	-9.132836	-27.272215	51	50	69
-11.545447	-9.106969	-26.336435	60	57	84
-11.359137	-9.096763	-25.965130	71	71	112
-11.164517	-9.089496	-25.697821	85	85	131
-10.960513	-9.085479	-25.545534	90	88	127
-10.748747	-9.084111	-25.487026	91	90	127
-10.532599	-9.084223	-25.480841	96	89	131
-10.315413	-9.084681	-25.486931	98	87	129
-10.099021	-9.084875	-25.483700	95	88	123
-9.883709	-9.084719	-25.468027	93	89	123
-9.668623	-9.084494	-25.449936	92	88	124
-9.452715	-9.084540	-25.441481	92	89	126
-9.235649	-9.084964	-25.446331	90	89	123
-9.018187	-9.085513	-25.455650	93	90	126
-8.801323	-9.085869	-25.458134	89	89	122
-8.585223	-9.085983	-25.452038	85	88	122
-8.369122	-9.086101	-25.446064	88	88	124
-8.152337	-9.086433	-25.447727	90	87	124
-7.934837	-9.086989	-25.457291	93	88	124
-7.717028	-9.087639	-25.470154	92	87	121
-7.499085	-9.088326	-25.484362	90	85	119
-7.281138	-9.089012	-25.498484	91	84	118
-7.063361	-9.089642	-25.510632	94	84	118
-6.846093	-9.090114	-25.517214	93	85	118
-6.629301	-9.090441	-25.518663	93	85	123
-6.412675	-9.090718	-25.518343	88	84	122
-6.195640	-9.091118	-25.522373	87	83	121
-5.977974	-9.091704	-25.533012	88	84	118
-5.760041	-9.092368	-25.546349	89	86	116
-5.542854	-9.092809	-25.551811	91	87	116
-5.327179	-9.092805	-25.541574	93	87	116
-5.112775	-9.092435	-25.518354	90	84	118
-4.898598	-9.092006	-25.493073	91	82	122
-4.683748	-9.091778	-25.474915	91	85	119
-4.468033	-9.091805	-25.465736	91	86	119
-4.251492	-9.092070	-25.465004	91	85	120
-4.034123	-9.092571	-25.472620	89	85	117
-3.816133	-9.093246	-25.486387	87	84	119
-3.598166	-9.093912	-25.499817	88	83	118
-3.380684	-9.094440	-25.508327	89	81	118
-3.163453	-9.094893	-25.514292	90	81	117
-2.945782	-9.095469	-25.524538	92	83	118
-2.727332	-9.096258	-25.542311	91	83	122
-2.508418	-9.097170	-25.564442	87	82	120
-2.289906	-9.097966	-25.582481	86	85	116
-2.072662	-9.098413	-25.588173	91	85	117
-1.856896	-9.098458	-25.579655	94	83	119
-1.641694	-9.098354	-25.565865	95	85	118
-1.425669	-9.098475	-25.560024	92	83	120
-1.208156	-9.098996	-25.568312	89	83	119
-0.989858	-9.099724	-25.583925	92	84	120
-0.771971	-9.100339	-25.595558	94	85	119
-0.555318	-9.100626	-25.595612	92	85	120
-0.339825	-9.100610	-25.584909	91	87	117
-0.124823	-9.100468	-25.569784	91	87	116
0.090848	-9.100504	-25.560966	92	85	117
0.308106	-9.100954	-25.566765	91	84	119
0.527085	-9.101848	-25.588213	91	85	114
0.746986	-9.102972	-25.617853	89	86	116
0.967052	-9.104132	-25.648735	90	87	116
1.186803	-9.105205	-25.676527	89	85	113
1.406082	-9.106151	-25.699867	85	84	111
1.624371	-9.106842	-25.714195	86	83	112
1.841535	-9.107248	-25.718422	88	82	113
2.057473	-9.107347	-25.711798	88	84	113
2.272511	-9.107223	-25.697319	88	83	113
3.350616	-9.107373	-25.652100	92	85	117
3.784614	-9.108118	-25.658188	94	85	116
4.001825	-9.108541	-25.663017	95	88	118
4.220514	-9.109317	-25.680346	93	88	121
4.440805	-9.110473	-25.711060	94	88	123
4.661193	-9.111645	-25.742357	98	86	127
4.880337	-9.112514	-25.762993	99	90	133
5.097576	-9.112931	-25.767607	93	88	129
5.313938	-9.113141	-25.764914	95	89	122
5.530526	-9.113405	-25.764122	99	89	129
5.748245	-9.113933	-25.772667	95	92	130
5.966725	-9.114635	-25.787392	92	89	123
6.185533	-9.115412	-25.804701	93	95	130
6.403813	-9.116063	-25.817587	100	92	137
6.621421	-9.116557	-25.824944	107	95	130
6.838297	-9.116883	-25.826338	99	93	133
7.055202	-9.117215	-25.827969	96	94	132
7.272623	-9.117664	-25.833736	101	96	130
7.490802	-9.118284	-25.845524	104	94	131
7.709244	-9.118961	-25.859320	104	96	127
7.927530	-9.119600	-25.871786	106	97	130
8.145548	-9.120177	-25.882057	112	98	127
8.363563	-9.120751	-25.892237	108	96	131
8.581699	-9.121351	-25.903313	109	96	136
8.799866	-9.121956	-25.914543	104	95	137
9.017732	-9.122492	-25.923363	98	95	130
9.234914	-9.122876	-25.926846	101	95	128
9.450913	-9.123003	-25.921196	104	93	124
9.665556	-9.122835	-25.905182	101	92	128
9.879443	-9.122508	-25.883518	99	93	126
10.094012	-9.122333	-25.867228	99	93	124
10.310651	-9.122606	-25.866787	103	94	128
10.529592	-9.123373	-25.883778	102	94	131
10.749761	-9.124400	-25.909924	101	95	130
10.969701	-9.125373	-25.934166	100	95	130
11.188702	-9.126143	-25.951218	98	93	131
11.407110	-9.126783	-25.963741	96	93	132
11.625653	-9.127450	-25.977184	97	93	129
11.844800	-9.128242	-25.995014	98	92	128
12.064275	-9.129098	-26.015146	102	93	131
12.283398	-9.129877	-26.032560	103	94	128
12.501363	-9.130413	-26.041382	100	95	128
12.718040	-9.130682	-26.040756	100	94	127
12.933940	-9.130791	-26.034494	102	93	124
13.150067	-9.130947	-26.029936	101	92	122
13.367074	-9.131286	-26.031773	97	91	125
13.585222	-9.131857	-26.041817	100	91	133
13.804055	-9.132565	-26.056721	103	91	132
14.022796	-9.133252	-26.070866	99	90	125
14.240334	-9.133694	-26.076363	101	91	125
14.456556	-9.133871	-26.072502	99	93	123
14.672475	-9.133987	-26.066530	96	94	127
14.890545	-9.134536	-26.075773	95	91	129
15.113708	-9.136096	-26.120737	94	91	129
15.599978	-9.147086	-26.488377	93	83	127
21.627464	-9.384266	-34.631733	54	52	72
22.943394	-9.424038	-35.982964	54	50	71
23.478245	-9.441146	-36.565659	52	49	69
25.602835	-9.505006	-38.734726	50	50	69
31.424496	-9.663001	-44.074631	177	163	184
-25.755669	-9.759977	-42.204338	51	50	68
-25.541492	-9.753989	-41.985382	51	48	71
-25.327631	-9.747944	-41.764465	51	48	70
-25.114065	-9.741853	-41.541946	49	49	71
-24.900583	-9.735839	-41.322121	50	50	69
-24.686815	-9.730105	-41.112087	50	47	74
-24.472437	-9.724827	-40.917892	50	49	70
-24.257481	-9.719970	-40.738415	50	49	68
-24.042402	-9.715277	-40.564640	49	48	70
-23.827961	-9.710332	-40.382095	50	46	69
-23.614813	-9.704791	-40.178806	49	47	70
-23.403170	-9.698557	-39.951382	49	48	70
-23.192659	-9.691844	-39.707310	50	48	68
-22.982540	-9.685053	-39.460495	49	47	65
-22.349112	-9.666976	-38.800125	50	49	69
-21.713037	-9.651170	-38.218937	52	51	72
-21.079592	-9.634922	-37.622429	50	48	71
-20.449331	-9.618001	-37.002586	51	49	72
-14.240613	-9.451238	-30.893791	55	54	76
-14.036529	-9.445764	-30.693237	51	53	76
-13.627394	-9.435394	-30.312351	54	54	80
-13.423022	-9.430242	-30.123003	54	51	78
-13.219927	-9.424686	-29.919691	56	51	76
-12.821895	-9.410827	-29.417402	56	56	79
-12.441349	-9.391035	-28.708809	55	54	78
-9.236115	-9.301718	-25.442497	92	89	127
-8.584802	-9.303024	-25.458174	86	90	121
-7.933158	-9.304425	-25.477150	88	87	121
-5.542408	-9.309877	-25.557611	92	86	113
-4.897506	-9.309230	-25.505363	88	83	117
-2.507678	-9.314301	-25.572557	90	84	120
-1.856862	-9.315395	-25.580875	92	83	120
0.526798	-9.318689	-25.586332	90	85	116
4.222284	-9.326692	-25.695875	93	87	122
4.880028	-9.329420	-25.760918	98	91	136
7.273349	-9.334833	-25.839943	101	96	130
7.928748	-9.336895	-25.881788	110	96	127
10.312778	-9.340074	-25.883194	103	96	134
13.367608	-9.348464	-26.035763	99	90	127
14.023150	-9.350409	-26.073517	99	94	132
24.284727	-9.689781	-37.452690	53	51	71
24.552351	-9.698283	-37.737278	53	50	70
24.818308	-9.706434	-38.009708	52	48	70
25.082546	-9.714231	-38.269791	52	50	70
25.345240	-9.721704	-38.518700	50	51	70
25.871176	-9.736622	-39.015457	50	49	67
26.137762	-9.744660	-39.283909	49	48	68
26.406935	-9.753111	-39.566631	51	50	67
26.677168	-9.761702	-39.854172	49	48	69
-26.616060	-10.008662	-43.052212	85	78	83
-25.970516	-9.991051	-42.418423	54	52	67
-17.321676	-9.756096	-33.961674	54	51	75
-17.115389	-9.750192	-33.749660	53	52	79
-16.909275	-9.744301	-33.538139	53	54	74
-16.703434	-9.738383	-33.325684	55	52	75
-16.497723	-9.732499	-33.114380	54	52	77
-16.292051	-9.726684	-32.905437	54	51	77
-16.086439	-9.720928	-32.698559	53	55	74
-15.881140	-9.715128	-32.490150	53	53	74
-15.676223	-9.709255	-32.279293	54	52	79
-15.471517	-9.703381	-32.068375	54	54	78
-15.266603	-9.697672	-31.863138	54	53	77
-15.061233	-9.692225	-31.666849	54	53	75
-14.855502	-9.686996	-31.478035	54	55	77
-14.649836	-9.681813	-31.290836	56	55	77
-13.220379	-9.643641	-29.915836	57	54	75
-10.745331	-9.519173	-25.530745	96	89	128
-10.096818	-9.519491	-25.512455	92	90	121
-9.236675	-9.518439	-25.437572	96	90	132
-8.584534	-9.520023	-25.462580	89	88	122
-7.714300	-9.522335	-25.502731	87	86	117
-7.062635	-9.523723	-25.521017	93	85	121
-6.412012	-9.524776	-25.527824	83	81	116
-5.543250	-9.526561	-25.549992	90	86	117
-4.896719	-9.526377	-25.514530	90	85	120
-4.032639	-9.526786	-25.489614	90	88	119
-3.377729	-9.529100	-25.539583	88	85	123
-2.506208	-9.531648	-25.587776	90	84	119
-1.855969	-9.532576	-25.590319	90	85	117
-0.986322	-9.534548	-25.618847	90	86	118
-0.338925	-9.534698	-25.594845	98	87	115
0.527748	-9.535862	-25.595736	92	87	120
1.185335	-9.538734	-25.664732	88	84	119
2.055589	-9.540801	-25.696455	85	80	119
2.709404	-9.542622	-25.729498	92	85	120
3.575307	-9.543548	-25.722282	96	86	117
4.224285	-9.544140	-25.713367	98	88	121
4.880805	-9.546591	-25.767921	92	88	129
5.752829	-9.549000	-25.811337	100	92	132
6.406538	-9.550711	-25.840620	99	94	138
7.274142	-9.552027	-25.846684	103	94	131
7.930703	-9.554372	-25.897631	116	109	125
8.806205	-9.557472	-25.964607	101	94	131
9.454744	-9.557936	-25.951321	100	95	126
10.316897	-9.558002	-25.914745	101	95	133
10.972781	-9.560117	-25.957766	99	95	128
11.841899	-9.561728	-25.973930	98	93	124
12.499537	-9.564177	-26.028353	99	94	129
13.368576	-9.565741	-26.042894	99	90	128
14.023982	-9.567669	-26.079571	99	93	132
14.888638	-9.568307	-26.062510	101	92	130
17.177738	-9.682195	-29.869577	56	53	74
17.465094	-9.696260	-30.339561	55	50	73
17.733965	-9.706544	-30.680521	54	53	77
17.993803	-9.714963	-30.957882	55	50	70
18.250292	-9.722665	-31.210772	55	52	76
18.506231	-9.730210	-31.458290	56	53	74
18.763161	-9.737904	-31.710859	54	52	77
19.022362	-9.745996	-31.977013	56	52	73
19.283680	-9.754453	-32.255596	51	52	75
19.546368	-9.763124	-32.541496	54	52	74
31.412455	-10.112552	-44.004021	184	167	218
-26.616489	-10.234073	-43.047844	89	76	84
-24.471973	-10.174313	-40.935135	50	49	68
-23.830465	-10.157613	-40.342880	48	47	68
-23.194700	-10.138740	-39.677483	49	50	66
-21.714079	-10.097155	-38.207806	52	51	72
-21.083000	-10.079142	-37.571678	53	50	72
-20.452339	-10.061838	-36.959515	51	51	71
-20.242161	-10.056244	-36.761311	51	52	73
-18.359556	-10.005784	-34.974197	52	51	72
-17.735563	-9.988949	-34.378128	52	53	76
-11.542654	-9.760059	-26.375429	60	59	82
-11.355815	-9.749490	-26.010239	74	71	113
-11.160433	-9.742091	-25.751766	86	84	127
-10.955527	-9.738157	-25.609875	95	88	123
-10.743205	-9.736885	-25.557549	92	87	121
-10.527343	-9.736872	-25.547556	93	87	124
-10.311311	-9.736921	-25.539698	93	89	126
-10.096430	-9.736576	-25.518528	93	90	122
-9.882435	-9.735933	-25.487360	91	90	126
-9.668420	-9.735308	-25.456791	93	90	127
-9.453487	-9.735005	-25.437086	95	89	130
-9.237168	-9.735180	-25.433418	94	87	128
-9.019726	-9.735735	-25.442537	92	90	125
-8.801956	-9.736397	-25.455269	91	87	121
-8.584416	-9.736979	-25.465298	89	86	120
-8.367088	-9.737488	-25.472878	89	87	122
-8.149641	-9.738033	-25.481716	89	88	123
-7.931993	-9.738644	-25.492683	90	86	118
-7.714362	-9.739244	-25.503376	86	86	115
-7.497025	-9.739748	-25.510759	88	86	115
-7.280149	-9.740101	-25.513084	91	83	121
-7.063585	-9.740353	-25.512035	92	82	121
-6.847015	-9.740608	-25.511078	94	84	116
-6.630076	-9.740981	-25.514091	91	84	114
-6.412852	-9.741444	-25.520123	86	83	116
-6.195580	-9.741920	-25.526608	86	83	113
-5.978488	-9.742339	-25.531162	88	85	116
-5.761526	-9.742717	-25.534325	88	86	121
-5.544764	-9.743032	-25.535383	88	85	124
-5.328292	-9.743258	-25.533449	90	87	124
-5.112122	-9.743393	-25.528446	90	87	122
-4.896132	-9.743474	-25.521660	89	87	121
-4.680315	-9.743506	-25.513197	91	86	121
-4.464524	-9.743533	-25.504560	90	86	118
-4.248261	-9.743705	-25.500797	89	86	117
-4.030924	-9.744199	-25.507885	87	87	117
-3.812648	-9.744971	-25.524319	87	87	117
-3.594193	-9.745792	-25.542381	89	84	122
-3.376143	-9.746489	-25.556284	89	84	122
-3.158332	-9.747112	-25.567709	88	83	119
-2.940387	-9.747772	-25.580353	87	82	116
-2.722388	-9.748445	-25.593426	89	82	116
-2.504717	-9.749019	-25.603201	89	82	116
-2.287656	-9.749415	-25.607002	89	82	117
-2.071110	-9.749664	-25.605822	87	84	118
-1.854773	-9.749853	-25.602663	85	85	114
-1.638123	-9.750134	-25.602547	89	84	114
-1.420874	-9.750583	-25.608126	91	85	118
-1.203264	-9.751133	-25.617075	88	85	119
-0.986072	-9.751564	-25.622032	87	85	116
-0.769792	-9.751740	-25.618423	90	86	114
-0.554378	-9.751678	-25.606785	94	86	112
-0.339323	-9.751519	-25.591946	95	85	112
-0.124022	-9.751433	-25.579517	96	86	117
0.092321	-9.751636	-25.576807	94	87	119
0.310267	-9.752276	-25.588802	92	87	115
0.529599	-9.753290	-25.613344	92	88	120
0.968186	-9.755279	-25.661116	92	86	116
1.186244	-9.755934	-25.673601	93	86	117
1.403731	-9.756434	-25.680882	89	84	119
1.620842	-9.756833	-25.684765	87	84	123
1.838024	-9.757251	-25.689253	84	83	121
2.055734	-9.757806	-25.698389	84	80	120
2.274311	-9.758587	-25.715080	86	84	113
2.493157	-9.759434	-25.734016	86	83	114
2.711640	-9.760181	-25.749626	91	84	117
2.929260	-9.760704	-25.757629	89	83	114
3.146230	-9.761056	-25.759945	91	84	116
3.362422	-9.761209	-25.755556	89	84	118
3.578093	-9.761230	-25.746752	94	86	120
3.793453	-9.761175	-25.735376	97	85	118
4.009439	-9.761283	-25.729445	99	86	120
4.226374	-9.761630	-25.731602	100	87	121
4.444556	-9.762292	-25.744286	92	84	120
4.663349	-9.763103	-25.762020	95	86	126
4.882524	-9.764006	-25.782818	93	86	125
5.101367	-9.764821	-25.800682	101	91	131
5.319935	-9.765565	-25.816143	97	93	132
7.274044	-9.769015	-25.846287	105	95	132
13.369135	-9.782938	-26.047071	98	91	126
30.196953	-10.321285	-43.482117	59	58	65
30.469658	-10.329918	-43.761585	70	71	78
30.966751	-10.338620	-44.033443	140	145	207
31.189371	-10.338429	-44.017174	154	158	201
31.401754	-10.336467	-43.941532	169	162	210
-24.472588	-10.398577	-40.927353	49	50	67
-23.832512	-10.380777	-40.308323	47	49	68
-23.619774	-10.374722	-40.097961	50	49	71
-23.407555	-10.368494	-39.881863	49	50	70
-22.984379	-10.355695	-39.438320	51	48	66
-22.772821	-10.349455	-39.221859	48	47	72
-22.348742	-10.337831	-38.817368	49	50	70
-22.136568	-10.332248	-38.622696	52	51	73
-21.924799	-10.326553	-38.424335	49	50	71
-21.713705	-10.320608	-38.217693	53	50	72
-21.503393	-10.314363	-38.001141	50	50	71
-21.293722	-10.307900	-37.777351	50	52	74
-21.084362	-10.301392	-37.552048	52	50	73
-20.874788	-10.295102	-37.334019	52	51	73
-20.454119	-10.283592	-36.933460	50	50	72
-13.830737	-10.099280	-30.523598	55	55	78
-13.220715	-10.081768	-29.915409	56	53	80
-12.820947	-10.067829	-29.435055	56	53	81
-4.895371	-9.960634	-25.530561	89	85	116
-2.503949	-9.966194	-25.611599	92	82	117
1.187284	-9.973180	-25.683657	94	87	117
3.579555	-9.978596	-25.759872	95	87	121
6.402427	-9.983729	-25.808031	97	95	139
6.617393	-9.983586	-25.793972	100	97	135
7.052696	-9.984619	-25.809418	104	96	134
7.273048	-9.985788	-25.838701	106	95	135
7.934582	-9.989371	-25.929058	105	98	130
8.372600	-9.991013	-25.964603	108	95	136
8.804923	-9.991296	-25.955263	106	96	134
9.019814	-9.991140	-25.940792	104	96	131
9.452767	-9.991582	-25.936668	98	93	130
9.671369	-9.992297	-25.950962	102	94	128
10.323994	-9.993696	-25.969156	100	95	128
10.759242	-9.994661	-25.982361	98	93	125
10.977428	-9.995271	-25.993141	97	92	126
11.623862	-9.995258	-25.964699	96	94	125
11.838902	-9.995161	-25.952145	97	93	126
12.055457	-9.995404	-25.950857	97	91	126
12.491773	-9.996606	-25.971834	98	90	130
13.148885	-9.998972	-26.021954	95	91	124
13.369151	-10.000023	-26.047325	96	91	127
13.807476	-10.001631	-26.081739	97	89	126
14.024455	-10.001957	-26.083183	97	90	129
14.456146	-10.002124	-26.069992	99	89	123
22.675253	-10.302252	-35.683830	53	50	71
22.938377	-10.310620	-35.950409	52	50	73
23.201885	-10.319013	-36.217777	52	51	73
23.466459	-10.327560	-36.490269	51	51	71
24.269123	-10.354610	-37.354050	50	50	71
-26.616449	-10.685474	-43.058315	82	75	83
-26.401279	-10.679146	-42.842300	62	57	68
-25.971907	-10.666279	-42.403423	52	50	70
-25.757172	-10.660078	-42.191601	52	49	69
-25.328247	-10.647727	-41.769608	53	51	70
-25.114164	-10.641509	-41.557247	52	49	67
-24.686718	-10.629018	-41.130760	50	47	69
-24.473345	-10.622751	-40.916828	47	49	65
-24.047159	-10.610258	-40.490318	50	48	70
-23.834154	-10.604143	-40.281372	48	49	70
-15.675477	-10.370487	-32.296459	54	53	76
-15.470874	-10.364252	-32.083969	55	56	78
-15.266404	-10.358050	-31.872519	56	53	81
-15.061615	-10.352067	-31.668234	55	53	80
-14.856343	-10.346366	-31.473158	54	53	80
-14.650719	-10.340890	-31.285393	56	55	75
-14.239846	-10.330009	-30.912224	55	54	78
-14.035251	-10.324340	-30.718204	55	54	82
-13.831337	-10.318474	-30.517778	54	54	78
-13.424522	-10.306574	-30.111504	54	54	79
-13.221651	-10.300531	-29.905338	57	56	81
-13.020203	-10.294011	-29.683638	55	57	82
-10.096906	-10.170321	-25.516071	93	90	130
-9.237630	-10.168840	-25.431091	98	89	128
-8.584288	-10.170866	-25.469545	94	90	121
-7.714175	-10.173178	-25.508083	88	88	124
-7.064436	-10.173941	-25.505398	92	87	118
-6.414217	-10.174868	-25.508059	90	86	120
-5.546032	-10.176500	-25.524488	85	83	119
-4.894072	-10.177975	-25.544979	89	82	117
-4.029942	-10.178330	-25.519836	87	84	119
-3.377344	-10.179991	-25.546373	88	85	120
-2.503960	-10.183147	-25.612423	92	82	117
-1.852956	-10.184283	-25.621851	86	85	121
-0.985261	-10.185701	-25.631329	91	86	121
-0.337144	-10.186007	-25.613743	90	86	115
1.187579	-10.190232	-25.687019	93	88	119
2.056813	-10.192042	-25.709232	93	88	121
2.711291	-10.194075	-25.747812	96	88	119
3.579966	-10.195699	-25.763966	95	88	122
4.228996	-10.196265	-25.754896	96	87	124
5.104899	-10.199737	-25.831114	98	92	124
5.758927	-10.201561	-25.862942	103	91	130
6.399001	-10.199874	-25.780584	98	97	128
7.272271	-10.202610	-25.832870	108	96	136
9.450152	-10.208011	-25.916803	94	94	134
10.324681	-10.210917	-25.974630	100	92	126
10.978844	-10.212667	-26.004002	100	94	133
11.839238	-10.212282	-25.954826	100	94	127
12.489321	-10.213104	-25.954050	96	91	128
13.369353	-10.217152	-26.048925	95	90	130
14.024186	-10.218996	-26.081375	97	91	130
14.891737	-10.220223	-26.084597	93	89	129
17.999197	-10.374468	-30.994514	52	51	73
25.609686	-10.622423	-38.776218	51	51	68
26.144413	-10.639877	-39.324043	51	50	69
-26.835014	-10.915471	-43.210541	120	112	96
-26.616404	-10.911204	-43.064129	78	72	77
-24.473864	-10.847062	-40.910934	49	50	66
-22.347782	-10.785500	-38.841454	52	49	71
-21.713902	-10.767042	-38.221119	50	50	67
-18.569660	-10.675822	-35.154915	52	50	76
-18.361162	-10.669971	-34.957985	51	50	73
-17.945654	-10.657847	-34.550533	52	52	76
-17.738901	-10.651459	-34.336376	54	53	76
-17.326920	-10.638277	-33.895046	57	55	77
-17.121048	-10.631779	-33.677383	56	53	78
-16.708221	-10.619554	-33.266819	54	55	77
-16.501238	-10.613829	-33.073959	56	53	75
-16.087385	-10.602576	-32.694641	53	53	76
-15.881178	-10.596759	-32.498867	57	55	78
-9.237453	-10.385817	-25.434566	96	87	123
-8.583856	-10.387945	-25.475792	92	87	122
-5.545014	-10.393765	-25.536232	83	83	118
-4.892264	-10.395494	-25.564615	87	82	117
-2.504212	-10.400030	-25.610905	90	84	119
-1.852431	-10.401401	-25.627773	88	85	123
0.535485	-10.405786	-25.669207	96	90	119
1.187043	-10.407056	-25.682898	95	87	120
3.579762	-10.412642	-25.762791	95	88	124
4.228495	-10.413123	-25.751188	96	87	124
7.272921	-10.419785	-25.838461	109	94	140
10.324542	-10.427951	-25.973831	101	92	128
10.979784	-10.429965	-26.011293	100	95	133
13.370776	-10.434559	-26.059338	95	92	129
14.024751	-10.436221	-26.085524	97	93	130
18.764870	-10.617561	-31.722282	55	50	72
19.283091	-10.634683	-32.251518	52	51	73
19.805458	-10.652453	-32.801491	55	53	73
25.604252	-10.844618	-38.742363	52	51	69
27.490881	-10.908648	-40.723782	50	48	70
27.758324	-10.917196	-40.987652	50	46	71
28.026642	-10.925861	-41.255260	47	46	68
28.296921	-10.934847	-41.533100	49	48	65
28.568386	-10.944006	-41.816444	49	48	70
28.838932	-10.952941	-42.092651	49	48	69
29.108105	-10.961571	-42.359081	50	48	68
29.378979	-10.970469	-42.634094	49	46	68
29.657866	-10.980806	-42.955013	51	50	67
-21.505838	-10.982534	-37.969448	49	49	71
-21.296995	-10.975304	-37.731853	49	51	71
-21.087856	-10.968353	-37.503117	51	49	71
-20.878132	-10.961831	-37.287918	50	52	73
-20.667620	-10.955832	-37.089275	53	51	71
-20.456387	-10.950309	-36.905659	49	52	76
-20.244911	-10.945003	-36.728901	48	51	74
-20.033897	-10.939549	-36.547523	53	52	75
-19.823812	-10.933716	-36.354122	54	52	75
-19.614658	-10.927509	-36.148956	54	52	75
-19.405972	-10.921170	-35.939617	55	53	74
-19.197285	-10.914933	-35.733498	52	53	74
-18.988291	-10.908947	-35.535294	52	54	75
-18.779140	-10.903131	-35.342495	53	52	72
-11.153287	-10.613138	-25.844088	88	83	127
-10.526030	-10.605278	-25.569393	95	91	129
-10.310993	-10.604934	-25.549690	95	93	128
-10.095812	-10.604651	-25.531910	93	91	128
-9.880919	-10.604269	-25.511015	93	90	128
-9.451798	-10.603289	-25.462366	92	87	127
-9.236528	-10.603068	-25.446568	92	86	124
-8.801508	-10.604244	-25.466015	93	91	124
-8.582455	-10.605376	-25.492893	95	89	122
-8.145469	-10.607221	-25.533421	91	89	120
-7.928041	-10.607762	-25.541649	89	89	121
-7.711163	-10.608109	-25.543766	89	90	123
-7.494716	-10.608308	-25.541189	86	87	120
-7.278634	-10.608382	-25.534687	86	87	120
-7.062688	-10.608413	-25.526808	87	85	115
-6.846685	-10.608465	-25.519642	85	85	112
-6.630513	-10.608579	-25.514381	86	83	111
-6.414171	-10.608751	-25.510984	87	83	113
-6.197444	-10.609056	-25.511719	85	82	113
-5.761880	-10.610362	-25.535286	84	82	114
-5.543337	-10.611262	-25.554846	83	82	115
-5.107124	-10.612760	-25.584412	87	82	117
-4.890190	-10.613122	-25.586987	88	81	115
-4.460219	-10.612590	-25.552534	85	84	114
-4.246566	-10.611907	-25.522137	86	86	117
-4.032337	-10.611417	-25.497841	89	85	118
-3.816656	-10.611395	-25.488319	94	84	118
-3.599422	-10.611867	-25.494366	99	86	120
-3.381020	-10.612704	-25.511938	96	84	120
-3.161828	-10.613784	-25.537155	90	83	117
-2.722871	-10.616098	-25.592501	89	84	121
-2.504063	-10.617038	-25.613289	90	86	122
-2.068682	-10.618217	-25.632805	89	86	128
-0.983959	-10.620012	-25.645241	94	87	119
-0.766773	-10.620442	-25.649971	95	87	122
-0.549785	-10.620813	-25.652821	96	87	123
-0.332627	-10.621234	-25.657244	95	86	125
-0.115120	-10.621756	-25.664865	94	88	123
0.319985	-10.622821	-25.680780	94	89	118
0.536625	-10.623087	-25.680332	96	89	123
0.969005	-10.623363	-25.671377	92	86	120
1.186483	-10.623871	-25.678566	94	87	120
1.623879	-10.625573	-25.714546	87	87	117
1.841757	-10.626186	-25.725054	89	88	115
2.058509	-10.626481	-25.725521	90	86	119
2.275010	-10.626707	-25.723797	93	90	120
2.492132	-10.627106	-25.727545	95	92	123
2.710342	-10.627806	-25.740767	96	91	122
2.928948	-10.628612	-25.757338	100	92	124
3.363641	-10.629522	-25.768393	95	87	120
3.579140	-10.629474	-25.758018	101	89	126
4.010162	-10.629393	-25.737785	93	86	125
4.227067	-10.629731	-25.739622	99	87	127
4.663784	-10.631183	-25.767731	102	89	127
4.883477	-10.632258	-25.792803	100	93	124
5.103781	-10.633490	-25.822783	96	91	127
5.324359	-10.634786	-25.854803	96	91	142
5.543396	-10.635671	-25.873838	100	92	149
5.759984	-10.635910	-25.872561	99	93	130
5.973628	-10.635385	-25.847170	96	95	134
6.185650	-10.634445	-25.808739	97	93	131
6.397680	-10.633519	-25.770699	103	96	129
6.611938	-10.633175	-25.751017	107	96	130
7.051570	-10.635339	-25.801563	109	95	122
7.275125	-10.637362	-25.856504	113	95	135
7.717875	-10.640271	-25.930513	103	99	139
7.935190	-10.640693	-25.934956	106	103	135
8.150857	-10.640701	-25.926382	111	96	132
8.366080	-10.640601	-25.914408	110	96	138
8.581579	-10.640574	-25.904692	114	97	136
8.797606	-10.640678	-25.899176	109	97	140
9.014220	-10.640930	-25.898277	107	97	141
9.231626	-10.641377	-25.903526	104	97	133
9.450093	-10.642083	-25.916933	101	98	135
10.107417	-10.644649	-25.971283	98	92	130
10.325207	-10.645179	-25.979143	100	94	129
10.762137	-10.646557	-26.004911	96	94	129
10.980612	-10.647244	-26.017744	99	95	130
11.411304	-10.647132	-25.996519	98	93	131
11.624248	-10.646512	-25.968180	99	91	128
11.837711	-10.646023	-25.943914	98	93	131
12.489570	-10.647254	-25.956213	99	93	132
12.710487	-10.648504	-25.986782	97	93	130
13.153441	-10.651244	-26.055416	95	93	128
13.373670	-10.652316	-26.080368	96	93	130
13.810000	-10.653507	-26.100210	96	96	132
14.026825	-10.653795	-26.100464	96	94	128
14.461015	-10.654495	-26.104836	93	92	123
14.678597	-10.654954	-26.110466	90	91	123
14.896476	-10.655478	-26.118155	89	90	122
15.117403	-10.656682	-26.147219	91	88	127
15.607539	-10.669764	-26.541544	86	87	123
20.852577	-10.908720	-33.896023	53	53	72
21.111341	-10.916935	-34.145649	53	52	72
21.370434	-10.925168	-34.395832	54	51	70
21.630989	-10.933653	-34.653950	53	52	71
21.893295	-10.942447	-34.921768	54	52	74
22.156620	-10.951397	-35.194492	54	52	74
22.419958	-10.960296	-35.465591	55	52	72
22.945677	-10.977741	-35.996655	53	51	73
30.243273	-11.232067	-43.753929	58	57	69
-27.497566	-11.376098	-43.529495	207	216	255
-26.617342	-11.361979	-43.053692	78	68	75
-25.971798	-11.342479	-42.419434	51	49	69
-24.474094	-11.296174	-40.914749	52	50	68
-23.408695	-11.264252	-39.876118	49	47	70
-23.196012	-11.257994	-39.672352	51	47	68
-22.135021	-11.227032	-38.663857	54	50	73
-21.715712	-11.212598	-38.196751	49	50	69
-14.037144	-10.982153	-30.699463	57	55	79
-13.833475	-10.975890	-30.495901	57	54	77
-13.629980	-10.969639	-30.292707	57	54	82
-13.426655	-10.963399	-30.089891	56	55	81
-13.223803	-10.957047	-29.883572	58	54	81
-13.022440	-10.950167	-29.660868	55	54	78
-12.824076	-10.942155	-29.402977	58	57	77
-12.630327	-10.932379	-29.090210	56	57	78
-12.442162	-10.920480	-28.711470	58	54	82
-12.259293	-10.906611	-28.271507	57	54	79
-10.737340	-10.824058	-25.635117	93	91	129
-10.092870	-10.822728	-25.567736	91	92	127
-9.233384	-10.821147	-25.483847	90	88	126
-8.578651	-10.823692	-25.536919	96	91	121
-7.708344	-10.826068	-25.576000	89	89	121
-7.060518	-10.826118	-25.551508	90	86	116
-6.412191	-10.826368	-25.533241	86	83	115
-5.540390	-10.829205	-25.586672	84	82	112
-4.887116	-10.831103	-25.619606	85	82	114
-4.030248	-10.829011	-25.519878	89	84	114
-3.379118	-10.830232	-25.531769	93	81	116
-2.502612	-10.834456	-25.628319	90	84	121
-1.850546	-10.835916	-25.647610	91	85	124
-0.983590	-10.837096	-25.649549	92	87	119
-0.331918	-10.838419	-25.664614	95	89	125
0.537606	-10.840354	-25.690010	95	88	123
1.187271	-10.841075	-25.686357	90	87	119
2.060480	-10.844036	-25.743601	92	85	115
2.711555	-10.845143	-25.751974	97	88	121
3.578630	-10.846334	-25.754219	103	89	125
4.225987	-10.846424	-25.731010	101	88	132
4.883003	-10.849141	-25.789341	98	91	128
5.760150	-10.852999	-25.874395	102	93	132
6.400135	-10.851153	-25.791103	113	98	134
7.277828	-10.855089	-25.878550	111	97	122
8.150303	-10.857618	-25.922367	110	97	140
8.799406	-10.858172	-25.913536	107	98	133
10.327269	-10.862756	-25.995054	95	92	126
10.981729	-10.864603	-26.026363	98	96	128
13.377432	-10.870298	-26.107672	95	92	132
14.030239	-10.871695	-26.124973	98	94	126
14.898423	-10.873038	-26.131964	92	92	124
15.902779	-10.904902	-27.085537	84	81	118
16.227650	-10.929222	-27.831089	72	71	97
16.566740	-10.956547	-28.669823	61	59	74
25.327803	-11.280059	-38.409046	53	52	74
-27.497641	-11.602000	-43.532974	218	209	254
-26.835884	-11.592224	-43.206444	105	91	118
-26.618822	-11.586659	-43.026901	75	66	74
-26.402414	-11.580766	-42.837261	60	55	69
-26.186682	-11.574538	-42.637413	53	51	69
-25.971375	-11.568157	-42.432835	51	50	69
-25.756594	-11.561557	-42.221573	51	51	70
-25.542316	-11.554762	-42.004318	51	51	70
-25.328440	-11.547844	-41.783318	50	51	70
-25.114731	-11.540957	-41.563286	49	49	65
-24.901079	-11.534173	-41.346397	51	49	68
-24.687485	-11.527489	-41.132561	50	49	69
-24.474072	-11.520822	-40.919304	50	49	67
-23.835068	-11.500835	-40.279968	49	50	71
-23.196156	-11.481919	-39.673519	52	48	68
-21.716354	-11.435509	-38.189095	49	51	69
-20.454266	-11.396696	-36.946716	52	52	74
-16.709509	-11.281381	-33.255665	53	53	79
-16.503288	-11.275017	-33.051994	56	53	77
-15.884154	-11.256685	-32.464287	55	56	78
-15.265313	-11.238995	-31.896318	57	55	77
-14.649434	-11.220741	-31.311136	58	55	76
-6.187912	-11.046227	-25.614874	90	84	114
1.191681	-11.059353	-25.726719	86	86	119
3.580481	-11.063854	-25.770668	100	87	119
7.280308	-11.072781	-25.898808	109	94	131
10.983603	-11.082158	-26.040670	98	96	133
13.381269	-11.088327	-26.135525	96	91	128
26.403389	-11.541435	-39.543175	49	49	70
26.676472	-11.551713	-39.848183	51	48	68
27.494129	-11.581881	-40.742786	50	49	68
27.765181	-11.591525	-41.028408	49	50	70
31.706474	-11.706302	-44.399323	182	184	249
-27.722857	-11.827985	-43.547501	231	243	255
-27.497795	-11.827849	-43.534664	221	215	250
-24.474092	-11.745449	-40.923031	51	47	67
-23.834953	-11.725226	-40.286057	49	48	71
-23.196426	-11.705770	-39.672340	49	47	68
-19.404829	-11.588204	-35.966415	52	52	76
-19.197367	-11.581019	-35.740856	54	53	74
-18.989275	-11.574271	-35.528522	54	51	75
-18.780470	-11.567995	-35.330425	52	53	74
-18.571337	-11.561982	-35.140312	55	51	74
-18.362587	-11.555872	-34.947231	52	50	73
-18.154619	-11.549464	-34.745220	52	52	79
-17.947542	-11.542715	-34.532883	52	54	74
-17.741066	-11.535772	-34.314690	53	51	76
-17.534939	-11.528763	-34.094505	54	54	76
-17.328880	-11.521825	-33.876507	53	53	74
-17.122799	-11.515001	-33.661953	53	53	76
-16.504007	-11.495385	-33.044144	54	54	75
-15.884913	-11.476749	-32.456001	56	57	79
-13.219309	-11.397216	-29.945038	56	56	79
-11.125992	-11.275401	-26.176371	90	83	132
-10.710075	-11.268836	-25.961517	92	90	131
-10.495793	-11.268086	-25.930502	89	89	130
-10.280334	-11.267805	-25.913639	90	89	129
-10.064882	-11.267529	-25.896915	91	87	126
-9.849867	-11.267092	-25.875341	92	86	130
-9.203638	-11.266278	-25.825649	92	86	128
-8.548584	-11.268803	-25.876638	94	86	130
-7.898554	-11.269442	-25.870762	87	86	124
-7.682898	-11.269286	-25.857693	87	85	123
-7.467367	-11.269091	-25.843422	90	84	121
-6.167497	-11.270375	-25.831865	87	81	116
-5.512928	-11.272634	-25.874828	82	79	115
-5.077231	-11.273885	-25.895796	81	80	114
-4.645464	-11.273794	-25.876324	85	81	115
-4.430288	-11.273517	-25.859581	86	81	118
-3.999970	-11.272969	-25.826290	83	80	115
-3.134595	-11.273492	-25.808554	85	81	118
-2.699752	-11.274463	-25.821083	85	82	115
-2.482295	-11.274958	-25.827627	85	79	116
-2.047793	-11.275812	-25.836617	90	81	117
-1.831432	-11.275954	-25.832542	89	83	122
-1.400153	-11.275791	-25.810860	86	83	116
-0.968390	-11.275793	-25.794186	85	84	119
-0.751952	-11.275972	-25.791197	85	84	121
-0.534838	-11.276361	-25.794556	87	84	126
-0.316977	-11.276980	-25.804831	90	86	123
-0.098861	-11.277674	-25.817375	89	86	122
0.335875	-11.278599	-25.828493	89	85	122
0.552424	-11.278811	-25.826538	92	85	120
0.986273	-11.279466	-25.829504	86	88	116
1.204313	-11.280126	-25.841024	86	85	118
1.859180	-11.282309	-25.881702	90	84	116
2.076178	-11.282651	-25.883654	92	85	124
2.292821	-11.282889	-25.882469	92	83	118
2.726578	-11.283505	-25.884291	90	84	115
2.943578	-11.283849	-25.886271	90	81	118
3.375307	-11.283886	-25.870649	93	87	112
3.589953	-11.283562	-25.852507	95	85	114
4.020343	-11.283239	-25.826054	98	84	120
4.237391	-11.283606	-25.828712	87	85	122
4.674570	-11.285197	-25.859922	91	88	115
5.112229	-11.286906	-25.894678	94	91	128
5.331079	-11.287760	-25.912041	95	91	128
5.549396	-11.288464	-25.924862	102	96	124
5.766479	-11.288827	-25.927435	107	95	133
5.981731	-11.288692	-25.914989	107	91	133
6.410725	-11.288024	-25.878134	110	97	130
6.627062	-11.288193	-25.874865	127	122	197
7.064945	-11.289926	-25.910316	105	96	150
7.285146	-11.291121	-25.937948	111	94	136
8.156602	-11.293386	-25.972744	111	100	155
8.808751	-11.294695	-25.987041	101	94	130
9.681609	-11.297276	-26.031324	97	89	124
10.336164	-11.299166	-26.063131	92	88	127
11.202273	-11.300008	-26.055017	98	92	127
12.498150	-11.300498	-26.019571	100	128	186
13.386332	-11.306679	-26.172213	97	91	129
14.254725	-11.308045	-26.179907	94	88	123
14.903848	-11.308562	-26.170361	94	87	126
19.289564	-11.516498	-32.294636	54	53	72
19.550875	-11.525969	-32.571182	53	50	74
19.812052	-11.535351	-32.845058	52	52	72
20.335596	-11.554203	-33.395428	55	54	76
20.597660	-11.563606	-33.669899	55	52	74
20.859030	-11.572801	-33.938084	54	52	73
21.380358	-11.590716	-34.460178	54	50	74
28.568794	-11.842990	-41.817860	51	48	69
31.709869	-11.932933	-44.418671	200	210	229
-25.971006	-12.019223	-42.449654	51	49	70
-24.474184	-11.970037	-40.925407	52	47	66
-23.834787	-11.949658	-40.293148	47	47	70
-23.196642	-11.929657	-39.672192	48	49	68
-22.136759	-11.896541	-38.643948	52	50	74
-21.926575	-11.889225	-38.417709	52	50	73
-21.716990	-11.881691	-38.184967	54	50	72
-21.507334	-11.874328	-37.957352	50	50	72
-21.086336	-11.860934	-37.541763	51	52	72
-20.875200	-11.854766	-37.349712	53	51	71
-20.663891	-11.848799	-37.163670	53	50	72
-20.452536	-11.842957	-36.981369	51	50	74
-20.241215	-11.837196	-36.801456	52	50	74
-19.820456	-11.824944	-36.419941	50	52	73
-19.611748	-11.818075	-36.207100	52	53	73
-17.124020	-11.735420	-33.646709	54	54	76
-16.504578	-11.715820	-33.038448	53	54	74
-15.885543	-11.696869	-32.449539	56	56	77
-12.618107	-11.593767	-29.249516	59	55	83
-12.426344	-11.582790	-28.914747	60	54	81
-12.237945	-11.570543	-28.542244	57	54	80
-11.864852	-11.544971	-27.765192	48	48	71
-10.459106	-11.499808	-26.364445	85	84	124
-9.812617	-11.498755	-26.308420	87	82	125
-9.165298	-11.498090	-26.263885	86	85	122
-6.781692	-11.499745	-26.222424	88	80	114
-3.744933	-11.503203	-26.209826	81	78	111
-3.098918	-11.502400	-26.161247	83	79	115
-2.449727	-11.502687	-26.145063	87	78	118
-1.584097	-11.503115	-26.124809	85	80	120
-0.937172	-11.502729	-26.088657	82	84	115
-0.066961	-11.504650	-26.112801	84	84	119
0.581463	-11.504779	-26.091921	88	81	113
1.450240	-11.506255	-26.102858	85	84	124
2.101313	-11.507208	-26.106459	91	81	118
2.968573	-11.508235	-26.104048	85	83	115
3.615156	-11.507897	-26.069307	84	83	115
4.262357	-11.507768	-26.040796	87	83	125
5.132373	-11.509626	-26.063082	88	88	129
5.784050	-11.510778	-26.072601	97	92	131
6.644781	-11.510077	-26.018894	106	93	131
7.300372	-11.512303	-26.060299	107	94	127
7.519554	-11.513214	-26.079111	103	92	121
