34.240639	5.454032	-43.460438	66	64	85
34.778503	5.455424	-43.949821	62	60	86
35.039040	5.455911	-44.145889	60	57	83
35.530472	5.456166	-44.370983	54	55	76
-23.213268	5.318161	-43.201855	123	109	110
-22.989834	5.317666	-43.166790	115	103	116
-22.551153	5.316093	-42.951359	100	96	122
-22.121347	5.313923	-42.586620	96	93	115
-21.907795	5.312762	-42.385338	92	91	115
-21.481663	5.310417	-41.976212	92	89	114
-21.268564	5.309267	-41.777359	92	88	113
-20.842287	5.307014	-41.390884	92	90	115
-20.629717	5.305869	-41.192940	94	88	116
-20.206717	5.303477	-40.771530	90	90	114
-19.996002	5.302251	-40.553093	89	89	114
-19.574636	5.299838	-40.125523	91	87	118
-19.363482	5.298681	-39.924286	92	88	117
-18.940680	5.296437	-39.538742	90	88	115
-18.729908	5.295294	-39.340633	90	87	112
-18.310587	5.292910	-38.919365	88	88	117
-18.101635	5.291693	-38.702690	87	88	117
-17.684477	5.289256	-38.267738	89	85	113
-17.268702	5.286789	-37.825020	89	86	112
-17.061226	5.285551	-37.602406	89	88	114
-16.645998	5.283130	-37.170670	92	88	114
-16.437872	5.281967	-36.966698	94	88	116
-16.021011	5.279711	-36.575874	92	86	118
-15.812706	5.278592	-36.382767	94	89	119
-15.186169	5.275389	-35.841434	87	88	112
-14.549367	5.272825	-35.460098	78	77	103
-14.117557	5.271535	-35.311111	81	76	104
-13.899307	5.271019	-35.269085	83	80	109
-13.015611	5.269526	-35.244465	86	83	108
-12.794591	5.269158	-35.239780	84	83	114
-11.909001	5.267766	-35.240723	77	76	103
-11.463656	5.267196	-35.272785	73	74	100
-10.579983	5.265711	-35.250301	76	75	101
-10.357911	5.265396	-35.258732	73	76	102
-9.464232	5.264381	-35.354809	80	76	106
-9.019681	5.263762	-35.374847	77	75	104
5.638146	5.242318	-35.779110	74	73	106
6.303713	5.241305	-35.787991	75	74	100
8.740376	5.237473	-35.789932	73	74	95
9.187817	5.236913	-35.825371	75	75	102
9.853697	5.235909	-35.836277	74	73	100
10.516448	5.234809	-35.822842	77	76	98
11.191081	5.234065	-35.900742	75	74	100
11.636257	5.233430	-35.916996	73	73	97
12.295171	5.232218	-35.874557	78	75	98
12.960238	5.231187	-35.878876	78	76	95
13.625039	5.230150	-35.881252	81	76	99
14.071896	5.229561	-35.909554	77	72	98
14.742517	5.228685	-35.953777	78	76	101
15.401478	5.227484	-35.913872	79	79	101
16.069618	5.226537	-35.939819	76	77	98
16.515982	5.225930	-35.963444	74	77	101
17.183960	5.224976	-35.987503	78	75	98
-15.398469	5.054375	-35.973858	89	90	118
-8.372456	5.040478	-35.182461	80	77	104
-7.927292	5.039880	-35.210903	79	77	105
-7.046519	5.038315	-35.160866	80	81	107
-6.603261	5.037645	-35.168087	83	82	109
-5.714161	5.036397	-35.209854	83	77	110
-5.271559	5.035701	-35.209625	81	80	107
-4.603204	5.034817	-35.255741	77	76	101
-4.157864	5.034216	-35.283443	76	78	102
-3.271510	5.032860	-35.293713	75	78	105
-2.830379	5.032111	-35.278336	77	77	105
-2.160629	5.031264	-35.335339	77	76	106
-1.713342	5.030722	-35.380196	75	77	105
-0.835677	5.029074	-35.305607	79	77	105
-0.394524	5.028329	-35.291477	75	76	104
0.277068	5.027532	-35.363209	77	77	104
2.714513	5.023790	-35.388016	76	75	102
3.157327	5.023098	-35.389309	78	76	100
17.820139	5.001501	-35.792374	74	73	99
18.484879	5.000468	-35.795773	79	77	103
18.927662	4.999772	-35.795509	79	72	102
19.590403	4.998694	-35.785591	81	76	102
20.268858	4.997969	-35.880264	75	80	100
20.934967	4.996964	-35.892075	80	75	102
21.381161	4.996341	-35.913734	82	78	104
22.053061	4.995461	-35.962662	78	77	101
22.715351	4.994371	-35.949184	77	74	104
23.373287	4.993190	-35.908417	78	77	99
23.819252	4.992559	-35.928036	78	76	101
24.492334	4.991699	-35.982937	79	76	100
25.150980	4.990536	-35.947506	80	76	103
-22.773232	4.865988	-43.015938	139	123	120
-22.554327	4.865288	-42.901672	114	108	122
-21.482601	4.860695	-41.966927	89	89	115
-21.269726	4.859730	-41.764305	90	89	116
-20.418421	4.855963	-40.983547	90	86	118
-20.207275	4.854962	-40.768669	92	87	120
-19.996725	4.853943	-40.547543	92	90	118
-18.731394	4.848144	-39.323277	90	90	114
-17.686245	4.843151	-38.246635	84	87	110
-16.645784	4.838192	-37.178726	89	91	118
-16.437931	4.837218	-36.970764	92	90	114
-15.607371	4.833375	-36.155529	95	91	115
-15.399875	4.832430	-35.956688	93	93	120
-15.191892	4.831514	-35.767216	90	89	117
-13.923180	4.827002	-34.957535	81	80	105
-13.048234	4.825225	-34.827805	82	83	109
-12.608165	4.824444	-34.798550	82	82	108
-11.721947	4.823115	-34.817966	79	77	108
-11.499727	4.822807	-34.830933	79	77	103
-10.615208	4.821414	-34.828941	76	76	101
-10.170198	4.820815	-34.860878	77	74	101
-9.058805	4.819272	-34.924816	78	75	102
-8.167814	4.818093	-34.995022	80	78	105
-7.725903	4.817381	-34.988937	81	78	106
-6.847979	4.815767	-34.912720	86	83	107
-6.625796	4.815453	-34.923676	84	81	107
-5.736253	4.814219	-34.975227	83	75	106
-5.293134	4.813548	-34.982853	82	79	105
-4.178652	4.812073	-35.070415	76	77	103
-3.292258	4.810729	-35.085243	77	75	102
-2.852026	4.809969	-35.062885	77	79	104
-1.959630	4.808799	-35.136711	77	76	101
-1.736701	4.808501	-35.153118	77	76	99
-0.857997	4.806935	-35.092686	76	77	103
-0.416224	4.806222	-35.086380	74	76	101
0.702380	4.804831	-35.202881	76	75	102
1.588098	4.803462	-35.209110	78	73	102
2.029168	4.802730	-35.196083	78	76	104
2.910574	4.801249	-35.164371	75	74	100
3.132431	4.800918	-35.169949	76	75	101
4.026375	4.799761	-35.248577	74	75	99
4.470511	4.799109	-35.262558	76	74	100
5.580025	4.797453	-35.289776	79	75	97
6.470718	4.796202	-35.336601	74	75	99
6.918730	4.795640	-35.381477	75	73	102
7.801335	4.794190	-35.360527	79	74	99
8.021195	4.793810	-35.349045	75	77	96
8.908691	4.792478	-35.368145	77	69	96
9.578383	4.791571	-35.414200	77	75	98
10.462603	4.790162	-35.406830	75	74	101
11.350730	4.788840	-35.429676	75	74	98
11.793340	4.788146	-35.429920	78	73	98
12.684882	4.786898	-35.477707	76	73	102
12.907235	4.786573	-35.485508	77	73	102
13.785439	4.785036	-35.434219	75	72	96
14.231286	4.784412	-35.458233	75	76	102
15.343229	4.782792	-35.497929	77	75	98
16.234539	4.781529	-35.541283	78	75	98
16.679789	4.780889	-35.559750	77	74	97
17.568542	4.779571	-35.584034	77	74	97
17.789211	4.779211	-35.579582	74	73	97
18.670731	4.777750	-35.554306	76	77	101
19.111347	4.777017	-35.541023	79	74	98
20.234674	4.775606	-35.653358	77	77	101
21.123055	4.774275	-35.673477	80	73	99
21.573027	4.773718	-35.721054	80	76	103
22.464928	4.772449	-35.762844	77	77	101
22.683733	4.772055	-35.746441	78	76	101
23.557621	4.770458	-35.673466	78	75	101
24.008753	4.769917	-35.726982	79	75	101
25.118696	4.768239	-35.747276	79	75	100
26.026003	4.767236	-35.881756	76	75	100
26.259644	4.767102	-35.956486	75	72	95
26.496893	4.767030	-36.052753	71	68	92
28.038528	4.768577	-37.325195	65	62	92
28.564688	4.769271	-37.812599	68	62	87
29.097210	4.770054	-38.332047	61	62	84
30.968578	4.772778	-40.147949	62	61	86
31.512785	4.773672	-40.708672	64	63	86
32.871609	4.775795	-42.073883	69	69	91
33.424210	4.776756	-42.660774	66	65	88
33.971783	4.777618	-43.213017	66	62	87
34.993187	4.778125	-43.889790	55	54	78
-22.122341	4.638461	-42.579834	98	96	116
-21.908430	4.637614	-42.384842	93	91	114
-19.575809	4.628004	-40.115845	90	90	117
-19.364368	4.627156	-39.919144	91	91	114
-18.942421	4.625448	-39.520214	89	89	112
-18.106445	4.621822	-38.637878	90	86	113
-17.897364	4.620940	-38.426804	88	86	113
-17.269224	4.618377	-37.825127	88	88	112
-17.060999	4.617495	-37.613430	89	90	113
-14.567547	4.607309	-35.221432	87	85	109
-13.717415	4.604757	-34.756039	82	77	108
-13.282510	4.603824	-34.659973	81	81	111
-12.623735	4.602642	-34.602219	82	81	108
-12.182649	4.601917	-34.588943	81	83	115
-11.518352	4.600914	-34.602737	80	78	109
-10.855378	4.599871	-34.600163	77	75	101
-10.188668	4.598938	-34.642406	75	73	102
-9.743048	4.598349	-34.683372	74	74	98
-9.077262	4.597384	-34.712597	78	75	103
-8.408212	4.596510	-34.778202	75	77	101
-7.746309	4.595432	-34.761761	83	78	107
-7.309598	4.594588	-34.700691	80	81	110
-6.647050	4.593532	-34.693241	85	80	109
-5.979186	4.592619	-34.743252	82	77	108
-5.314155	4.591628	-34.761936	83	78	107
-4.867269	4.591058	-34.811111	79	78	103
0.008450	4.583718	-34.920296	77	76	105
4.888417	4.576433	-35.052845	75	72	100
9.328685	4.569849	-35.190575	75	74	101
9.992318	4.568812	-35.191128	76	76	101
10.437839	4.568179	-35.215523	74	75	99
11.321227	4.566770	-35.205055	76	73	103
11.765232	4.566108	-35.217503	77	71	97
12.436355	4.565207	-35.274204	78	75	102
12.881838	4.564570	-35.297031	76	77	102
13.755887	4.562995	-35.217972	78	74	103
14.199685	4.562329	-35.228607	78	77	102
15.092337	4.561083	-35.285828	75	76	99
15.314675	4.560757	-35.294029	78	77	102
16.206501	4.559493	-35.343796	81	76	99
16.651342	4.558841	-35.360741	77	76	99
17.317867	4.557851	-35.380707	81	75	100
17.758644	4.557131	-35.369267	78	72	101
18.636021	4.555626	-35.318619	77	76	99
19.077595	4.554921	-35.313332	78	77	99
19.975855	4.553754	-35.403713	80	75	102
24.422543	4.547173	-35.546223	78	76	103
26.981125	4.545156	-36.302265	67	67	88
27.503870	4.545596	-36.780746	66	64	86
29.637682	4.547805	-38.892010	65	60	84
29.904417	4.548064	-39.149239	62	60	84
31.784550	4.549945	-40.984409	65	65	88
32.324852	4.550490	-41.513538	68	66	89
34.237587	4.552564	-43.441780	66	62	86
-20.844995	4.408706	-41.358574	91	87	112
-18.525679	4.400161	-39.056000	88	88	114
-16.022879	4.390915	-36.559044	94	91	120
-14.778836	4.386411	-35.360790	91	87	119
-4.664557	4.369045	-34.620781	78	77	101
-4.220127	4.368404	-34.645409	79	76	104
-3.554745	4.367416	-34.668755	80	76	99
-2.893513	4.366344	-34.650066	77	78	104
-2.229465	4.365329	-34.659824	79	79	103
-1.784299	4.364700	-34.690350	77	76	103
-1.122211	4.363646	-34.680695	78	75	102
-0.459725	4.362601	-34.675240	77	77	105
0.208839	4.361668	-34.726963	80	76	102
0.654901	4.361052	-34.764023	79	75	102
1.983660	4.359026	-34.786514	78	76	99
2.643069	4.357926	-34.753208	77	76	99
3.085495	4.357243	-34.756493	75	75	103
19.718708	4.332160	-35.163651	77	75	101
20.168928	4.331571	-35.216927	76	75	103
21.059196	4.330263	-35.254929	77	77	98
21.508535	4.329660	-35.301014	78	76	97
22.399624	4.328359	-35.342793	76	74	97
22.617760	4.327977	-35.323391	78	74	99
23.488821	4.326435	-35.237698	76	76	100
23.938822	4.325838	-35.286732	78	77	101
24.834410	4.324588	-35.355721	78	76	100
25.059252	4.324286	-35.378590	78	75	100
-22.994255	4.190383	-43.104877	249	241	221
-22.553680	4.189400	-42.924397	140	123	126
-22.121452	4.188196	-42.602734	104	98	117
-21.907650	4.187538	-42.405567	96	91	113
-21.482359	4.186175	-41.981411	91	92	115
-21.270144	4.185492	-41.767353	96	87	113
-20.845434	4.184149	-41.354477	92	87	112
-20.633209	4.183483	-41.150990	90	87	114
-20.210274	4.182128	-40.728977	91	88	115
-19.999411	4.181444	-40.513206	90	90	116
-19.577560	4.180095	-40.093853	90	90	114
-19.366539	4.179431	-39.890610	91	87	114
-18.945650	4.178091	-39.475483	88	90	111
-18.736273	4.177402	-39.256107	87	86	115
-18.527555	4.176704	-39.029896	86	86	114
-18.110039	4.175326	-38.588806	88	87	115
-17.900219	4.174670	-38.389164	89	87	110
-17.689762	4.174034	-38.202026	88	87	111
-17.269936	4.172749	-37.819824	90	85	113
-17.061548	4.172080	-37.610519	87	88	108
-16.646349	4.170719	-37.178059	90	87	114
-16.438679	4.170048	-36.967422	91	89	118
-16.023262	4.168723	-36.556038	94	92	116
-15.815904	4.168059	-36.349674	92	90	114
-15.401870	4.166732	-35.935940	97	91	121
-15.194923	4.166074	-35.732311	96	92	116
-14.780895	4.164773	-35.335030	92	91	117
-14.573517	4.164137	-35.145275	91	89	118
-13.946095	4.162361	-34.660721	88	83	103
-13.307498	4.160837	-34.339767	81	77	107
-12.652648	4.159650	-34.237915	82	83	109
-11.992572	4.158568	-34.205322	83	83	109
-11.553235	4.157835	-34.175537	84	79	107
-10.671202	4.156435	-34.158829	76	76	103
-10.226351	4.155805	-34.196587	77	74	101
-9.557923	4.154878	-34.265247	77	75	106
-9.114299	4.154223	-34.286728	77	78	102
-8.445586	4.153296	-34.355511	77	76	101
-7.786978	4.152194	-34.309017	83	79	103
-7.131436	4.151043	-34.230404	82	79	104
-6.687646	4.150390	-34.253208	81	80	108
-6.019757	4.149445	-34.310329	82	78	108
-5.355303	4.148443	-34.329544	79	78	103
-4.686077	4.147514	-34.397995	80	77	104
-4.240921	4.146878	-34.432320	80	80	102
-3.575724	4.145883	-34.456928	80	80	105
-2.914613	4.144826	-34.440098	79	78	104
-2.252563	4.143784	-34.433155	78	77	104
-1.807929	4.143137	-34.460625	76	76	104
-1.144263	4.142119	-34.469360	78	77	102
-0.481573	4.141086	-34.468735	79	78	105
0.185607	4.140116	-34.510311	78	77	102
0.631146	4.139479	-34.544456	80	78	103
1.300234	4.138533	-34.601784	80	74	107
1.962198	4.137488	-34.593399	79	74	102
2.620505	4.136396	-34.552757	78	75	104
3.062894	4.135715	-34.557419	78	75	103
3.730222	4.134742	-34.597031	78	76	100
4.395339	4.133739	-34.616737	77	76	101
5.060600	4.132738	-34.637314	75	76	103
5.504179	4.132071	-34.651417	78	77	102
6.168504	4.131057	-34.663567	77	77	107
6.833863	4.130055	-34.684055	81	75	107
7.501966	4.129085	-34.726509	75	75	106
7.946101	4.128423	-34.744095	75	72	102
8.608897	4.127389	-34.742893	74	74	103
9.273165	4.126373	-34.753437	76	73	102
9.936964	4.125351	-34.760216	74	75	102
10.385198	4.124733	-34.808823	73	72	100
11.043707	4.123652	-34.774578	78	73	104
11.710983	4.122668	-34.807541	78	72	100
12.386088	4.121767	-34.898479	80	74	100
12.828755	4.121086	-34.903080	75	75	100
13.481875	4.119948	-34.829967	78	74	98
14.141620	4.118883	-34.806702	78	75	102
14.809557	4.117903	-34.842976	78	75	101
15.481211	4.116960	-34.905071	79	74	99
15.928718	4.116328	-34.943962	78	75	98
16.593491	4.115313	-34.955982	78	75	99
17.254705	4.114263	-34.943222	79	75	102
17.917477	4.113228	-34.941498	77	72	98
18.354357	4.112491	-34.906582	75	74	102
19.017231	4.111458	-34.906113	77	78	103
19.688095	4.110501	-34.959126	76	75	104
20.358637	4.109540	-35.009079	79	74	102
20.804338	4.108886	-35.033188	77	75	99
21.476530	4.107938	-35.092560	79	76	103
22.144819	4.106952	-35.125740	77	73	101
22.582890	4.106228	-35.099789	78	72	100
23.234625	4.105094	-35.027451	75	76	97
23.906010	4.104136	-35.080147	80	77	100
24.577881	4.103180	-35.135014	78	75	100
25.031027	4.102588	-35.203506	77	75	100
25.728188	4.101847	-35.411900	71	71	93
26.464994	4.101437	-35.857952	67	65	91
26.719667	4.101374	-36.059937	67	63	86
26.977539	4.101336	-36.280087	65	63	85
27.501884	4.101326	-36.768307	65	63	86
28.034475	4.101375	-37.300171	62	65	87
28.301941	4.101405	-37.570778	64	62	85
28.570313	4.101440	-37.845222	62	63	84
28.839827	4.101482	-38.124863	62	59	82
29.379272	4.101562	-38.681812	61	63	84
29.911020	4.101569	-39.187332	64	59	84
30.440441	4.101547	-39.673592	61	61	83
30.708584	4.101561	-39.934628	63	59	84
31.252064	4.101638	-40.493870	65	62	86
31.793709	4.101690	-41.036343	68	63	86
32.332752	4.101713	-41.557968	68	67	88
32.605694	4.101747	-41.836098	68	68	90
32.881474	4.101801	-42.128838	70	67	93
33.158806	4.101864	-42.428757	70	66	92
33.436069	4.101924	-42.726669	68	67	89
33.712238	4.101974	-43.016769	68	67	88
34.245701	4.101918	-43.486473	69	69	89
-23.215986	3.965395	-43.174820	255	255	237
-14.159320	3.941562	-34.767864	88	86	116
-12.666520	3.938425	-34.063202	81	82	112
-11.787950	3.936993	-34.005211	83	81	109
-11.569059	3.936626	-33.981907	84	82	108
-10.244434	3.934571	-33.982704	81	75	101
-8.911138	3.932618	-34.084038	74	77	103
-8.243013	3.931657	-34.149162	77	74	102
-7.806002	3.930918	-34.097336	81	77	103
-6.707127	3.929147	-34.042114	80	80	107
-5.817953	3.927843	-34.107903	79	79	103
-5.376043	3.927161	-34.111591	84	78	103
10.577538	3.902945	-34.588230	79	74	101
11.681252	3.901225	-34.582832	77	77	101
12.356621	3.900288	-34.678181	77	76	96
13.016823	3.899240	-34.659313	77	76	96
13.453891	3.898521	-34.624477	77	73	98
14.115728	3.897487	-34.618591	76	75	99
14.781717	3.896481	-34.642799	78	72	100
15.451817	3.895502	-34.695889	78	77	98
15.900023	3.894859	-34.741146	77	75	99
16.564274	3.893840	-34.751572	80	75	100
17.219891	3.892764	-34.702080	79	75	99
17.888121	3.891771	-34.740189	80	76	98
18.325560	3.891057	-34.710396	74	73	101
18.988523	3.890030	-34.712448	76	72	101
19.656328	3.889034	-34.746887	76	72	101
20.323807	3.888034	-34.778610	74	73	100
-13.326063	3.718513	-34.102890	80	80	101
-9.595302	3.712551	-33.830551	78	77	104
-7.169055	3.708785	-33.818504	79	76	106
-4.282387	3.704442	-34.007401	76	76	103
-4.060201	3.704108	-34.022419	78	76	104
-3.397490	3.703085	-34.027832	77	77	105
-2.957865	3.702392	-34.009613	79	81	104
-1.853056	3.700689	-34.021980	78	77	102
-1.631211	3.700353	-34.033012	78	76	102
-0.968225	3.699332	-34.041176	78	76	105
-0.527592	3.698644	-34.033680	76	77	106
0.808150	3.696647	-34.140244	80	75	105
2.355239	3.694263	-34.157249	75	75	101
3.016478	3.693233	-34.148544	77	73	102
3.238464	3.692896	-34.159561	74	74	100
20.960062	3.665750	-34.605190	76	74	100
21.408022	3.665084	-34.646370	75	76	102
22.074493	3.664069	-34.671997	78	75	101
22.730188	3.663024	-34.628387	77	75	100
23.392010	3.661996	-34.624466	79	77	103
23.843735	3.661340	-34.688065	79	77	104
24.745262	3.660019	-34.801132	76	76	99
25.214163	3.659406	-34.968750	73	68	94
26.204315	3.658310	-35.617664	64	60	88
26.461107	3.658058	-35.833843	62	61	85
26.720671	3.657812	-36.065552	64	62	86
27.246023	3.657333	-36.562492	64	64	86
27.776953	3.656865	-37.087112	66	62	84
28.043175	3.656631	-37.351662	64	64	84
28.844526	3.655929	-38.152161	63	62	83
29.652252	3.655234	-38.976460	60	59	83
30.181702	3.654743	-39.465431	60	60	84
30.447697	3.654500	-39.715244	63	60	86
30.988731	3.654031	-40.263092	65	62	87
31.533892	3.653568	-40.828602	66	66	90
32.073174	3.653087	-41.354153	70	66	89
32.614552	3.652607	-41.885860	69	69	92
32.889027	3.652374	-42.171028	68	66	92
33.718948	3.651683	-43.053822	78	73	88
33.994160	3.651448	-43.336845	86	79	91
34.521252	3.650922	-43.767918	130	147	101
-22.771360	3.513785	-43.072399	198	180	132
-22.551565	3.513427	-42.973537	138	123	125
-21.694195	3.511962	-42.216240	91	88	109
-21.482306	3.511593	-41.992653	91	86	111
-21.270407	3.511225	-41.773026	91	89	116
-20.422571	3.509760	-40.934158	90	86	111
-20.211365	3.509394	-40.720566	87	88	113
-20.000463	3.509028	-40.505405	87	86	113
-19.158842	3.507568	-39.646938	88	85	111
-18.740622	3.506839	-39.197147	88	84	113
-18.321836	3.506113	-38.769531	87	86	112
-17.900087	3.505392	-38.399281	84	84	111
-17.689363	3.505033	-38.216011	84	85	110
-16.855350	3.503589	-37.379959	90	87	117
-16.647036	3.503229	-37.175644	89	89	113
-16.438656	3.502870	-36.975143	92	90	114
-15.611848	3.501432	-36.107082	93	90	117
-15.406047	3.501072	-35.884975	90	86	115
-15.199567	3.500715	-35.675217	90	90	116
-14.369007	3.499292	-34.925999	91	91	116
-14.162140	3.498937	-34.734558	91	91	118
-13.955531	3.498582	-34.542171	92	91	117
-13.120390	3.497175	-33.909344	82	82	102
-12.691141	3.496483	-33.753548	82	78	105
-11.817765	3.495112	-33.638412	83	82	113
-11.381622	3.494427	-33.576344	81	83	110
-11.162100	3.494085	-33.563599	84	83	109
-10.720814	3.493404	-33.565662	81	78	107
-10.279600	3.492723	-33.566883	80	78	103
-9.393087	3.491362	-33.617081	78	75	100
-8.950516	3.490681	-33.633568	75	74	98
-8.282215	3.489663	-33.708076	77	74	97
-7.842832	3.488980	-33.687592	76	76	102
-6.966122	3.487614	-33.625599	81	79	105
-6.522865	3.486934	-33.648880	81	79	107
-5.859334	3.485912	-33.668560	77	79	101
-5.417810	3.485231	-33.672649	80	77	105
-4.526254	3.483871	-33.768913	78	77	99
-4.080784	3.483191	-33.812546	78	76	103
-3.418743	3.482169	-33.814259	79	78	101
-2.979052	3.481487	-33.798767	79	79	102
-2.096544	3.480124	-33.799526	77	76	98
-1.653395	3.479442	-33.818405	79	77	102
-0.991946	3.478420	-33.814816	77	75	105
-0.551788	3.477738	-33.804897	79	79	103
0.337318	3.476376	-33.867691	80	75	105
0.784906	3.475696	-33.926373	77	74	103
1.454969	3.474674	-34.000523	75	73	99
1.894407	3.473992	-33.983280	74	77	97
2.771984	3.472628	-33.938339	76	74	99
3.214512	3.471946	-33.949451	75	75	99
4.101878	3.470583	-33.991261	72	74	99
4.321745	3.470242	-33.984516	73	73	97
5.651891	3.468197	-34.037498	77	72	99
6.531281	3.466834	-34.010715	76	76	98
6.752121	3.466493	-34.012360	74	73	101
7.867056	3.464788	-34.107258	76	73	96
8.090780	3.464447	-34.131760	74	72	99
8.978582	3.463083	-34.171852	75	74	97
9.197821	3.462742	-34.160320	76	72	97
10.519862	3.460696	-34.144222	78	73	97
11.395482	3.459334	-34.090546	76	74	97
11.618211	3.458992	-34.106342	76	75	96
12.731518	3.457286	-34.181282	76	75	96
12.951867	3.456946	-34.178867	76	74	97
13.842881	3.455580	-34.239677	76	74	96
14.066388	3.455239	-34.260128	78	74	100
14.946774	3.453876	-34.242779	78	76	96
15.390081	3.453193	-34.256546	81	73	101
16.283209	3.451827	-34.329372	77	77	98
16.503405	3.451486	-34.325699	76	74	98
17.388639	3.450121	-34.342121	76	76	99
17.830257	3.449440	-34.343384	79	74	98
18.708521	3.448077	-34.312336	77	71	95
18.929558	3.447736	-34.314648	77	76	97
19.812809	3.446372	-34.317921	77	73	95
20.255489	3.445690	-34.326569	76	76	101
21.148716	3.444322	-34.395039	78	75	97
21.372324	3.443980	-34.413879	77	73	99
22.260668	3.442615	-34.449009	77	74	99
22.697561	3.441934	-34.419807	76	72	99
23.359646	3.440911	-34.419468	77	73	100
23.812273	3.440225	-34.489983	79	76	105
24.489742	3.439196	-34.585064	76	75	99
25.691736	3.437451	-35.187447	66	62	88
28.314384	3.433855	-37.644173	64	62	84
28.579515	3.433493	-37.899109	62	61	82
33.165817	3.427255	-42.467392	72	67	93
33.443081	3.426882	-42.765152	76	71	89
-22.120157	3.287509	-42.639996	99	95	114
-20.846437	3.285937	-41.350811	89	87	115
-19.579514	3.284370	-40.074684	87	85	111
-19.369099	3.284111	-39.861889	88	85	107
-18.111923	3.282564	-38.571175	85	84	110
-17.272194	3.281505	-37.796902	84	84	111
-16.023125	3.279952	-36.567551	92	87	114
-14.784279	3.278427	-35.297920	90	90	118
-12.268042	3.275086	-33.526196	83	80	109
-12.050751	3.274764	-33.485455	86	81	109
-10.296865	3.272098	-33.362751	80	80	108
-9.632755	3.271065	-33.394974	77	74	100
-8.969730	3.270037	-33.413792	73	72	100
-8.524891	3.269338	-33.458225	75	74	101
-7.861977	3.268312	-33.474541	77	75	102
-7.204453	3.267312	-33.431076	77	77	105
-6.542451	3.266289	-33.437737	81	77	107
-6.100727	3.265606	-33.446335	79	76	106
-5.438753	3.264584	-33.452557	78	76	102
-4.770392	3.263532	-33.525223	76	77	101
4.958045	3.248467	-33.767040	75	75	104
9.827406	3.240921	-33.907364	76	73	103
12.477486	3.236829	-33.932785	77	74	101
12.919966	3.236144	-33.942909	76	73	98
13.814915	3.234737	-34.035763	77	75	101
14.039574	3.234382	-34.065304	77	75	102
15.358924	3.232358	-34.034805	77	78	102
16.250214	3.230965	-34.097733	78	74	102
16.691311	3.230286	-34.096909	79	72	100
17.578756	3.228908	-34.131577	76	73	98
17.798674	3.228570	-34.126785	76	76	100
18.678459	3.227220	-34.108868	77	77	105
19.119713	3.226540	-34.109306	77	75	98
20.223261	3.224838	-34.113316	76	75	103
21.113960	3.223449	-34.167969	77	70	102
25.178019	3.217011	-34.745079	64	62	88
29.118208	3.209816	-38.454170	60	61	80
-13.542542	3.055836	-34.165909	94	91	116
-9.650491	3.050627	-33.188797	77	73	101
-8.988059	3.049596	-33.204212	73	74	102
-8.322608	3.048534	-33.253490	74	73	103
-7.881551	3.047854	-33.256672	79	76	101
-7.222622	3.046860	-33.232178	79	77	104
-6.562435	3.045853	-33.222271	80	80	104
-5.901283	3.044836	-33.223148	78	75	106
-5.460047	3.044153	-33.228745	77	76	99
-4.791522	3.043064	-33.306496	79	76	104
-4.123689	3.041984	-33.374973	78	76	105
-3.462280	3.040966	-33.376701	78	76	103
-3.022223	3.040295	-33.369095	79	77	102
-2.361679	3.039285	-33.362591	78	76	102
-1.700555	3.038269	-33.362064	79	73	103
-1.039727	3.037256	-33.358856	76	76	100
-0.598779	3.036577	-33.360611	79	76	102
0.066832	3.035520	-33.402519	78	76	101
0.736518	3.034429	-33.481068	76	73	101
1.404269	3.033356	-33.540031	75	75	100
1.845370	3.032676	-33.541828	75	73	98
2.506265	3.031663	-33.537827	75	75	100
3.167417	3.030648	-33.536327	78	75	100
3.833040	3.029595	-33.573853	74	73	102
4.274688	3.028912	-33.580307	75	75	98
4.712989	3.028255	-33.558132	77	75	100
4.932183	3.027927	-33.547565	73	75	100
5.594324	3.026903	-33.554802	78	75	100
6.036995	3.026211	-33.569962	78	72	104
6.258762	3.025861	-33.581055	72	74	100
6.923907	3.024814	-33.612598	78	73	105
7.364770	3.024136	-33.612396	74	73	98
8.030727	3.023083	-33.649693	80	74	99
8.699442	3.022009	-33.708164	74	72	96
9.360379	3.020996	-33.704308	75	74	103
9.798992	3.020336	-33.686161	73	71	100
10.463429	3.019296	-33.709805	74	73	95
11.121139	3.018307	-33.681747	74	68	98
11.780676	3.017304	-33.668213	76	75	95
12.224182	3.016607	-33.687962	77	72	100
12.889791	3.015558	-33.719734	76	74	98
13.558922	3.014485	-33.776730	77	73	97
14.232511	3.013380	-33.864933	77	75	101
14.668989	3.012734	-33.832253	77	75	99
15.328665	3.011730	-33.819462	76	76	98
15.996747	3.010667	-33.866291	78	74	99
16.657841	3.009653	-33.863522	75	73	96
17.103579	3.008941	-33.896465	76	74	99
17.764341	3.007930	-33.891346	78	73	98
18.426298	3.006910	-33.894547	79	76	99
19.088535	3.005888	-33.899666	76	74	94
19.750755	3.004866	-33.904678	75	74	98
20.191412	3.004190	-33.902573	77	76	102
20.857218	3.003144	-33.931133	77	71	95
21.526825	3.002073	-33.983925	78	72	96
22.416183	3.000669	-34.030811	75	74	94
22.634935	3.000341	-34.019451	76	72	97
23.517052	2.998985	-34.019691	80	76	100
23.973713	2.998206	-34.117737	79	75	101
24.204159	2.997802	-34.179550	78	76	99
24.436380	2.997388	-34.252075	76	74	96
25.166054	2.995935	-34.670975	66	64	86
25.420717	2.995379	-34.879406	66	67	89
25.677513	2.994810	-35.099693	65	65	88
26.193903	2.993657	-35.553448	63	64	86
26.454002	2.993070	-35.789925	62	62	86
26.716141	2.992471	-36.037369	64	62	83
26.981007	2.991857	-36.299881	65	65	87
27.518736	2.990580	-36.868401	64	60	84
28.054325	2.989322	-37.417549	61	60	84
28.318016	2.988721	-37.665291	61	62	82
28.581884	2.988120	-37.912651	60	60	85
28.848621	2.987502	-38.175594	62	61	82
29.119366	2.986860	-38.460728	63	64	81
29.391806	2.986209	-38.754227	64	59	83
29.930849	2.984947	-39.302017	63	62	85
30.458204	2.983762	-39.775536	65	65	92
30.722078	2.983170	-40.011436	65	66	93
31.260551	2.981923	-40.541256	67	68	94
31.808052	2.980625	-41.117046	68	66	92
32.348827	2.979374	-41.648045	66	63	85
32.891373	2.978117	-42.183270	69	64	88
33.167595	2.977460	-42.476715	75	66	89
33.446289	2.976790	-42.782547	83	74	89
33.723457	2.976130	-43.078083	100	89	92
33.993931	2.975511	-43.334412	134	121	104
34.251892	2.974968	-43.519218	190	173	134
-22.994843	2.837854	-43.116970	243	236	206
-22.555902	2.837450	-42.906620	134	113	122
-22.123348	2.837191	-42.590767	101	95	114
-21.909336	2.837110	-42.397282	93	90	114
-21.483238	2.836982	-41.986923	89	88	113
-21.270782	2.836925	-41.776787	88	85	111
-20.847282	2.836830	-41.343201	87	88	115
-20.636175	2.836791	-41.121048	88	87	112
-20.214306	2.836706	-40.681786	86	86	111
-20.003138	2.836652	-40.471241	86	86	112
-19.791765	2.836589	-40.267345	86	89	109
-19.369673	2.836464	-39.858730	85	86	111
-19.159708	2.836419	-39.642113	86	84	111
-18.741819	2.836361	-39.187149	87	86	109
-18.532894	2.836325	-38.964546	83	83	109
-18.113228	2.836204	-38.556850	85	86	107
-17.902874	2.836126	-38.365421	83	86	107
-17.692757	2.836050	-38.173244	84	86	110
-17.273888	2.835914	-37.777145	87	88	117
-17.064909	2.835850	-37.576679	88	86	114
-16.647020	2.835713	-37.183342	88	88	115
-16.438211	2.835642	-36.988895	91	88	116
-16.022846	2.835533	-36.576267	90	89	116
-15.816843	2.835505	-36.350647	92	91	115
-15.405684	2.835456	-35.896881	90	86	117
-15.198971	2.835403	-35.690216	94	90	115
-14.783342	2.835246	-35.315048	88	89	112
-14.575684	2.835166	-35.129101	89	91	116
-14.162090	2.835027	-34.741558	92	90	116
-13.955665	2.834960	-34.546673	92	91	118
-13.542473	2.834810	-34.168854	91	92	119
-13.335646	2.834726	-33.986565	92	90	113
-12.711565	2.834393	-33.499252	85	84	108
-12.078535	2.833879	-33.141830	81	79	104
-11.430910	2.833098	-32.976604	83	83	115
-10.768697	2.832061	-32.993320	83	81	109
-10.329914	2.831415	-32.972153	81	80	108
3.807922	2.809247	-33.356243	74	74	103
6.231919	2.805526	-33.358719	74	77	101
6.899834	2.804430	-33.415619	77	75	102
7.338595	2.803777	-33.399860	77	74	103
8.000892	2.802748	-33.410198	79	72	100
8.667661	2.801667	-33.455959	77	72	97
9.330225	2.800637	-33.467758	78	74	107
9.770553	2.799965	-33.464764	75	76	102
10.435493	2.798907	-33.494751	76	73	97
11.095289	2.797908	-33.484982	75	69	97
11.752868	2.796933	-33.458817	79	74	101
12.418063	2.795873	-33.490139	78	76	106
12.861776	2.795164	-33.512550	75	73	104
13.528743	2.794086	-33.555893	79	75	98
-23.208595	2.612363	-43.334496	255	255	246
-11.663879	2.613292	-32.821674	83	81	110
-11.446609	2.613024	-32.785660	83	84	112
-10.565790	2.611675	-32.786705	85	81	110
-10.346745	2.611364	-32.773193	82	80	110
-9.463134	2.609952	-32.807434	77	75	101
-9.021780	2.609257	-32.818882	76	75	102
-8.138974	2.607865	-32.842381	78	77	102
-7.918859	2.607530	-32.841568	77	75	103
-7.040077	2.606223	-32.820210	79	76	105
-6.602377	2.605604	-32.791626	78	75	103
-5.722612	2.604275	-32.782841	78	78	104
-5.280783	2.603570	-32.799156	77	75	104
-4.611409	2.602382	-32.891796	77	76	106
-4.167914	2.601647	-32.923859	79	77	103
-3.287804	2.600313	-32.917171	81	75	102
-2.847730	2.599645	-32.914215	79	76	105
-2.189753	2.598683	-32.889084	79	77	101
-1.750526	2.598031	-32.878403	76	75	102
-0.862874	2.596554	-32.945541	76	74	100
14.169524	2.572744	-33.408844	76	73	102
14.827888	2.571769	-33.390884	77	75	99
15.272340	2.571040	-33.418640	78	78	102
15.934229	2.570015	-33.425907	76	74	95
16.592375	2.569042	-33.407028	76	76	96
17.258303	2.567961	-33.442360	76	75	100
17.914612	2.567012	-33.411335	78	73	103
18.359709	2.566277	-33.442379	79	75	97
19.026693	2.565183	-33.483818	77	76	98
19.687366	2.564175	-33.482540	77	72	97
20.345428	2.563201	-33.464153	77	75	99
20.789282	2.562484	-33.485874	80	74	97
21.456533	2.561389	-33.527550	77	75	99
-22.773022	2.386774	-43.060997	170	144	125
-22.556219	2.386788	-42.908306	127	114	121
-21.484652	2.387271	-41.969452	90	87	111
-21.271845	2.387407	-41.765411	89	87	111
-20.425024	2.388046	-40.909611	91	86	112
-20.214027	2.388214	-40.692673	89	85	110
-20.002884	2.388368	-40.481598	87	85	110
-19.580404	2.388646	-40.072536	85	85	111
-18.949955	2.389131	-39.431351	89	83	111
-18.740650	2.389309	-39.211021	88	83	111
-17.902315	2.389907	-38.379246	85	87	109
-17.692526	2.390032	-38.182053	87	86	115
-16.649496	2.390764	-37.152592	85	89	113
-16.441172	2.390900	-36.951389	87	88	116
-15.610342	2.391464	-36.139725	90	88	112
-15.403829	2.391628	-35.927189	89	85	113
-15.196873	2.391772	-35.723621	88	83	111
-14.161816	2.392391	-34.749451	90	92	117
-13.955944	2.392533	-34.547153	92	90	120
-13.133142	2.393066	-33.754807	92	93	118
-12.719685	2.393236	-33.399700	90	85	115
-11.676759	2.393304	-32.664410	83	80	105
-11.461126	2.393100	-32.609211	83	81	108
-10.583524	2.391836	-32.575783	88	82	113
-10.364587	2.391533	-32.562195	84	81	114
-9.259612	2.389726	-32.616020	77	75	105
-9.038918	2.389373	-32.623028	75	75	101
-8.156995	2.387988	-32.640823	79	75	101
-7.716649	2.387312	-32.642693	81	76	105
-6.840873	2.386088	-32.592915	79	76	102
-6.622183	2.385788	-32.578098	80	74	104
-5.742676	2.384462	-32.570946	79	78	107
-5.300901	2.383748	-32.588840	79	76	105
-4.410263	2.382146	-32.696785	78	78	105
-4.189188	2.381786	-32.706905	78	78	104
-3.309466	2.380458	-32.700527	78	75	103
-2.869363	2.379788	-32.699940	79	76	103
-1.994156	2.378565	-32.650200	79	75	104
-1.774200	2.378231	-32.649315	76	74	102
-0.884189	2.376662	-32.743164	76	78	103
-0.441152	2.375925	-32.770290	78	78	104
0.445452	2.374442	-32.828178	78	76	102
0.664084	2.374139	-32.814480	76	73	103
1.544610	2.372793	-32.815475	78	74	102
1.990179	2.372005	-32.863770	75	76	101
3.098011	2.370171	-32.927532	77	73	101
3.975739	2.368887	-32.903019	76	74	104
4.415978	2.368216	-32.902946	73	75	102
5.509674	2.366678	-32.845039	79	75	101
6.627762	2.364644	-32.990662	76	74	102
6.849109	2.364284	-33.000511	76	74	104
7.946960	2.362661	-32.977348	80	72	105
8.829592	2.361277	-32.994148	78	72	98
9.271915	2.360565	-33.010357	76	75	103
10.381775	2.358712	-33.081257	77	73	103
11.262141	2.357374	-33.079205	75	73	100
11.698552	2.356774	-33.049839	77	72	102
12.808526	2.354925	-33.118755	78	75	101
13.029486	2.354575	-33.124645	76	75	103
13.695019	2.353477	-33.161499	77	75	99
14.138441	2.352750	-33.183769	81	74	102
15.244557	2.350979	-33.220932	74	77	99
15.466221	2.350617	-33.231369	74	75	101
16.122478	2.349684	-33.201004	80	76	98
16.560936	2.349045	-33.187798	80	74	102
17.664616	2.347317	-33.207455	80	74	105
17.883350	2.347006	-33.197662	80	76	100
18.550503	2.345886	-33.242851	82	73	99
18.995119	2.345143	-33.271515	79	73	100
20.090391	2.343556	-33.234123	80	74	102
20.310432	2.343222	-33.233334	76	77	103
20.976095	2.342130	-33.267227	77	75	104
21.419983	2.341401	-33.290257	77	70	99
22.534380	2.339506	-33.376648	80	74	101
22.754673	2.339169	-33.377163	79	77	101
23.416697	2.338139	-33.385975	78	75	101
23.883425	2.337055	-33.550983	73	70	92
24.127840	2.336342	-33.701847	69	66	88
25.404312	2.331967	-34.777760	67	65	88
25.924747	2.330086	-35.259499	67	63	88
26.451843	2.328116	-35.776100	62	61	90
26.716274	2.327123	-36.037491	61	63	85
28.041622	2.322160	-37.340813	67	61	82
28.843527	2.319123	-38.144566	61	64	87
29.117590	2.318017	-38.449371	63	67	85
30.457327	2.312995	-39.769482	66	66	88
30.988560	2.311078	-40.260151	64	66	90
31.534601	2.308957	-40.830669	64	66	88
32.907398	2.303608	-42.273239	69	66	91
33.736168	2.300369	-43.148563	111	97	92
34.005524	2.299394	-43.398403	160	139	104
-23.428160	2.161289	-43.451637	255	255	246
-22.124374	2.161689	-42.583427	98	94	112
-21.910643	2.161908	-42.384995	94	91	110
-19.370054	2.164968	-39.861633	86	86	109
-18.530743	2.166039	-39.006172	85	85	109
-18.111404	2.166535	-38.592808	86	89	110
-17.273777	2.167474	-37.786560	86	84	113
-17.065622	2.167741	-37.573925	90	89	113
-14.781821	2.170391	-35.342312	92	87	112
-14.575045	2.170620	-35.144241	87	88	115
-12.930434	2.172557	-33.526566	94	86	114
-10.383384	2.171939	-32.339798	85	82	111
-10.163850	2.171618	-32.334732	83	81	109
2.633420	2.151108	-32.712532	75	72	96
5.047843	2.147573	-32.662083	75	77	102
6.153388	2.145764	-32.708279	73	71	97
6.821637	2.144562	-32.775654	76	73	99
7.699917	2.143267	-32.760521	75	77	101
8.143347	2.142518	-32.787575	75	74	99
8.803014	2.141524	-32.784103	75	72	96
9.245049	2.140809	-32.799629	74	73	100
10.135147	2.139242	-32.876793	73	74	101
10.574361	2.138593	-32.869770	76	74	96
11.234753	2.137583	-32.871468	75	72	98
11.671128	2.136997	-32.843342	78	73	99
12.557862	2.135513	-32.892361	78	77	98
13.002695	2.134740	-32.927223	77	76	102
13.666916	2.133649	-32.956589	78	75	97
24.884420	2.112910	-34.293430	65	64	85
26.189907	2.107535	-35.528183	63	63	85
26.984962	2.104144	-36.322861	61	64	86
27.514662	2.101910	-36.842903	69	63	89
28.307480	2.098622	-37.601402	68	63	90
28.573906	2.097496	-37.864124	66	64	87
29.394003	2.093772	-38.766014	68	65	89
29.933884	2.091434	-39.318596	65	62	90
31.810656	2.083604	-41.130642	66	63	89
32.360786	2.081163	-41.714958	67	65	87
33.189087	2.077482	-42.597012	74	69	87
33.465279	2.076262	-42.888351	82	77	88
34.265976	2.073100	-43.596592	220	199	147
-20.847441	1.938551	-41.353745	88	87	113
-16.024708	1.946731	-36.559528	91	87	114
-13.549351	1.950968	-34.087173	90	91	116
-11.484901	1.953545	-32.320877	84	80	105
-9.739931	1.951452	-32.148945	82	81	110
-9.077356	1.950335	-32.183350	74	76	102
-8.415997	1.949268	-32.203026	76	75	97
-7.756135	1.948258	-32.205540	78	74	100
-7.317884	1.947647	-32.189003	80	78	102
-6.662005	1.946781	-32.148743	78	77	107
-6.002240	1.945771	-32.151402	76	75	104
-5.338602	1.944623	-32.194866	80	75	105
-4.672097	1.943379	-32.266853	76	76	103
-4.230745	1.942657	-32.283134	76	75	103
-3.570642	1.941640	-32.287643	79	77	104
-2.910358	1.940617	-32.293976	77	76	105
-2.255142	1.939763	-32.250557	80	75	102
-1.817420	1.939161	-32.231239	79	75	105
-1.150981	1.937936	-32.297493	78	77	103
1.272143	1.934121	-32.339806	76	74	102
14.077517	1.913383	-32.742615	80	77	102
14.962304	1.911926	-32.777752	78	76	103
15.404755	1.911197	-32.795437	76	75	99
16.278782	1.910004	-32.754116	76	72	99
16.498329	1.909680	-32.751240	75	74	101
17.388660	1.908095	-32.823627	77	79	104
17.828091	1.907440	-32.819969	77	74	103
18.708492	1.906093	-32.823318	77	74	100
18.929356	1.905738	-32.829300	76	73	101
19.802237	1.904564	-32.782795	78	75	99
20.240637	1.903930	-32.772980	77	76	103
21.128551	1.902410	-32.826206	76	74	100
21.571445	1.901676	-32.845512	79	73	101
22.239733	1.900487	-32.899372	77	76	106
22.686930	1.899660	-32.945431	80	78	104
24.623100	1.893180	-34.040459	66	61	87
29.668510	1.869262	-39.069626	68	66	89
30.997017	1.863240	-40.308506	66	64	86
-22.992863	1.710459	-43.172237	236	225	204
-22.554550	1.710625	-42.949425	120	108	120
-22.122982	1.711215	-42.615227	97	94	114
-21.909578	1.711653	-42.410732	94	91	112
-21.484474	1.712602	-41.982822	89	89	114
-21.272066	1.713066	-41.771805	89	86	111
-20.848232	1.714017	-41.343723	89	86	114
-20.636801	1.714504	-41.126854	90	87	113
-20.214214	1.715456	-40.699104	88	88	113
-20.003206	1.715931	-40.485703	90	86	114
-19.792562	1.716416	-40.269825	89	85	116
-19.372292	1.717409	-39.832043	89	83	115
-19.162340	1.717897	-39.615356	88	83	114
-18.741814	1.718801	-39.201550	87	86	112
-18.531307	1.719220	-39.003128	86	86	112
-18.110907	1.720062	-38.605850	87	87	115
-17.901213	1.720496	-38.404015	86	84	111
-17.691864	1.720939	-38.199966	85	86	114
-17.274450	1.721863	-37.781837	87	85	114
-17.066494	1.722350	-37.566299	89	88	111
-16.650843	1.723305	-37.140640	90	89	112
-16.442354	1.723729	-36.941814	88	87	115
-16.024734	1.724512	-36.561550	90	87	114
-15.816555	1.724923	-36.366501	89	85	115
-15.401820	1.725801	-35.961899	88	90	114
-15.195001	1.726253	-35.756176	87	83	111
-14.782248	1.727174	-35.340927	92	88	113
-14.576083	1.727629	-35.134579	91	86	115
-14.164309	1.728539	-34.722610	89	89	117
-13.959277	1.729023	-34.509327	89	89	119
-13.550972	1.730047	-34.068024	92	90	117
-13.346735	1.730539	-33.852692	92	90	117
-12.936690	1.731416	-33.450298	93	88	116
-12.731470	1.731830	-33.255398	95	89	117
-12.321508	1.732656	-32.866814	93	93	118
-12.116055	1.733032	-32.682018	97	93	121
-11.492745	1.733785	-32.226357	86	83	109
-10.851530	1.733645	-32.002888	86	85	110
-10.199316	1.732975	-31.917698	80	79	110
-9.758202	1.732237	-31.936493	80	81	108
-9.097741	1.731187	-31.950087	79	75	103
-8.436396	1.730099	-31.973433	76	73	100
-7.777823	1.729132	-31.965288	75	75	102
-7.120585	1.728220	-31.942945	76	77	103
-6.681816	1.727585	-31.935158	77	77	102
-6.022525	1.726583	-31.936052	79	75	102
-5.357914	1.725365	-31.993015	77	76	99
-4.691592	1.724084	-32.066139	77	77	104
-4.251846	1.723412	-32.067940	76	73	102
-3.592128	1.722399	-32.071716	77	76	100
-2.931012	1.721332	-32.089432	79	76	103
-2.275441	1.720478	-32.052402	79	74	100
-1.617135	1.719516	-32.043022	75	75	102
-1.172832	1.718672	-32.089043	77	78	104
-0.507190	1.717441	-32.148922	81	75	103
0.160479	1.716143	-32.226200	78	76	103
0.815908	1.715289	-32.189014	77	73	103
1.250017	1.714818	-32.138931	78	73	100
1.916833	1.713558	-32.206333	75	75	104
2.583201	1.712319	-32.268139	74	72	101
3.241464	1.711362	-32.257481	76	75	101
3.679692	1.710744	-32.245258	76	75	103
4.338559	1.709764	-32.240513	75	74	106
5.000382	1.708686	-32.261063	74	73	99
5.660382	1.707668	-32.265972	76	73	99
6.104087	1.706870	-32.300003	77	74	98
6.765388	1.705812	-32.315235	74	74	100
7.423791	1.704847	-32.306732	77	73	95
7.868773	1.704013	-32.349873	75	75	103
8.090770	1.703612	-32.367249	74	73	97
8.751162	1.702586	-32.374332	73	71	96
9.191741	1.701892	-32.381527	74	74	98
9.856915	1.700721	-32.425659	74	74	101
10.516411	1.699724	-32.425308	74	70	99
11.177144	1.698689	-32.434483	74	73	99
11.615782	1.698055	-32.426586	77	72	100
12.274557	1.697077	-32.421169	78	77	103
12.943937	1.695792	-32.494205	81	75	101
13.608964	1.694637	-32.534023	77	75	97
14.046697	1.694029	-32.519451	78	76	101
14.709342	1.692944	-32.541416	76	77	97
15.371418	1.691876	-32.558990	74	75	100
16.028177	1.690956	-32.538986	76	74	96
16.687983	1.689951	-32.540649	78	74	96
17.134874	1.689090	-32.590286	78	75	101
17.800621	1.687926	-32.632214	76	74	103
18.456533	1.687027	-32.606846	73	72	97
19.114674	1.686067	-32.597015	84	75	101
19.549896	1.685520	-32.567078	78	74	101
20.206675	1.684593	-32.548965	79	72	99
20.873026	1.683417	-32.593834	82	76	99
21.538677	1.682262	-32.633415	76	72	100
21.981441	1.681519	-32.653000	79	76	101
22.652685	1.680227	-32.727200	77	76	101
23.350567	1.678273	-32.968216	69	68	92
23.846649	1.676214	-33.319839	64	64	85
24.362522	1.673681	-33.790596	65	64	86
24.623266	1.672353	-34.041313	64	62	86
24.883934	1.671033	-34.290035	64	62	86
25.144037	1.669732	-34.533798	64	63	86
25.665972	1.667104	-35.027573	64	61	84
26.193974	1.664351	-35.552563	64	62	83
26.459236	1.662952	-35.820415	63	60	85
26.724947	1.661549	-36.089417	62	60	85
26.991165	1.660139	-36.359909	61	61	85
27.258171	1.658717	-36.633568	63	62	87
27.525146	1.657300	-36.905457	63	63	87
28.055738	1.654566	-37.424431	65	63	86
28.319551	1.653242	-37.672832	64	64	92
28.584652	1.651893	-37.927456	65	63	90
28.853331	1.650465	-38.201839	68	63	86
29.125580	1.648959	-38.495743	66	63	89
29.399176	1.647428	-38.795914	66	64	89
29.670748	1.645950	-39.082481	67	65	87
29.938593	1.644566	-39.345581	67	62	86
30.468588	1.641945	-39.834160	65	63	86
30.735733	1.640593	-40.088856	66	62	89
31.005625	1.639182	-40.358047	65	62	90
31.277256	1.637737	-40.635784	65	62	85
31.549242	1.636290	-40.914021	63	61	81
31.821255	1.634848	-41.190849	64	63	82
32.368431	1.631909	-41.757938	66	65	86
32.920998	1.628872	-42.349407	66	66	86
33.197803	1.627350	-42.645668	71	70	87
33.474072	1.625846	-42.937283	84	78	89
33.744823	1.624473	-43.196209	111	94	93
34.005787	1.623324	-43.398735	154	134	112
34.256557	1.622407	-43.543030	211	197	165
-23.207336	1.484450	-43.377056	255	249	235
-11.705363	1.513638	-32.318317	94	90	118
-8.897684	1.511893	-31.725887	80	75	101
-7.580714	1.509947	-31.715645	76	74	101
-6.700972	1.508564	-31.728661	78	76	103
-5.823058	1.507266	-31.722015	78	78	103
8.062189	1.484544	-32.138725	75	71	101
8.724293	1.483447	-32.161980	77	72	100
9.163935	1.482777	-32.163422	74	74	101
9.826546	1.481664	-32.190098	78	73	102
10.486231	1.480652	-32.193825	78	77	104
11.147209	1.479597	-32.207397	77	73	102
11.806376	1.478602	-32.207188	77	74	103
12.244707	1.477975	-32.198811	78	73	106
12.912377	1.476703	-32.261608	78	74	103
13.577859	1.475506	-32.307201	78	75	104
14.235952	1.474548	-32.298599	82	75	104
14.678160	1.473799	-32.317963	78	75	104
15.338023	1.472785	-32.322136	79	74	105
15.996655	1.471809	-32.317692	76	76	102
16.656830	1.470785	-32.324158	75	74	102
19.515509	1.466410	-32.338078	80	72	102
19.733864	1.466119	-32.328934	77	75	100
20.173498	1.465450	-32.330147	74	74	103
25.407715	1.447156	-34.797913	63	62	89
32.100945	1.408792	-41.509792	66	65	88
-10.657250	1.294836	-31.700235	85	83	107
-10.228398	1.294772	-31.576311	84	83	111
-9.574126	1.294033	-31.523926	85	81	107
-8.475591	1.292339	-31.532393	80	76	101
-7.160558	1.290475	-31.507385	77	77	100
-5.399228	1.287570	-31.561049	74	75	103
-4.293935	1.285541	-31.638710	76	75	101
-4.076527	1.285317	-31.616598	74	75	100
-3.417283	1.284298	-31.622213	75	74	102
-2.974507	1.283460	-31.658583	77	77	101
-1.879285	1.281931	-31.632944	81	78	101
-1.658566	1.281546	-31.644199	79	77	100
-0.993862	1.280274	-31.701744	76	74	102
-0.551288	1.279456	-31.733986	76	74	102
17.294952	1.250486	-32.178879	76	76	97
17.740248	1.249624	-32.219555	78	77	97
18.393606	1.248821	-32.180954	76	72	95
20.807335	1.245262	-32.164631	75	76	98
21.475197	1.243984	-32.222542	80	76	101
22.137156	1.242898	-32.241623	80	77	99
23.329884	1.238302	-32.837395	63	64	83
26.725639	1.217891	-36.093147	65	62	88
27.530748	1.212705	-36.938652	64	61	87
28.064417	1.209378	-37.475800	69	63	86
28.865271	1.204430	-38.272053	66	64	88
29.135015	1.202714	-38.550945	64	64	86
29.942635	1.197655	-39.368664	64	64	85
30.479385	1.194367	-39.896442	63	64	87
31.300039	1.189042	-40.766762	66	61	85
31.571278	1.187348	-41.040298	65	61	84
32.377754	1.182515	-41.810505	67	63	87
32.924923	1.179057	-42.370995	70	69	85
33.752987	1.173720	-43.241455	112	105	97
33.999504	1.172780	-43.362659	159	157	116
-23.195745	1.032133	-43.598877	253	248	199
-22.767347	1.033628	-43.186447	156	135	122
-22.553576	1.034388	-42.978031	115	110	119
-21.699633	1.037347	-42.160149	89	87	109
-21.487007	1.038121	-41.949505	86	88	112
-21.274633	1.038898	-41.738113	89	88	110
-20.430609	1.042306	-40.836517	89	88	113
-20.007544	1.043808	-40.424492	89	86	113
-19.584061	1.045207	-40.032139	89	85	118
-19.162416	1.046696	-39.622963	87	86	113
-18.742088	1.048227	-39.205887	86	89	111
-18.321369	1.049663	-38.807343	86	86	111
-17.901588	1.051111	-38.406475	86	83	110
-17.692392	1.051867	-38.200073	88	86	111
-16.858341	1.054950	-37.364273	89	85	117
-16.650414	1.055726	-37.154316	89	88	112
-16.442549	1.056492	-36.946411	89	88	114
-15.612018	1.059477	-36.130337	88	87	112
-15.404758	1.060215	-35.928093	87	85	111
-15.197504	1.060939	-35.728527	89	86	114
-14.369660	1.063781	-34.940857	89	88	114
-14.164213	1.064564	-34.730232	90	87	113
-13.959608	1.065393	-34.511211	88	86	110
-13.142978	1.068686	-33.639832	90	92	119
-12.938313	1.069439	-33.435345	91	88	117
-12.733491	1.070168	-33.235435	93	90	118
-11.912287	1.072832	-32.484009	96	94	124
-11.706552	1.073440	-32.307232	94	90	118
-11.500256	1.074000	-32.139465	93	92	124
-10.665512	1.075529	-31.602861	87	82	105
-10.241713	1.075840	-31.420158	84	81	112
-9.373607	1.075134	-31.304914	85	83	113
-8.934255	1.074447	-31.310024	83	77	108
-8.275927	1.073460	-31.309750	75	75	101
-7.840647	1.073015	-31.269491	76	74	103
-6.957715	1.071392	-31.326687	76	73	100
-6.519314	1.070760	-31.321424	78	77	104
-5.864973	1.069996	-31.279228	78	77	100
-5.420018	1.068993	-31.343662	77	76	103
-4.531797	1.067100	-31.451469	77	75	99
-4.098074	1.066726	-31.397911	75	76	101
-3.218638	1.065321	-31.414059	76	74	100
-2.997049	1.064878	-31.435249	76	76	102
-2.121419	1.063676	-31.413473	80	78	105
-1.680217	1.062897	-31.435743	76	77	102
-0.794128	1.061159	-31.514217	77	74	101
-0.573112	1.060752	-31.528646	76	74	101
0.526810	1.058982	-31.551413	79	76	105
0.745188	1.058707	-31.541128	79	76	105
1.627637	1.057171	-31.581747	78	76	105
1.848308	1.056785	-31.592241	79	76	102
2.945983	1.055128	-31.593620	79	76	106
3.166511	1.054750	-31.602634	82	78	111
4.042686	1.053516	-31.586941	79	78	107
4.484397	1.052731	-31.610329	81	81	107
5.368899	1.051117	-31.665205	76	75	100
5.588871	1.050767	-31.669033	75	76	103
6.466136	1.049483	-31.662550	84	77	107
6.904119	1.048868	-31.654158	80	76	106
7.781934	1.047556	-31.652819	80	78	104
8.004773	1.047082	-31.679634	76	78	108
8.889354	1.045484	-31.731546	74	73	101
9.327840	1.044848	-31.727221	78	76	101
9.988303	1.043779	-31.742100	78	76	103
10.428804	1.043058	-31.753380	81	74	104
11.310542	1.041589	-31.781151	78	75	105
11.749116	1.040949	-31.777567	78	75	100
12.627071	1.039635	-31.776695	76	76	102
12.849031	1.039208	-31.794739	79	78	102
13.734806	1.037587	-31.850742	77	77	102
14.176264	1.036834	-31.867907	78	76	106
15.055220	1.035485	-31.873466	78	75	102
15.275825	1.035115	-31.881004	78	73	102
16.158970	1.033607	-31.915854	79	74	100
16.597588	1.032966	-31.912453	81	76	109
17.485863	1.031272	-31.981642	79	75	106
17.707584	1.030863	-31.996298	76	75	99
18.578384	1.029818	-31.945601	77	76	101
19.013090	1.029318	-31.916159	77	73	104
19.888262	1.028104	-31.896660	81	76	103
20.331137	1.027308	-31.921923	76	75	105
20.998827	1.025996	-31.981302	76	77	100
21.444006	1.025124	-32.020653	81	78	104
22.337765	1.023267	-32.119751	75	73	102
22.818213	1.021187	-32.381577	66	65	90
23.840990	1.014971	-33.283855	64	63	89
24.359945	1.011649	-33.774006	67	62	89
25.146496	1.006450	-34.548401	65	60	89
25.408680	1.004733	-34.803455	64	60	86
25.932276	1.001349	-35.304302	67	61	84
26.194967	0.999639	-35.557964	65	63	84
26.459440	0.997877	-35.820976	64	62	85
26.994490	0.994177	-36.379303	64	64	87
27.263346	0.992297	-36.664051	67	65	89
28.333761	0.985021	-37.756756	66	63	92
28.600952	0.983236	-38.023544	68	68	91
29.406458	0.977801	-38.837967	65	64	83
29.675077	0.976002	-39.107040	65	63	83
30.757910	0.968619	-40.216751	65	65	88
31.034178	0.966618	-40.522503	66	65	89
31.847153	0.961164	-41.338623	66	65	89
32.114391	0.959479	-41.586143	67	65	88
33.207752	0.952054	-42.700943	74	73	87
33.487793	0.950011	-43.013691	85	85	88
-22.977835	0.806893	-43.462570	212	192	148
-22.126463	0.810694	-42.568066	92	92	114
-20.852879	0.816102	-41.278831	90	87	115
-20.642002	0.817067	-41.053177	90	87	112
-19.372154	0.822014	-39.846172	89	87	113
-18.111343	0.827139	-38.610207	86	85	108
-17.274820	0.830559	-37.786762	85	87	111
-16.028326	0.835879	-36.520340	86	85	114
