1.730558724799999837e+01 -1.826816606430000078e+01 2.430644965376000073e+02
1.640473712620000057e+01 -1.816606446420000154e+01 2.437950404826000010e+02
1.707979590069999887e+01 -1.823949027149999935e+01 2.432667409734999922e+02
1.709418102720000121e+01 -1.894449440449999855e+01 2.430313474559000042e+02
1.686958362580000070e+01 -1.892709576400000060e+01 2.431623245627000074e+02
1.640999122930000098e+01 -1.840708043140000072e+01 2.436772903288000123e+02
1.641556955889999969e+01 -1.865176370440000042e+01 2.435375798997999937e+02
1.642162922689999860e+01 -1.890189061639999935e+01 2.433651684829000033e+02
1.595724757890000056e+01 -1.813714833839999940e+01 2.440226413441000091e+02
1.597525628990000079e+01 -1.889085903979999870e+01 2.434806962710999869e+02
1.730997090360000001e+01 -1.849882376169999887e+01 2.430130888934000097e+02
1.707541762219999981e+01 -1.800876932499999938e+01 2.433194564999000136e+02
1.708435113730000054e+01 -1.847202957940000090e+01 2.432030717215999971e+02
1.685436129100000002e+01 -1.821248189889999836e+01 2.434586036816000103e+02
1.685914337770000060e+01 -1.844759400859999943e+01 2.433784157357999902e+02
1.686415599140000054e+01 -1.868515778260000104e+01 2.432835688913999945e+02
1.687557069469999860e+01 -1.917494994660000174e+01 2.430054707028000109e+02
1.664540965120000138e+01 -1.891290308010000132e+01 2.432735522110999966e+02
1.665176928920000066e+01 -1.916551439050000027e+01 2.430871636695000007e+02
1.639976933410000015e+01 -1.792826605919999849e+01 2.438934467734000009e+02
1.642826394220000097e+01 -1.915850581970000022e+01 2.431539484198999901e+02
1.618071136669999888e+01 -1.814902627880000097e+01 2.439248828155000126e+02
1.619197722570000053e+01 -1.864098815759999894e+01 2.436279827825999860e+02
1.619823904689999949e+01 -1.889434736220000133e+01 2.434354158703000053e+02
1.620502699609999908e+01 -1.915388226119999970e+01 2.432060829995000120e+02
1.596291154140000046e+01 -1.838425053170000112e+01 2.438665315462999956e+02
1.596887849860000053e+01 -1.863504223620000033e+01 2.436885526009000102e+02
1.598209051779999967e+01 -1.915224232610000143e+01 2.432398882656000012e+02
1.575264855470000036e+01 -1.889146662910000174e+01 2.435007438881999917e+02
1.553033992810000008e+01 -1.889567832490000043e+01 2.434985912237000036e+02
1.553712922819999953e+01 -1.915948015909999924e+01 2.432429254083000103e+02
1.730137991810000031e+01 -1.803925106299999825e+01 2.431053543330999958e+02
1.708909838259999958e+01 -1.870654347010000151e+01 2.431275689411000087e+02
1.662931331849999950e+01 -1.818762345100000033e+01 2.436370893357000114e+02
1.663433661770000072e+01 -1.842564552860000049e+01 2.435383441943999969e+02
1.663964066790000018e+01 -1.866673866629999878e+01 2.434212109711999972e+02
1.618617744310000006e+01 -1.839305048059999947e+01 2.437881087519999994e+02
1.574010024510000072e+01 -1.838011026590000085e+01 2.439160711563999939e+02
1.574619937679999992e+01 -1.863356343830000128e+01 2.437215220632000126e+02
1.575946646849999944e+01 -1.915408389870000150e+01 2.432523199926000075e+02
