-1.483846268149999936e+01 2.707907439490000101e+01 2.432665468234999935e+02
-1.480391844370000065e+01 2.643849472520000177e+01 2.437060415265000017e+02
-1.573300477799999975e+01 2.638144263630000097e+01 2.430265081320999911e+02
-1.485129756789999966e+01 2.729140381119999859e+01 2.430956638972999997e+02
-1.482602017059999966e+01 2.686646961969999836e+01 2.434302417842000068e+02
-1.479488423449999956e+01 2.622233199760000133e+01 2.438065081551000048e+02
-1.503455713810000027e+01 2.642583575229999937e+01 2.435615566282000088e+02
-1.529307243290000073e+01 2.706232774300000088e+01 2.431098908715999869e+02
-1.524874719129999967e+01 2.575183566709999994e+01 2.435211060711999949e+02
-1.552218662539999983e+01 2.705206994719999969e+01 2.430010218598000051e+02
-1.550626040110000048e+01 2.661607645930000032e+01 2.431575628903999871e+02
-1.549950803399999977e+01 2.639681802529999999e+01 2.432139718946999949e+02
-1.548325102339999937e+01 2.573471789730000125e+01 2.433108752654999876e+02
-1.572757792089999995e+01 2.616060300510000047e+01 2.430585881270999948e+02
-1.571826226940000026e+01 2.571724885020000073e+01 2.430952801224999860e+02
-1.438812127279999942e+01 2.709122382079999980e+01 2.433484976944000096e+02
-1.461283921090000071e+01 2.708564748750000106e+01 2.433156140988999994e+02
-1.459947254120000082e+01 2.687423514370000177e+01 2.434981283525999913e+02
-1.458671309310000019e+01 2.666229307189999886e+01 2.436693359310999938e+02
-1.457502472240000024e+01 2.644925813109999879e+01 2.438204956451000101e+02
-1.481435631409999942e+01 2.665312511360000158e+01 2.435795091127999967e+02
-1.478735799939999929e+01 2.600448304489999884e+01 2.438790026780000062e+02
-1.507693758509999959e+01 2.728498707429999826e+01 2.430487894444999881e+02
-1.506517261930000018e+01 2.707133184070000098e+01 2.431984498895999991e+02
-1.504365498059999950e+01 2.664215309169999912e+01 2.434608719969999981e+02
-1.502672289640000081e+01 2.620814102590000161e+01 2.436389786530999970e+02
-1.527442635889999956e+01 2.662963683990000163e+01 2.433175404181000090e+02
-1.526659791380000009e+01 2.641172859739999979e+01 2.433941188251999961e+02
-1.551382437190000019e+01 2.683448022290000168e+01 2.430864975863999859e+02
-1.549345579889999946e+01 2.617680902920000108e+01 2.432576989760000004e+02
-1.572271132969999918e+01 2.593915660649999921e+01 2.430806963971000130e+02
-1.437414457480000074e+01 2.688064851109999864e+01 2.435442721038000116e+02
-1.462644494879999968e+01 2.729696955989999907e+01 2.431286609510999881e+02
-1.456471039680000068e+01 2.623473891920000156e+01 2.439459363715000109e+02
-1.505397459169999941e+01 2.685717805020000171e+01 2.433377154471999972e+02
-1.502015890190000036e+01 2.598902765169999896e+01 2.436930501692000064e+02
-1.528331216740000009e+01 2.684642369550000041e+01 2.432216801460999989e+02
-1.525976381819999972e+01 2.619274389730000152e+01 2.434525580394999906e+02
-1.525388972750000072e+01 2.597269732799999886e+01 2.434934768990000009e+02
-1.548810227829999953e+01 2.595603858169999967e+01 2.432887981478000086e+02
