2.624767780303955078e+00 7.919137954711914062e+00 2.552124176025390625e+02
2.628135204315185547e+00 7.701677322387695312e+00 2.552051849365234375e+02
2.638709783554077148e+00 7.052477836608886719e+00 2.552132263183593750e+02
2.645936727523803711e+00 6.620915889739990234e+00 2.552297363281250000e+02
2.663757562637329102e+00 5.540460109710693359e+00 2.552556610107421875e+02
2.667055368423461914e+00 5.322503566741943359e+00 2.552440490722656250e+02
2.679792404174804688e+00 4.447322368621826172e+00 2.551690521240234375e+02
2.682955741882324219e+00 4.228325843811035156e+00 2.551489257812500000e+02
2.702068567276000977e+00 3.157452344894409180e+00 2.552565765380859375e+02
2.705954790115356445e+00 2.943823575973510742e+00 2.552821807861328125e+02
2.713334083557128906e+00 2.513707637786865234e+00 2.553086090087890625e+02
2.720015287399291992e+00 2.078366518020629883e+00 2.552908325195312500e+02
2.726335525512695312e+00 1.640235304832458496e+00 2.552501220703125000e+02
2.742964744567871094e+00 5.510013699531555176e-01 2.552006072998046875e+02
2.756823301315307617e+00 -3.161236047744750977e-01 2.551963348388671875e+02
2.763472557067871094e+00 -7.519380450248718262e-01 2.551763000488281250e+02
2.780864715576171875e+00 -1.835318684577941895e+00 2.551753234863281250e+02
2.784510850906372070e+00 -2.050610303878784180e+00 2.551858367919921875e+02
2.794718980789184570e+00 -2.702502250671386719e+00 2.551707000732421875e+02
2.801432847976684570e+00 -3.137884855270385742e+00 2.551547241210937500e+02
2.819575309753417969e+00 -4.214792728424072266e+00 2.552020721435546875e+02
2.823546648025512695e+00 -4.427184104919433594e+00 2.552335968017578125e+02
2.837247848510742188e+00 -5.295531272888183594e+00 2.552193298339843750e+02
2.843135833740234375e+00 -5.738246440887451172e+00 2.551499633789062500e+02
2.856372833251953125e+00 -6.610973834991455078e+00 2.551054077148437500e+02
2.859725952148437500e+00 -6.828779697418212891e+00 2.550971374511718750e+02
2.874045372009277344e+00 -7.691788196563720703e+00 2.551226196289062500e+02
2.881181240081787109e+00 -8.123461723327636719e+00 2.551338500976562500e+02
2.897820472717285156e+00 -9.213822364807128906e+00 2.550839691162109375e+02
2.911617994308471680e+00 -1.008162975311279297e+01 2.550755920410156250e+02
2.917734384536743164e+00 -1.052308940887451172e+01 2.550203094482421875e+02
2.934818506240844727e+00 -1.160962200164794922e+01 2.549990234375000000e+02
2.938295125961303711e+00 -1.182634639739990234e+01 2.549987030029296875e+02
2.947544097900390625e+00 -1.248831081390380859e+01 2.549201660156250000e+02
2.945082902908325195e+00 -1.301653766632080078e+01 2.543009948730468750e+02
2.928325891494750977e+00 -1.369101524353027344e+01 2.527406158447265625e+02
2.918916702270507812e+00 -1.404006576538085938e+01 2.518913879394531250e+02
2.912097692489624023e+00 -1.436362838745117188e+01 2.512118377685546875e+02
2.908221006393432617e+00 -1.465782737731933594e+01 2.507252960205078125e+02
2.234458923339843750e+00 1.498879241943359375e+01 2.519250793457031250e+02
2.245959520339965820e+00 1.481357479095458984e+01 2.524029693603515625e+02
2.258298873901367188e+00 1.464341163635253906e+01 2.529314117431640625e+02
2.294297933578491211e+00 1.413067340850830078e+01 2.544587402343750000e+02
2.332385301589965820e+00 1.268952846527099609e+01 2.552799377441406250e+02
2.353137016296386719e+00 1.138856697082519531e+01 2.552712097167968750e+02
2.485797643661499023e+00 3.157924413681030273e+00 2.552915802001953125e+02
2.510259628295898438e+00 1.642262697219848633e+00 2.552971496582031250e+02
2.520591974258422852e+00 9.915894865989685059e-01 2.552902221679687500e+02
2.675704002380371094e+00 -8.768497467041015625e+00 2.551933288574218750e+02
1.996424555778503418e+00 1.535750389099121094e+01 2.511996154785156250e+02
2.005738735198974609e+00 1.516885185241699219e+01 2.515361938476562500e+02
2.016322374343872070e+00 1.498717117309570312e+01 2.519467773437500000e+02
2.028066396713256836e+00 1.481200885772705078e+01 2.524251403808593750e+02
2.125858545303344727e+00 1.203526496887207031e+01 2.552733306884765625e+02
2.307421922683715820e+00 7.725749611854553223e-01 2.553003387451171875e+02
2.398018360137939453e+00 -4.858180046081542969e+00 2.553044433593750000e+02
2.401528835296630859e+00 -5.074506759643554688e+00 2.553062286376953125e+02
2.459102392196655273e+00 -8.770131111145019531e+00 2.552077484130859375e+02
2.466322660446166992e+00 -9.201038360595703125e+00 2.552234649658203125e+02
2.476687669754028320e+00 -9.851499557495117188e+00 2.552185363769531250e+02
2.486128807067871094e+00 -1.051034545898437500e+01 2.551569061279296875e+02
2.496669530868530273e+00 -1.115929985046386719e+01 2.551626739501953125e+02
2.507434129714965820e+00 -1.180612945556640625e+01 2.551823577880859375e+02
2.514459848403930664e+00 -1.223872756958007812e+01 2.551861267089843750e+02
2.515574216842651367e+00 -1.297667121887207031e+01 2.546101989746093750e+02
2.507736206054687500e+00 -1.330097961425781250e+01 2.539108276367187500e+02
2.496331453323364258e+00 -1.366002941131591797e+01 2.529904479980468750e+02
2.484681844711303711e+00 -1.402246475219726562e+01 2.520539855957031250e+02
2.475982427597045898e+00 -1.435764598846435547e+01 2.512991180419921875e+02
2.470942258834838867e+00 -1.465843868255615234e+01 2.507699890136718750e+02
1.822983741760253906e+00 1.463998508453369141e+01 2.529722442626953125e+02
1.836042642593383789e+00 1.447145462036132812e+01 2.535126495361328125e+02
1.859868645668029785e+00 1.412414741516113281e+01 2.544651184082031250e+02
1.869316577911376953e+00 1.393831348419189453e+01 2.548024291992187500e+02
1.886960625648498535e+00 1.332585334777832031e+01 2.552095184326171875e+02
1.898723840713500977e+00 1.268277931213378906e+01 2.552838439941406250e+02
1.908880710601806641e+00 1.203108882904052734e+01 2.552670440673828125e+02
1.919084787368774414e+00 1.137962436676025391e+01 2.552529144287109375e+02
1.925986170768737793e+00 1.094585609436035156e+01 2.552490997314453125e+02
1.936691164970397949e+00 1.029723072052001953e+01 2.552634887695312500e+02
1.946287274360656738e+00 9.642174720764160156e+00 2.552145996093750000e+02
1.956246733665466309e+00 8.989134788513183594e+00 2.551863555908203125e+02
1.966518282890319824e+00 8.337896347045898438e+00 2.551758880615234375e+02
1.977159380912780762e+00 7.688909530639648438e+00 2.551866607666015625e+02
1.984391450881958008e+00 7.257132053375244141e+00 2.552017822265625000e+02
1.995106935501098633e+00 6.608701705932617188e+00 2.552168884277343750e+02
2.006274461746215820e+00 5.963215351104736328e+00 2.552580718994140625e+02
2.016919612884521484e+00 5.314498424530029297e+00 2.552692718505859375e+02
2.026680707931518555e+00 4.660026073455810547e+00 2.552294464111328125e+02
2.033390998840332031e+00 4.224997520446777344e+00 2.552146148681640625e+02
2.044666767120361328e+00 3.580525636672973633e+00 2.552622833251953125e+02
2.052143096923828125e+00 3.150698184967041016e+00 2.552918243408203125e+02
2.055772304534912109e+00 2.935069799423217773e+00 2.553002929687500000e+02
2.066990613937377930e+00 2.290519952774047852e+00 2.553448791503906250e+02
2.076546430587768555e+00 1.634498357772827148e+00 2.552930755615234375e+02
2.079892873764038086e+00 1.416920900344848633e+00 2.552851257324218750e+02
2.087057828903198242e+00 9.850986599922180176e-01 2.552967071533203125e+02
2.093877315521240234e+00 5.508352518081665039e-01 2.552882080078125000e+02
2.104359865188598633e+00 -9.875265508890150590e-02 2.552901611328125000e+02
2.114122867584228516e+00 -7.536063194274902344e-01 2.552501373291015625e+02
2.123744964599609375e+00 -1.409623265266418457e+00 2.552017974853515625e+02
2.135132789611816406e+00 -2.052474021911621094e+00 2.552566986083984375e+02
2.142391681671142578e+00 -2.483464479446411133e+00 2.552738800048828125e+02
2.152459621429443359e+00 -3.136190652847290039e+00 2.552515563964843750e+02
2.162497997283935547e+00 -3.789203166961669922e+00 2.552274627685546875e+02
2.172966003417968750e+00 -4.438886642456054688e+00 2.552286376953125000e+02
2.184227705001831055e+00 -5.082216262817382812e+00 2.552765350341796875e+02
2.193922281265258789e+00 -5.738052368164062500e+00 2.552320861816406250e+02
2.200673341751098633e+00 -6.172996044158935547e+00 2.552194519042968750e+02
2.211241960525512695e+00 -6.821815967559814453e+00 2.552265472412109375e+02
2.221485137939453125e+00 -7.473311424255371094e+00 2.552144012451171875e+02
2.231880903244018555e+00 -8.123538017272949219e+00 2.552113494873046875e+02
1.838549852371215820e+00 2.928833007812500000e+00 2.552781066894531250e+02
1.856198191642761230e+00 1.847235918045043945e+00 2.552910461425781250e+02
1.869647860527038574e+00 9.774156212806701660e-01 2.552635803222656250e+02
1.331769704818725586e+00 1.554413986206054688e+01 2.509578704833984375e+02
1.340590715408325195e+00 1.535048866271972656e+01 2.512413177490234375e+02
1.350520849227905273e+00 1.516244220733642578e+01 2.515844268798828125e+02
1.374289512634277344e+00 1.480631732940673828e+01 2.524806671142578125e+02
1.426073074340820312e+00 1.412075233459472656e+01 2.545054779052734375e+02
1.435699701309204102e+00 1.393418502807617188e+01 2.548346099853515625e+02
1.457507610321044922e+00 1.310646724700927734e+01 2.552566223144531250e+02
1.465070962905883789e+00 1.267609691619873047e+01 2.552884368896484375e+02
1.478613495826721191e+00 1.180725097656250000e+01 2.552669372558593750e+02
1.485273957252502441e+00 1.137221622467041016e+01 2.552501983642578125e+02
1.495318889617919922e+00 1.071989250183105469e+01 2.552279205322265625e+02
1.502632975578308105e+00 1.028835201263427734e+01 2.552464447021484375e+02
1.515926480293273926e+00 9.417968750000000000e+00 2.552113494873046875e+02
1.522149205207824707e+00 8.980338096618652344e+00 2.551707458496093750e+02
1.535781025886535645e+00 8.111661911010742188e+00 2.551538391113281250e+02
1.542756319046020508e+00 7.678225994110107422e+00 2.551539916992187500e+02
1.553682446479797363e+00 7.030817508697509766e+00 2.551794586181640625e+02
1.561249613761901855e+00 6.600949287414550781e+00 2.552118835449218750e+02
1.576279997825622559e+00 5.740802764892578125e+00 2.552712249755859375e+02
1.583382606506347656e+00 5.308310985565185547e+00 2.552785034179687500e+02
1.596672892570495605e+00 4.437674999237060547e+00 2.552430267333984375e+02
1.600238204002380371e+00 4.221515655517578125e+00 2.552473907470703125e+02
1.614546418190002441e+00 3.357250690460205078e+00 2.552675933837890625e+02
1.621344327926635742e+00 2.922862529754638672e+00 2.552581787109375000e+02
1.638828516006469727e+00 1.840054512023925781e+00 2.552615051269531250e+02
1.641797780990600586e+00 1.620003938674926758e+00 2.552331542968750000e+02
1.655761718750000000e+00 7.535891532897949219e-01 2.552345275878906250e+02
1.659478425979614258e+00 5.385214090347290039e-01 2.552473449707031250e+02
1.673996806144714355e+00 -3.240133523941040039e-01 2.552793273925781250e+02
1.680467963218688965e+00 -7.606960535049438477e-01 2.552518615722656250e+02
1.693405270576477051e+00 -1.634260296821594238e+00 2.551965026855468750e+02
1.700786590576171875e+00 -2.064613342285156250e+00 2.552193145751953125e+02
1.711776256561279297e+00 -2.710633516311645508e+00 2.552490539550781250e+02
1.718635678291320801e+00 -3.144657373428344727e+00 2.552429656982421875e+02
1.731852889060974121e+00 -4.016434192657470703e+00 2.552029571533203125e+02
1.738567233085632324e+00 -4.451585769653320312e+00 2.551888122558593750e+02
1.753165960311889648e+00 -5.313099384307861328e+00 2.552256164550781250e+02
1.759990334510803223e+00 -5.747414588928222656e+00 2.552176055908203125e+02
1.770991206169128418e+00 -6.392998218536376953e+00 2.552482299804687500e+02
1.778307437896728516e+00 -6.823464870452880859e+00 2.552677001953125000e+02
1.791848897933959961e+00 -7.692890644073486328e+00 2.552456665039062500e+02
1.798122763633728027e+00 -8.131595611572265625e+00 2.552068023681640625e+02
1.811309456825256348e+00 -9.004074096679687500e+00 2.551646728515625000e+02
1.815059185028076172e+00 -9.218529701232910156e+00 2.551795806884765625e+02
1.828552007675170898e+00 -1.008861732482910156e+01 2.551546325683593750e+02
1.835198879241943359e+00 -1.052452182769775391e+01 2.551365203857421875e+02
1.850319027900695801e+00 -1.138099765777587891e+01 2.552032775878906250e+02
1.857206940650939941e+00 -1.181484699249267578e+01 2.551987457275390625e+02
1.868553757667541504e+00 -1.270352935791015625e+01 2.550522918701171875e+02
1.865659475326538086e+00 -1.297549057006835938e+01 2.546911926269531250e+02
1.814799189567565918e+00 -1.466259574890136719e+01 2.508161773681640625e+02
1.143436312675476074e+00 1.497823333740234375e+01 2.520062866210937500e+02
1.170061945915222168e+00 1.463448715209960938e+01 2.530294799804687500e+02
1.184065937995910645e+00 1.446671485900878906e+01 2.535778198242187500e+02
1.254866242408752441e+00 1.223760795593261719e+01 2.552724151611328125e+02
1.639503479003906250e+00 -1.330244922637939453e+01 2.539988403320312500e+02
1.626077771186828613e+00 -1.366342163085937500e+01 2.530659790039062500e+02
1.612137794494628906e+00 -1.402981376647949219e+01 2.521039123535156250e+02
1.601683020591735840e+00 -1.436743450164794922e+01 2.513333740234375000e+02
1.592690229415893555e+00 -1.494248771667480469e+01 2.504484558105468750e+02
6.843745708465576172e-01 1.534137630462646484e+01 2.512593841552734375e+02
6.947174668312072754e-01 1.515293502807617188e+01 2.515979309082031250e+02
7.066397666931152344e-01 1.497188186645507812e+01 2.520150604248046875e+02
7.200487852096557617e-01 1.479793357849121094e+01 2.525063476562500000e+02
7.344740033149719238e-01 1.462908744812011719e+01 2.530485534667968750e+02
7.490767240524291992e-01 1.446160888671875000e+01 2.535999145507812500e+02
7.628769278526306152e-01 1.429105186462402344e+01 2.541118621826171875e+02
7.849180698394775391e-01 1.392590999603271484e+01 2.548604278564453125e+02
8.025881052017211914e-01 1.330894851684570312e+01 2.552188873291015625e+02
8.136765360832214355e-01 1.266173648834228516e+01 2.552500000000000000e+02
8.239806890487670898e-01 1.201083087921142578e+01 2.552420349121093750e+02
8.343113064765930176e-01 1.136004543304443359e+01 2.552354125976562500e+02
8.409868478775024414e-01 1.092513084411621094e+01 2.552203979492187500e+02
8.507431149482727051e-01 1.027140808105468750e+01 2.551849670410156250e+02
8.617696166038513184e-01 9.624112129211425781e+00 2.552131347656250000e+02
8.718022108078002930e-01 8.971733093261718750e+00 2.551914978027343750e+02
8.817191123962402344e-01 8.318692207336425781e+00 2.551640625000000000e+02
8.915588855743408203e-01 7.665153980255126953e+00 2.551326293945312500e+02
8.986834287643432617e-01 7.232482910156250000e+00 2.551400909423828125e+02
9.105710387229919434e-01 6.590128421783447266e+00 2.552117919921875000e+02
9.218872785568237305e-01 5.944825649261474609e+00 2.552548828125000000e+02
9.326635599136352539e-01 5.296615600585937500e+00 2.552708435058593750e+02
9.426935911178588867e-01 4.644168853759765625e+00 2.552490234375000000e+02
9.501462578773498535e-01 4.213624000549316406e+00 2.552732696533203125e+02
9.607956409454345703e-01 3.564793586730957031e+00 2.552828521728515625e+02
9.706928133964538574e-01 2.911517143249511719e+00 2.552542724609375000e+02
9.813216924667358398e-01 2.262590646743774414e+00 2.552628326416015625e+02
9.906454682350158691e-01 1.605697154998779297e+00 2.552049865722656250e+02
1.000165343284606934e+00 9.498542547225952148e-01 2.551570434570312500e+02
1.007300496101379395e+00 5.174908638000488281e-01 2.551652374267578125e+02
1.018660187721252441e+00 -1.268426477909088135e-01 2.552110443115234375e+02
1.029530763626098633e+00 -7.741565108299255371e-01 2.552320098876953125e+02
1.039289474487304688e+00 -1.428634405136108398e+00 2.551961517333984375e+02
1.049325108528137207e+00 -2.081394195556640625e+00 2.551743469238281250e+02
1.056355118751525879e+00 -2.514336347579956055e+00 2.551772308349609375e+02
1.067109823226928711e+00 -3.162308692932128906e+00 2.551923675537109375e+02
1.078174233436584473e+00 -3.808112621307373047e+00 2.552234191894531250e+02
1.088013887405395508e+00 -4.462260723114013672e+00 2.551915283203125000e+02
1.098053336143493652e+00 -5.115105152130126953e+00 2.551698303222656250e+02
1.109270930290222168e+00 -5.759664058685302734e+00 2.552089538574218750e+02
1.117048740386962891e+00 -6.187168121337890625e+00 2.552504730224609375e+02
1.127512097358703613e+00 -6.836913108825683594e+00 2.552507476806640625e+02
1.138019323348999023e+00 -7.486319541931152344e+00 2.552533416748046875e+02
1.148702740669250488e+00 -8.134410858154296875e+00 2.552650451660156250e+02
1.158163070678710938e+00 -8.791575431823730469e+00 2.552133636474609375e+02
1.165161728858947754e+00 -9.224576950073242188e+00 2.552147064208984375e+02
1.175594568252563477e+00 -9.874540328979492188e+00 2.552134552001953125e+02
1.184867262840270996e+00 -1.053342819213867188e+01 2.551517944335937500e+02
1.196004033088684082e+00 -1.117800998687744141e+01 2.551870727539062500e+02
1.206878781318664551e+00 -1.182451820373535156e+01 2.552088165283203125e+02
1.216695904731750488e+00 -1.247934818267822266e+01 2.551753845214843750e+02
1.213242292404174805e+00 -1.299603366851806641e+01 2.546303710937500000e+02
1.203161954879760742e+00 -1.332196807861328125e+01 2.539206390380859375e+02
1.188884615898132324e+00 -1.368253135681152344e+01 2.529907836914062500e+02
1.174331545829772949e+00 -1.404635524749755859e+01 2.520456848144531250e+02
1.163389921188354492e+00 -1.438188457489013672e+01 2.512889099121093750e+02
1.156948447227478027e+00 -1.468155002593994141e+01 2.507672882080078125e+02
1.153818845748901367e+00 -1.495468902587890625e+01 2.504188232421875000e+02
7.507027387619018555e-01 -1.370801544189453125e+01 2.528742523193359375e+02
3.897510841488840277e-02 1.514362716674804688e+01 2.516136779785156250e+02
1.336745470762253085e-01 1.391544055938720703e+01 2.548625640869140625e+02
1.584761887788773138e-01 1.286332893371582031e+01 2.552033691406250000e+02
1.622925251722336093e-01 1.264803695678710938e+01 2.552185058593750000e+02
1.761258989572525024e-01 1.178054237365722656e+01 2.552126159667968750e+02
1.833408623933792114e-01 1.134816360473632812e+01 2.552235412597656250e+02
2.002203911542891901e-01 1.026188182830810547e+01 2.551969299316406250e+02
2.146258354187011996e-01 9.397119522094726562e+00 2.552177124023437500e+02
2.218414098024368009e-01 8.964842796325683594e+00 2.552287445068359375e+02
2.371783405542373935e-01 7.870810508728027344e+00 2.551298370361328125e+02
2.404003590345382968e-01 7.652718544006347656e+00 2.551172332763671875e+02
2.516660988330841064e-01 7.006510734558105469e+00 2.551545257568359375e+02
2.593336105346680243e-01 6.576583385467529297e+00 2.551867828369140625e+02
2.803135812282562256e-01 5.276562213897705078e+00 2.551887359619140625e+02
2.944687604904174805e-01 4.410822868347167969e+00 2.551979980468750000e+02
2.982625365257263184e-01 4.195779800415039062e+00 2.552123565673828125e+02
3.163067400455474854e-01 3.115685701370239258e+00 2.552406005859375000e+02
3.200824558734893799e-01 2.900614023208618164e+00 2.552541198730468750e+02
3.343190848827362061e-01 2.035597562789916992e+00 2.552674407958984375e+02
3.408587276935576837e-01 1.599808096885681152e+00 2.552466735839843750e+02
3.596074283123015802e-01 2.871296107769011896e-01 2.551430358886718750e+02
3.708094060420989990e-01 -3.585897088050841730e-01 2.551778869628906250e+02
3.781209290027617853e-01 -7.899343967437744141e-01 2.551937561035156250e+02
3.960991799831389826e-01 -1.869969487190246582e+00 2.552191467285156250e+02
3.996757268905640204e-01 -2.086074829101562500e+00 2.552233123779296875e+02
4.090460240840911865e-01 -2.742795467376708984e+00 2.551710815429687500e+02
4.159145951271057129e-01 -3.176804542541503906e+00 2.551658172607421875e+02
4.380972981452941895e-01 -4.468722343444824219e+00 2.552256164550781250e+02
4.516324102878571112e-01 -5.337942123413085938e+00 2.552055358886718750e+02
4.587499499320983887e-01 -5.770270824432373047e+00 2.552122955322265625e+02
4.729085564613341730e-01 -6.635382652282714844e+00 2.552221221923828125e+02
4.761606156826018732e-01 -6.853578090667724609e+00 2.552107696533203125e+02
4.912046492099761963e-01 -7.712606906890869141e+00 2.552632598876953125e+02
4.991347193717957098e-01 -8.139221191406250000e+00 2.553092498779296875e+02
5.176967382431030273e-01 -9.455137252807617188e+00 2.551952667236328125e+02
5.277836918830871582e-01 -1.010763549804687500e+01 2.551770324707031250e+02
5.347192883491516113e-01 -1.054115772247314453e+01 2.551750183105468750e+02
5.536754727363586426e-01 -1.161316108703613281e+01 2.552484588623046875e+02
5.570468306541442871e-01 -1.183057975769042969e+01 2.552428131103515625e+02
5.650033950805664062e-01 -1.274128627777099609e+01 2.549518890380859375e+02
5.593996644020080566e-01 -1.302565479278564453e+01 2.545103149414062500e+02
4.985261261463164728e-01 -1.470353603363037109e+01 2.506989135742187500e+02
4.951474368572235107e-01 -1.497477054595947266e+01 2.503629608154296875e+02
-1.910895109176636020e-01 1.532702064514160156e+01 2.512586669921875000e+02
-1.522250175476073941e-01 1.478664875030517578e+01 2.525393981933593750e+02
-1.366157829761505127e-01 1.461833095550537109e+01 2.530871124267578125e+02
-1.207983791828155934e-01 1.445144557952880859e+01 2.536446533203125000e+02
-1.059548631310462952e-01 1.428108882904052734e+01 2.541584167480468750e+02
-2.643456123769280172e-02 1.091187286376953125e+01 2.552308197021484375e+02
5.301004648208620246e-02 5.923482894897460938e+00 2.551925201416015625e+02
1.333395987749100009e-01 9.399273991584777832e-01 2.551951141357421875e+02
2.105903327465057095e-01 -3.823599100112915039e+00 2.552174835205078125e+02
2.919014394283295233e-01 -8.798598289489746094e+00 2.552676239013671875e+02
2.976872026920319159e-01 -1.408425521850585938e+01 2.518981323242187500e+02
2.860045433044434149e-01 -1.441448402404785156e+01 2.511761779785156250e+02
-3.849635720252990723e-01 1.495746135711669922e+01 2.520532226562500000e+02
1.125396788120270053e-01 -1.336396408081054688e+01 2.537693939208984375e+02
9.570693969726559724e-02 -1.372674083709716797e+01 2.528259735107421875e+02
7.920519262552259965e-02 -1.408815479278564453e+01 2.518972930908203125e+02
6.711155921220779419e-02 -1.441881370544433594e+01 2.511726074218750000e+02
5.997341871261600149e-02 -1.471443653106689453e+01 2.506775054931640625e+02
5.626699700951579702e-02 -1.498569107055664062e+01 2.503415374755859375e+02
-6.293458342552185059e-01 1.531789684295654297e+01 2.512364196777343750e+02
-6.170576810836791992e-01 1.513311862945556641e+01 2.516159973144531250e+02
-6.032561659812927246e-01 1.495463657379150391e+01 2.520615081787109375e+02
-5.880257487297058105e-01 1.478220558166503906e+01 2.525691833496093750e+02
-5.718053579330444336e-01 1.461420249938964844e+01 2.531201477050781250e+02
-5.554963946342468262e-01 1.444712352752685547e+01 2.536753234863281250e+02
-5.402706265449523926e-01 1.427630805969238281e+01 2.541838684082031250e+02
-5.169989466667175293e-01 1.390734958648681641e+01 2.548903503417968750e+02
-5.000092387199401855e-01 1.328328418731689453e+01 2.551730499267578125e+02
-4.892732501029968262e-01 1.263407611846923828e+01 2.551842956542968750e+02
-4.780714511871337891e-01 1.198688411712646484e+01 2.552158203125000000e+02
-4.676603674888610840e-01 1.133640575408935547e+01 2.552129516601562500e+02
-4.608028531074523926e-01 1.090239620208740234e+01 2.552074432373046875e+02
-4.506869614124298096e-01 1.025061893463134766e+01 2.551917266845703125e+02
-4.398722946643828791e-01 9.601932525634765625e+00 2.552064971923828125e+02
-4.290072619915009100e-01 8.953536033630371094e+00 2.552235107421875000e+02
-4.195043444633483887e-01 8.298915863037109375e+00 2.551809234619140625e+02
-4.096253812313079834e-01 7.645933151245117188e+00 2.551547088623046875e+02
-4.021104574203491211e-01 7.214972972869873047e+00 2.551779937744140625e+02
-3.907268643379210871e-01 6.569171905517578125e+00 2.552178802490234375e+02
-3.808086812496184748e-01 5.916367053985595703e+00 2.551934204101562500e+02
-3.709903657436370850e-01 5.263001441955566406e+00 2.551645050048828125e+02
-3.602626621723175049e-01 4.614114761352539062e+00 2.551755828857421875e+02
-3.533524870872498114e-01 4.180329799652099609e+00 2.551723480224609375e+02
-3.428336083889008123e-01 3.530435323715209961e+00 2.551742706298828125e+02
-3.312671482563018799e-01 2.886006116867065430e+00 2.552224884033203125e+02
-3.197463452816010077e-01 2.241508245468139648e+00 2.552688446044921875e+02
-3.094477355480194092e-01 1.590639114379882812e+00 2.552611389160156250e+02
-3.003703355789185125e-01 9.331548810005187988e-01 2.551993103027343750e+02
-2.939579486846923828e-01 4.966957867145537775e-01 2.551740112304687500e+02
-2.840764522552490234e-01 -1.566241383552550992e-01 2.551477050781250000e+02
-2.732776999473571777e-01 -8.048780560493469238e-01 2.551621551513671875e+02
-2.619584500789641779e-01 -1.450127840042114258e+00 2.551997528076171875e+02
-2.501356601715087891e-01 -2.092352867126464844e+00 2.552598724365234375e+02
-2.441385984420776090e-01 -2.531299829483032227e+00 2.552160034179687500e+02
-2.347038090229033869e-01 -3.187302350997924805e+00 2.551697540283203125e+02
-2.233433276414870938e-01 -3.832031011581420898e+00 2.552093353271484375e+02
-2.123489975929259976e-01 -4.478807926177978516e+00 2.552327117919921875e+02
-2.014779895544052124e-01 -5.126244544982910156e+00 2.552506408691406250e+02
-1.915444135665894110e-01 -5.779376983642578125e+00 2.552265625000000000e+02
-1.850022077560425082e-01 -6.215331554412841797e+00 2.552068939208984375e+02
-1.742473840713500977e-01 -6.863426208496093750e+00 2.552196502685546875e+02
-1.639466583728790006e-01 -7.514355182647705078e+00 2.552119598388671875e+02
-1.523690372705459872e-01 -8.157097816467285156e+00 2.552617950439453125e+02
-1.423927545547485074e-01 -8.810056686401367188e+00 2.552395629882812500e+02
-1.373511701822280884e-01 -9.255908012390136719e+00 2.551522064208984375e+02
-1.277567297220230103e-01 -9.911598205566406250e+00 2.551126556396484375e+02
-1.164085641503334045e-01 -1.055569744110107422e+01 2.551521759033203125e+02
-1.047255173325539052e-01 -1.119739151000976562e+01 2.552069549560546875e+02
-9.400595724582669344e-02 -1.184546470642089844e+01 2.552183074951171875e+02
-8.762361854314799914e-02 -1.228274631500244141e+01 2.551912231445312500e+02
-9.177742898464200105e-02 -1.303413772583007812e+01 2.545282287597656250e+02
-1.047416776418686052e-01 -1.336581039428710938e+01 2.537817840576171875e+02
-1.220740750432014049e-01 -1.372886466979980469e+01 2.528365936279296875e+02
-1.078711748123168945e+00 1.549984550476074219e+01 2.509015197753906250e+02
-1.067398786544799805e+00 1.530972671508789062e+01 2.512248992919921875e+02
-1.054620504379272461e+00 1.512538814544677734e+01 2.516094360351562500e+02
-1.024379730224609375e+00 1.477550983428955078e+01 2.525740356445312500e+02
-5.760009884834289551e-01 -1.409808826446533203e+01 2.519061737060546875e+02
-5.975837111473083496e-01 -1.472824859619140625e+01 2.506616821289062500e+02
-1.258953928947448730e+00 1.494304084777832031e+01 2.520516510009765625e+02
-1.178859710693359375e+00 1.408697891235351562e+01 2.546020507812500000e+02
-1.168311476707458496e+00 1.389662933349609375e+01 2.548897857666015625e+02
-1.147684574127197266e+00 1.305471324920654297e+01 2.551611480712890625e+02
-1.140357375144958496e+00 1.262249374389648438e+01 2.551749572753906250e+02
-1.124948620796203613e+00 1.176117706298828125e+01 2.552335357666015625e+02
-1.118572592735290527e+00 1.132524871826171875e+01 2.552084655761718750e+02
-1.109132647514343262e+00 1.067075824737548828e+01 2.551656951904296875e+02
-1.102192640304565430e+00 1.023704719543457031e+01 2.551636962890625000e+02
-1.087649703025817871e+00 9.372438430786132812e+00 2.551869201660156250e+02
-1.080856561660766602e+00 8.938131332397460938e+00 2.551788787841796875e+02
-1.066534757614135742e+00 8.072696685791015625e+00 2.551930999755859375e+02
-1.059165477752685547e+00 7.640928745269775391e+00 2.552088165283203125e+02
-1.048537492752075195e+00 6.991440773010253906e+00 2.552148284912109375e+02
-1.041071176528930664e+00 6.560189247131347656e+00 2.552346038818359375e+02
-1.027541995048522949e+00 5.691366195678710938e+00 2.552162017822265625e+02
-1.020733475685119629e+00 5.257138729095458984e+00 2.552088165283203125e+02
-1.007486820220947266e+00 4.386903285980224609e+00 2.551786804199218750e+02
-1.004060268402099609e+00 4.169872760772705078e+00 2.551758880615234375e+02
-9.888967275619506836e-01 3.308795690536499023e+00 2.552251892089843750e+02
-9.817349314689636230e-01 2.876291036605834961e+00 2.552324523925781250e+02
-9.684126973152160645e-01 2.006372451782226562e+00 2.552054443359375000e+02
-9.619037508964538574e-01 1.570613980293273926e+00 2.551855773925781250e+02
-9.484993219375610352e-01 7.009611129760742188e-01 2.551618804931640625e+02
-9.452540278434753418e-01 4.829889833927155096e-01 2.551515045166015625e+02
-9.314079880714416504e-01 -3.844639956951140802e-01 2.551461791992187500e+02
-9.233829975128173828e-01 -8.123972415924072266e-01 2.551894989013671875e+02
-9.088569283485412598e-01 -1.676121592521667480e+00 2.552126312255859375e+02
-9.018835425376892090e-01 -2.109500169754028320e+00 2.552120971679687500e+02
-8.925198316574096680e-01 -2.765538454055786133e+00 2.551654357910156250e+02
-8.859749436378479004e-01 -3.201314210891723633e+00 2.551469268798828125e+02
-8.704440593719482422e-01 -4.059310436248779297e+00 2.552122650146484375e+02
-8.626884818077087402e-01 -4.488252639770507812e+00 2.552445831298828125e+02
-8.483824729919433594e-01 -5.352807521820068359e+00 2.552587585449218750e+02
-8.418691754341125488e-01 -5.788747787475585938e+00 2.552389221191406250e+02
-8.320965170860290527e-01 -6.442706108093261719e+00 2.552092895507812500e+02
-8.249112963676452637e-01 -6.874782085418701172e+00 2.552177276611328125e+02
-8.110185265541076660e-01 -7.741718769073486328e+00 2.552144927978515625e+02
-8.034193515777587891e-01 -8.171254158020019531e+00 2.552404479980468750e+02
-7.895944714546203613e-01 -9.038531303405761719e+00 2.552343902587890625e+02
-7.867146134376525879e-01 -9.258882522583007812e+00 2.552085113525390625e+02
-7.746335864067077637e-01 -1.013706207275390625e+01 2.551286010742187500e+02
-7.670231461524963379e-01 -1.056643676757812500e+01 2.551550598144531250e+02
-7.526417970657348633e-01 -1.143033123016357422e+01 2.551725158691406250e+02
-7.454887032508850098e-01 -1.186247920989990234e+01 2.551797027587890625e+02
-7.382182478904724121e-01 -1.229384899139404297e+01 2.551918640136718750e+02
-7.429295182228088379e-01 -1.304261589050292969e+01 2.545461730957031250e+02
-7.570156455039978027e-01 -1.337451171875000000e+01 2.537983856201171875e+02
-7.758473753929138184e-01 -1.373834991455078125e+01 2.528482208251953125e+02
-8.086130619049072266e-01 -1.443673610687255859e+01 2.511544799804687500e+02
-1.444555878639221191e+00 1.459676170349121094e+01 2.530850982666015625e+02
-1.427155256271362305e+00 1.442969417572021484e+01 2.536404571533203125e+02
-1.724529743194580078e+00 1.529752159118652344e+01 2.512082061767578125e+02
-1.711781740188598633e+00 1.511109161376953125e+01 2.515693817138671875e+02
-1.697447419166564941e+00 1.493062400817871094e+01 2.519929351806640625e+02
-1.681556224822998047e+00 1.475610828399658203e+01 2.524777679443359375e+02
-1.664528369903564453e+00 1.458614349365234375e+01 2.530074920654296875e+02
-1.647295832633972168e+00 1.441746616363525391e+01 2.535455932617187500e+02
-1.617226004600524902e+00 1.406584739685058594e+01 2.544502258300781250e+02
-1.606447815895080566e+00 1.387522983551025391e+01 2.547358551025390625e+02
-1.589503765106201172e+00 1.324814987182617188e+01 2.549891052246093750e+02
-1.556224703788757324e+00 1.130347156524658203e+01 2.550601501464843750e+02
-1.549546241760253906e+00 1.086860752105712891e+01 2.550477142333984375e+02
-1.538563609123229980e+00 1.022012710571289062e+01 2.550671386718750000e+02
-1.527839660644531250e+00 9.570672035217285156e+00 2.550764007568359375e+02
-1.517510294914245605e+00 8.919633865356445312e+00 2.550700531005859375e+02
-1.506614327430725098e+00 8.270953178405761719e+00 2.550861206054687500e+02
-1.494958162307739258e+00 7.625560760498046875e+00 2.551323852539062500e+02
-1.487838625907897949e+00 7.192598819732666016e+00 2.551374511718750000e+02
-1.476762294769287109e+00 6.544910430908203125e+00 2.551608276367187500e+02
-1.466345310211181641e+00 5.894403457641601562e+00 2.551580657958984375e+02
-1.455869078636169434e+00 5.244168281555175781e+00 2.551576690673828125e+02
-1.446246981620788574e+00 4.590076923370361328e+00 2.551233062744140625e+02
-1.439642310142517090e+00 4.154828548431396484e+00 2.551078948974609375e+02
-1.428293228149414062e+00 3.508585691452026367e+00 2.551422271728515625e+02
-1.416983366012573242e+00 2.862284660339355469e+00 2.551751098632812500e+02
-1.407490253448486328e+00 2.207454204559326172e+00 2.551355133056640625e+02
-1.397940754890441895e+00 1.552786469459533691e+00 2.550980987548828125e+02
-1.390593051910400391e+00 1.121053576469421387e+00 2.551123809814453125e+02
-1.380035638809204102e+00 4.712303578853607178e-01 2.551152038574218750e+02
-1.369904756546020508e+00 -1.806943565607070923e-01 2.551009826660156250e+02
-1.357748031616210938e+00 -8.224194049835205078e-01 2.551679687500000000e+02
-1.347548723220825195e+00 -1.473930358886718750e+00 2.551565399169921875e+02
-1.337215781211853027e+00 -2.124769210815429688e+00 2.551504821777343750e+02
-1.330233931541442871e+00 -2.558182239532470703e+00 2.551501617431640625e+02
-1.320454120635986328e+00 -3.211954355239868164e+00 2.551218261718750000e+02
-1.308818340301513672e+00 -3.855871200561523438e+00 2.551681976318359375e+02
-1.296325206756591797e+00 -4.494990348815917969e+00 2.552492218017578125e+02
-1.286121129989624023e+00 -5.146370410919189453e+00 2.552380676269531250e+02
-1.276636958122253418e+00 -5.801773548126220703e+00 2.551977539062500000e+02
-1.270253419876098633e+00 -6.238429546356201172e+00 2.551733245849609375e+02
-1.259328246116638184e+00 -6.885867595672607422e+00 2.551912841796875000e+02
-1.248621463775634766e+00 -7.534491062164306641e+00 2.552003784179687500e+02
-1.237470746040344238e+00 -8.180506706237792969e+00 2.552275085449218750e+02
-1.226393461227416992e+00 -8.826851844787597656e+00 2.552517242431640625e+02
-1.219805002212524414e+00 -9.262386322021484375e+00 2.552355499267578125e+02
-1.211493492126464844e+00 -9.925095558166503906e+00 2.551474151611328125e+02
-1.200458049774169922e+00 -1.057167816162109375e+01 2.551699523925781250e+02
-1.189975500106811523e+00 -1.122154140472412109e+01 2.551700134277343750e+02
-1.179826259613037109e+00 -1.187344074249267578e+01 2.551564941406250000e+02
-1.172305583953857422e+00 -1.230338859558105469e+01 2.551782073974609375e+02
-1.177254199981689453e+00 -1.304975605010986328e+01 2.545484313964843750e+02
-1.192003250122070312e+00 -1.338125228881835938e+01 2.538033294677734375e+02
-1.211822509765625000e+00 -1.374549293518066406e+01 2.528506774902343750e+02
-1.231640338897705078e+00 -1.411074924468994141e+01 2.518974456787109375e+02
-1.246626257896423340e+00 -1.444637107849121094e+01 2.511410827636718750e+02
-1.255702137947082520e+00 -1.474516677856445312e+01 2.506259307861328125e+02
-1.870159029960632324e+00 1.439599704742431641e+01 2.533495941162109375e+02
-1.830645203590393066e+00 1.384660720825195312e+01 2.544658355712890625e+02
-1.801339268684387207e+00 1.257454681396484375e+01 2.547858276367187500e+02
-1.789398550987243652e+00 1.192909431457519531e+01 2.548415069580078125e+02
-2.060440778732299805e+00 1.379927253723144531e+01 2.539942779541015625e+02
-2.043816089630126953e+00 1.316900253295898438e+01 2.542252655029296875e+02
-2.031333923339843750e+00 1.252443408966064453e+01 2.542997589111328125e+02
-2.022930383682250977e+00 1.209516334533691406e+01 2.543526611328125000e+02
-2.012909412384033203e+00 1.144184112548828125e+01 2.543340454101562500e+02
-2.001753330230712891e+00 1.079276943206787109e+01 2.543585205078125000e+02
-1.989790201187133789e+00 1.014688682556152344e+01 2.544136962890625000e+02
-1.978610277175903320e+00 9.498134613037109375e+00 2.544392089843750000e+02
-1.968536734580993652e+00 8.845089912414550781e+00 2.544226379394531250e+02
-1.961336851119995117e+00 8.411645889282226562e+00 2.544300537109375000e+02
-1.948539853096008301e+00 7.769619464874267578e+00 2.545172576904296875e+02
-1.936092734336853027e+00 7.126442432403564453e+00 2.545913391113281250e+02
-1.925309181213378906e+00 6.476555824279785156e+00 2.546020202636718750e+02
-1.914080142974853516e+00 5.828599929809570312e+00 2.546296997070312500e+02
-1.903006553649902344e+00 5.180083751678466797e+00 2.546515808105468750e+02
-1.896134853363037109e+00 4.745566844940185547e+00 2.546466217041015625e+02
-1.886246323585510254e+00 4.091934680938720703e+00 2.546230621337890625e+02
-1.874847650527954102e+00 3.444979667663574219e+00 2.546574401855468750e+02
-2.326231241226196289e+00 1.431996822357177734e+01 2.525955657958984375e+02
-2.304173707962036133e+00 1.393536567687988281e+01 2.531529541015625000e+02
-2.295562267303466797e+00 1.373516845703125000e+01 2.533421783447265625e+02
-2.275918006896972656e+00 1.288420104980468750e+01 2.535501098632812500e+02
-2.271898508071899414e+00 1.266843509674072266e+01 2.535690002441406250e+02
-2.255687475204467773e+00 1.180607414245605469e+01 2.536497039794921875e+02
-2.248635292053222656e+00 1.137117481231689453e+01 2.536509094238281250e+02
-2.228560209274291992e+00 1.029313373565673828e+01 2.537450714111328125e+02
-2.224473237991333008e+00 1.007786178588867188e+01 2.537666320800781250e+02
-2.213276863098144531e+00 9.428105354309082031e+00 2.537916412353515625e+02
-2.206641435623168945e+00 8.991777420043945312e+00 2.537773590087890625e+02
-2.187181472778320312e+00 7.912244796752929688e+00 2.538490753173828125e+02
-2.182468891143798828e+00 7.699659347534179688e+00 2.538941802978515625e+02
-2.165855169296264648e+00 6.840704441070556641e+00 2.539909667968750000e+02
-2.158573865890502930e+00 6.407176971435546875e+00 2.540009918212890625e+02
-2.143145561218261719e+00 5.543827056884765625e+00 2.540536041259765625e+02
-2.139454364776611328e+00 5.327332019805908203e+00 2.540605773925781250e+02
-2.125112295150756836e+00 4.459622859954833984e+00 2.540725097656250000e+02
-2.117910146713256836e+00 4.025929450988769531e+00 2.540796508789062500e+02
-2.097620725631713867e+00 2.951874971389770508e+00 2.541836395263671875e+02
-2.093431472778320312e+00 2.737716436386108398e+00 2.542094268798828125e+02
-2.082121610641479492e+00 2.089754581451416016e+00 2.542394409179687500e+02
-2.075171232223510742e+00 1.655166745185852051e+00 2.542372283935546875e+02
-2.056229591369628906e+00 5.759602785110473633e-01 2.542909088134765625e+02
-2.052462339401245117e+00 3.600586056709290106e-01 2.543008728027343750e+02
-2.036882162094116211e+00 -5.010105371475219727e-01 2.543601074218750000e+02
-2.029089212417602539e+00 -9.314302206039428711e-01 2.543899078369140625e+02
-2.014412403106689453e+00 -1.796475887298583984e+00 2.544151153564453125e+02
-2.010576009750366211e+00 -2.011896848678588867e+00 2.544277954101562500e+02
-1.994644403457641602e+00 -2.870553255081176758e+00 2.545007629394531250e+02
-1.987395167350769043e+00 -3.303335905075073242e+00 2.545100860595703125e+02
-1.967942953109741211e+00 -4.378406047821044922e+00 2.545840606689453125e+02
-1.953228116035461426e+00 -5.242535591125488281e+00 2.546111450195312500e+02
-1.946806788444519043e+00 -5.679431438446044922e+00 2.545890197753906250e+02
-1.927152872085571289e+00 -6.752710342407226562e+00 2.546711120605468750e+02
-1.923108577728271484e+00 -6.966704368591308594e+00 2.546918945312500000e+02
-1.908689260482788086e+00 -7.831964492797851562e+00 2.547079467773437500e+02
-1.904920220375061035e+00 -8.047375679016113281e+00 2.547182312011718750e+02
-1.886513471603393555e+00 -9.126660346984863281e+00 2.547530364990234375e+02
-1.883161783218383789e+00 -9.344318389892578125e+00 2.547474060058593750e+02
-1.868744850158691406e+00 -1.020931816101074219e+01 2.547635192871093750e+02
-1.861328601837158203e+00 -1.064060211181640625e+01 2.547795715332031250e+02
-1.843933820724487305e+00 -1.172526836395263672e+01 2.547757263183593750e+02
-1.830416083335876465e+00 -1.259532070159912109e+01 2.547573394775390625e+02
-1.832259893417358398e+00 -1.284357452392578125e+01 2.545516662597656250e+02
-2.567043542861938477e+00 1.447138214111328125e+01 2.519018249511718750e+02
-2.540469646453857422e+00 1.387010383605957031e+01 2.524849853515625000e+02
-2.519029855728149414e+00 1.302306938171386719e+01 2.527535552978515625e+02
-2.511586189270019531e+00 1.258857822418212891e+01 2.527684478759765625e+02
-2.495675086975097656e+00 1.172334480285644531e+01 2.528357391357421875e+02
-2.487955808639526367e+00 1.128998851776123047e+01 2.528607788085937500e+02
-2.479718923568725586e+00 1.085857105255126953e+01 2.529048004150390625e+02
-2.467371702194213867e+00 1.021159744262695312e+01 2.529706573486328125e+02
-2.455725669860839844e+00 9.562213897705078125e+00 2.530109252929687500e+02
-2.445623874664306641e+00 8.907099723815917969e+00 2.529945983886718750e+02
-2.434747457504272461e+00 8.254938125610351562e+00 2.530067291259765625e+02
-2.421154975891113281e+00 7.613456249237060547e+00 2.531186828613281250e+02
-2.412344932556152344e+00 7.185010433197021484e+00 2.531842041015625000e+02
-2.400807380676269531e+00 6.535877704620361328e+00 2.532208557128906250e+02
-2.388610124588012695e+00 5.889554977416992188e+00 2.532818756103515625e+02
-2.377593040466308594e+00 5.238567352294921875e+00 2.532994995117187500e+02
-2.366682767868041992e+00 4.587201595306396484e+00 2.533132171630859375e+02
-2.358875751495361328e+00 4.155242443084716797e+00 2.533421020507812500e+02
-2.338696241378784180e+00 3.078483819961547852e+00 2.534389038085937500e+02
-2.334489583969116211e+00 2.863940477371215820e+00 2.534646301269531250e+02
-2.330332279205322266e+00 2.649206399917602539e+00 2.534885101318359375e+02
-2.318863868713378906e+00 2.000739574432373047e+00 2.535231628417968750e+02
-2.311548709869384766e+00 1.567019343376159668e+00 2.535340270996093750e+02
-2.292308807373046875e+00 4.871875047683715820e-01 2.535966491699218750e+02
-2.276018619537353516e+00 -3.722615540027617853e-01 2.536802520751953125e+02
-2.268154621124267578e+00 -8.031554222106933594e-01 2.537117004394531250e+02
-2.248674869537353516e+00 -1.880939483642578125e+00 2.537837371826171875e+02
-2.244775533676147461e+00 -2.096432447433471680e+00 2.537982788085937500e+02
-2.228672266006469727e+00 -2.955765008926391602e+00 2.538755187988281250e+02
-2.224753856658935547e+00 -3.171074390411376953e+00 2.538908081054687500e+02
-2.205728530883789062e+00 -4.250153064727783203e+00 2.539464111328125000e+02
-2.201498031616210938e+00 -4.463798999786376953e+00 2.539734802246093750e+02
-2.186347961425781250e+00 -5.327095508575439453e+00 2.540155181884765625e+02
-2.179387092590332031e+00 -5.761812210083007812e+00 2.540135955810546875e+02
-2.135907649993896484e+00 -8.125001907348632812e+00 2.541980743408203125e+02
-2.124338388442993164e+00 -8.770662307739257812e+00 2.542377777099609375e+02
-2.114174842834472656e+00 -9.423851013183593750e+00 2.542246704101562500e+02
-2.102387189865112305e+00 -1.006811332702636719e+01 2.542726745605468750e+02
-2.094387769699096680e+00 -1.049674510955810547e+01 2.543100585937500000e+02
-2.083159923553466797e+00 -1.114386177062988281e+01 2.543371582031250000e+02
-2.072336435317993164e+00 -1.179318046569824219e+01 2.543489837646484375e+02
-2.062147140502929688e+00 -1.292059993743896484e+01 2.540721740722656250e+02
-2.069964408874511719e+00 -1.320338726043701172e+01 2.536441040039062500e+02
-2.083392143249511719e+00 -1.351925945281982422e+01 2.530036315917968750e+02
-2.099719285964965820e+00 -1.385273647308349609e+01 2.522531280517578125e+02
-2.115004777908325195e+00 -1.418092060089111328e+01 2.515415344238281250e+02
-2.126270294189453125e+00 -1.448622989654541016e+01 2.509817199707031250e+02
-2.775989294052124023e+00 1.380956745147705078e+01 2.518683013916015625e+02
-2.761277437210083008e+00 1.316829204559326172e+01 2.520164947509765625e+02
-2.750653266906738281e+00 1.251351547241210938e+01 2.520183258056640625e+02
-2.743100166320800781e+00 1.207863140106201172e+01 2.520364379882812500e+02
-2.640913724899291992e+00 6.444836139678955078e+00 2.524184875488281250e+02
-2.624232053756713867e+00 5.582952499389648438e+00 2.525125579833984375e+02
-2.620809078216552734e+00 5.364535808563232422e+00 2.525090789794921875e+02
-2.606867074966430664e+00 4.491859912872314453e+00 2.525041198730468750e+02
-2.598412990570068359e+00 4.061671733856201172e+00 2.525554046630859375e+02
-2.582129955291748047e+00 3.198999404907226562e+00 2.526355590820312500e+02
-2.574372053146362305e+00 2.766156673431396484e+00 2.526616973876953125e+02
-2.559008121490478516e+00 1.900004982948303223e+00 2.527086791992187500e+02
-2.555288076400756836e+00 1.682975053787231445e+00 2.527160339355468750e+02
-2.539982557296752930e+00 8.168271183967590332e-01 2.527610168457031250e+02
-2.532064437866210938e+00 3.850192725658416748e-01 2.527932281494140625e+02
-2.515361547470092773e+00 -4.744413495063781738e-01 2.528893585205078125e+02
-2.507492542266845703e+00 -9.062217473983764648e-01 2.529199066162109375e+02
-2.495232582092285156e+00 -1.551641941070556641e+00 2.529824981689453125e+02
-2.487284898757934570e+00 -1.982865095138549805e+00 2.530160064697265625e+02
-2.475838422775268555e+00 -2.631802797317504883e+00 2.530489959716796875e+02
-2.463735818862915039e+00 -3.277477741241455078e+00 2.531060943603515625e+02
-2.452121734619140625e+00 -3.925331354141235352e+00 2.531453704833984375e+02
-2.440204381942749023e+00 -4.571557044982910156e+00 2.531958618164062500e+02
-2.432284355163574219e+00 -5.002400875091552734e+00 2.532286682128906250e+02
-2.420888900756835938e+00 -5.650951862335205078e+00 2.532601470947265625e+02
-2.409056663513183594e+00 -6.297185897827148438e+00 2.533077087402343750e+02
-2.395817756652832031e+00 -6.936042308807373047e+00 2.534071655273437500e+02
-2.380672693252563477e+00 -7.800379753112792969e+00 2.534476928710937500e+02
-2.372540235519409180e+00 -8.229544639587402344e+00 2.534886169433593750e+02
-2.368503332138061523e+00 -8.444239616394042969e+00 2.535080566406250000e+02
-2.357724905014038086e+00 -9.095298767089843750e+00 2.535171508789062500e+02
-2.354471921920776367e+00 -9.314122200012207031e+00 2.535076446533203125e+02
-2.338510751724243164e+00 -1.017352771759033203e+01 2.535786132812500000e+02
-2.330007314682006836e+00 -1.060025310516357422e+01 2.536335144042968750e+02
-2.314261674880981445e+00 -1.146032619476318359e+01 2.536967620849609375e+02
-2.306858777999877930e+00 -1.189286804199218750e+01 2.537110595703125000e+02
-2.314924955368041992e+00 -1.360054588317871094e+01 2.524996337890625000e+02
-2.712119579315185547e+00 -2.955183267593383789e+00 2.522641754150390625e+02
-2.708116292953491211e+00 -3.171022891998291016e+00 2.522815093994140625e+02
-2.703941583633422852e+00 -3.386035442352294922e+00 2.523050231933593750e+02
-2.691758394241333008e+00 -4.032544136047363281e+00 2.523633422851562500e+02
-2.684300184249877930e+00 -4.466631412506103516e+00 2.523783569335937500e+02
-2.668848514556884766e+00 -5.332079410552978516e+00 2.524277648925781250e+02
-2.660784006118774414e+00 -5.763044834136962891e+00 2.524647827148437500e+02
-2.644014358520507812e+00 -6.621541500091552734e+00 2.525619964599609375e+02
-2.639715433120727539e+00 -6.835562229156494141e+00 2.525901947021484375e+02
-2.624665021896362305e+00 -7.702250957489013672e+00 2.526255340576171875e+02
-2.616337060928344727e+00 -8.131415367126464844e+00 2.526723022460937500e+02
-2.600931882858276367e+00 -8.995940208435058594e+00 2.527206573486328125e+02
-2.594502687454223633e+00 -9.434795379638671875e+00 2.526986999511718750e+02
-2.578258514404296875e+00 -1.029460906982421875e+01 2.527776794433593750e+02
-2.573848009109497070e+00 -1.050764751434326172e+01 2.528101043701171875e+02
-2.556940078735351562e+00 -1.136338615417480469e+01 2.529134979248046875e+02
-2.549201488494873047e+00 -1.179499149322509766e+01 2.529392242431640625e+02
