-6.598325035700000285e+00 -1.484027499400000005e+00 2.540635737030999906e+02
-6.560128156800000276e+00 -3.875675253199999837e+00 2.540493279300999916e+02
-6.497802756299999594e+00 -7.559111887200000268e+00 2.541177180399999997e+02
-7.228100421199999737e+00 1.808778207519999981e+01 2.516391094178999879e+02
-7.219485919900000326e+00 1.788038100159999999e+01 2.517731770881999864e+02
-6.761716487600000214e+00 -1.075479235399999922e+01 2.516134764523999934e+02
-6.784578316700000222e+00 -1.131214643510000073e+01 2.507996616558000085e+02
-4.895469850999999650e+00 1.690786322729999824e+01 2.552901932970999894e+02
-4.890018868300000321e+00 1.669622487659999877e+01 2.553493106633000025e+02
-6.134996129100000140e+00 1.855714639540000022e+01 2.518163233083000137e+02
-6.022281969499999832e+00 1.746533998310000158e+01 2.544026220926999997e+02
-5.986193529300000371e+00 1.687597201350000020e+01 2.551250472803999969e+02
-5.958449534599999708e+00 1.559177342279999934e+01 2.553142651468000111e+02
-5.582057217600000065e+00 -8.744236540399999313e+00 2.548354567556999939e+02
-5.598005981600000069e+00 -9.970778932500000025e+00 2.538610628174000112e+02
-6.526669107800000091e+00 1.797492708800000116e+01 2.527810727048999979e+02
-6.252156319400000051e+00 -9.755809687899999361e+00 2.539217933879999975e+02
-6.494308789099999757e+00 -7.776403857600000080e+00 2.541170276619000106e+02
-7.211534579800000344e+00 1.767164493770000178e+01 2.518897276362999946e+02
-7.183131463999999688e+00 1.683019036829999848e+01 2.522665462765000086e+02
-6.774581473399999609e+00 -1.103900838380000060e+01 2.511677156469999943e+02
-7.456596959599999686e+00 1.806327403030000056e+01 2.513859318428000051e+02
-4.931027803000000098e+00 1.749378914449999911e+01 2.545298744263999993e+02
-4.915661282700000356e+00 1.730730767240000034e+01 2.548899173329000121e+02
-5.113168099600000183e+00 1.690245544600000116e+01 2.552684262813000089e+02
-5.366759502799999915e+00 1.748412640049999922e+01 2.544992289420999896e+02
-5.351485320400000134e+00 1.729651057979999962e+01 2.548461080477999872e+02
-5.330600311399999569e+00 1.689778627649999976e+01 2.552552299756000025e+02
-5.324467848700000339e+00 1.668771659340000113e+01 2.553326779946999920e+02
-5.315522562199999967e+00 1.625923809580000068e+01 2.553897351916999980e+02
-4.923694479999999984e+00 -9.399105334999999783e+00 2.547284466654000141e+02
-4.942504359500000000e+00 -9.947510013800000550e+00 2.539437729141999966e+02
-6.118047229500000128e+00 1.836981970849999968e+01 2.521950452636999955e+02
-6.099113302600000175e+00 1.818751610969999888e+01 2.526299878931999956e+02
-6.007170542899999965e+00 1.727605887649999872e+01 2.547304445430999920e+02
-5.979957800700000270e+00 1.666580445099999963e+01 2.552021460338999930e+02
-5.971184969700000345e+00 1.623653973969999953e+01 2.552517612240000062e+02
-5.589359706999999844e+00 -8.311741864500000077e+00 2.548272693131999915e+02
-5.578636843299999981e+00 -8.961446912799999609e+00 2.548328225244000009e+02
-5.576517021799999974e+00 -9.415786492900000582e+00 2.546903625463000083e+02
-6.183644107700000170e+00 1.556776263589999942e+01 2.550845031993999896e+02
-5.888541920499999804e+00 -1.098010335010000027e+01 2.514650053114000059e+02
-6.591217096600000325e+00 1.873437178720000063e+01 2.513960972604000119e+02
-6.444058213099999932e+00 1.681262691279999899e+01 2.544718978811000056e+02
-6.429255322999999578e+00 1.617139117400000003e+01 2.545890146815000037e+02
-6.416445245100000250e+00 1.552562861380000037e+01 2.546513210022000067e+02
-6.362303804199999746e+00 1.227345298840000076e+01 2.546903102452999974e+02
-6.355929353599999665e+00 1.183762316099999978e+01 2.546721830147999981e+02
-6.349539385799999991e+00 1.140180426120000057e+01 2.546544627051000020e+02
-6.338445626200000405e+00 1.075219122969999930e+01 2.546696623109000086e+02
-6.031473724999999675e+00 -8.119729869400000410e+00 2.547048801233999882e+02
-6.019997253899999734e+00 -8.766621577000000443e+00 2.547313705756999980e+02
-6.108925582400000387e+00 -1.099059564959999946e+01 2.514193609728999945e+02
-6.785818356200000068e+00 1.833185411939999909e+01 2.518628449901999886e+02
-6.755794286200000442e+00 1.794676202790000019e+01 2.524852975970999864e+02
-6.726836955299999588e+00 1.756050141029999878e+01 2.530793593667999914e+02
-6.487422984500000211e+00 5.718849600399999566e+00 2.543248248756000010e+02
-6.478595362500000121e+00 5.290022255900000303e+00 2.543740700826000136e+02
-6.466840461200000334e+00 4.642341844499999759e+00 2.544071337961999859e+02
-6.455517307500000079e+00 3.993408626499999947e+00 2.544283603400999993e+02
-6.444273121100000168e+00 3.344298522999999967e+00 2.544474274947999959e+02
-6.425650360499999714e+00 2.262228250500000204e+00 2.544760925886999985e+02
-6.413648421699999602e+00 1.615816589700000083e+00 2.545161281649999978e+02
-6.401857566200000349e+00 9.688389470999999586e-01 2.545504475346999982e+02
-6.391180344000000346e+00 3.181837464999999754e-01 2.545540245477999974e+02
-6.378706516600000320e+00 -3.262530612000000274e-01 2.546072779005999962e+02
-6.367491665400000223e+00 -9.749054848999999523e-01 2.546257943859000079e+02
-6.361201015699999850e+00 -1.411471614699999932e+00 2.546053557456000078e+02
-6.352245819700000240e+00 -2.068099455700000089e+00 2.545613727077000021e+02
-6.331604343399999557e+00 -3.371777319600000045e+00 2.545488885707000009e+02
-6.271957894999999894e+00 -7.061144660000000073e+00 2.545458613019000040e+02
-6.262814674200000375e+00 -7.717614219099999673e+00 2.545068312591000108e+02
-6.255582559399999631e+00 -8.150815383199999431e+00 2.545124561821000100e+02
-6.244965202700000440e+00 -8.801509142400000485e+00 2.545144754949999992e+02
-6.244417640200000008e+00 -9.492954646599999435e+00 2.542357048977000034e+02
-6.999237420700000101e+00 1.811365558580000013e+01 2.519088212890000023e+02
-6.955088410700000168e+00 1.730800173209999926e+01 2.527122421754000072e+02
-6.573721535299999807e+00 -3.004930514899999849e+00 2.540625982471999862e+02
-6.567089503800000116e+00 -3.440894653700000028e+00 2.540514312450000034e+02
-6.490603956100000183e+00 -7.992874710599999766e+00 2.541221140538999919e+02
-6.480223993100000079e+00 -8.645128898099999404e+00 2.541172879661999957e+02
-6.477690441200000038e+00 -8.866208746599999913e+00 2.540902098269000078e+02
-7.264701217799999888e+00 1.891419347649999949e+01 2.510469365795999863e+02
-7.255735034499999792e+00 1.870696602390000152e+01 2.511899875777999966e+02
-7.204041044000000227e+00 1.746200834589999928e+01 2.519942315160000135e+02
-6.747570541300000002e+00 -1.046592945769999972e+01 2.520938642920000063e+02
-7.450630530199999768e+00 1.784984459500000042e+01 2.514490981787999999e+02
-7.440307068300000104e+00 1.741964667699999936e+01 2.515335388652000006e+02
-6.989374265200000380e+00 -1.079384995240000045e+01 2.513735655055999985e+02
-6.998128254300000073e+00 -1.106106357550000041e+01 2.510437845502000016e+02
-7.005696841199999803e+00 -1.132390077260000005e+01 2.507457014617999960e+02
-7.701056347899999821e+00 1.868459415370000087e+01 2.510022122761999981e+02
-7.207813179100000411e+00 -1.009956954029999920e+01 2.516649990845000104e+02
-7.450412754300000273e+00 -9.498167763999999735e+00 2.513183453544999963e+02
-7.444439892300000139e+00 -1.017155223820000032e+01 2.511967267315000072e+02
-7.443015884200000265e+00 -1.063048616280000047e+01 2.510487264864999872e+02
-7.449553777300000235e+00 -1.135304061849999968e+01 2.505997851079000043e+02
-7.679957320099999762e+00 -1.000554073049999992e+01 2.508603923565999878e+02
-4.479800937200000277e+00 1.731845727429999826e+01 2.549378949034999948e+02
-4.467916828899999970e+00 1.712397812060000035e+01 2.552001550608999878e+02
-4.903720239400000125e+00 1.711228232219999867e+01 2.551460621290999882e+02
-5.149025673199999709e+00 1.748860006379999987e+01 2.545103143055999908e+02
-5.133698380700000286e+00 1.730156026710000106e+01 2.548639172690000123e+02
-5.121671361699999814e+00 1.710641933790000024e+01 2.551188548933000106e+02
-5.107359622199999727e+00 1.669165527179999842e+01 2.553373518182000055e+02
-5.102896900200000196e+00 1.647741810080000135e+01 2.553660274558999959e+02
-4.711331250499999790e+00 -9.649575668100000669e+00 2.544722105399000043e+02
-5.339364611099999713e+00 1.710128368730000048e+01 2.551001324201999978e+02
-5.319783822399999806e+00 1.647400516080000088e+01 2.553674308692000068e+02
-4.929301749799999577e+00 -9.656307365500000017e+00 2.544515369430999954e+02
-5.584323993900000005e+00 1.748010029810000177e+01 2.544934271580999905e+02
-5.569091372199999945e+00 1.729195961090000111e+01 2.548341652761000091e+02
-5.547969386800000180e+00 1.689331293080000052e+01 2.552443130936999864e+02
-5.541658845499999764e+00 1.668359097309999939e+01 2.553258498152000016e+02
-5.141284893499999953e+00 -9.404656333400000179e+00 2.547158145388999912e+02
-5.161018010200000283e+00 -9.955453344500000412e+00 2.539149185781000142e+02
-5.802323651100000035e+00 1.747503974259999993e+01 2.544754088395999929e+02
-5.787109262599999582e+00 1.728643894149999838e+01 2.548108307697999919e+02
-5.774904022000000303e+00 1.709078958719999974e+01 2.550601134675000026e+02
-5.765944071599999887e+00 1.688737743560000126e+01 2.552164310738000097e+02
-5.754901024999999670e+00 1.646384052169999990e+01 2.553319236375999992e+02
-5.750774644299999849e+00 1.624865261640000114e+01 2.553496411980999881e+02
-5.742495600899999886e+00 1.581840766160000022e+01 2.553859279936999940e+02
-5.367979307199999717e+00 -8.521737366800000046e+00 2.548491229311999859e+02
-5.364542273299999664e+00 -8.738870664100000241e+00 2.548469675030000019e+02
-5.358557749200000053e+00 -9.176928650400000720e+00 2.548164595981000105e+02
-5.358805189699999971e+00 -9.409847028899999799e+00 2.547056675267999992e+02
-5.365025875299999747e+00 -9.668543116400000415e+00 2.544186208231000137e+02
-5.995059118300000378e+00 1.707984681949999839e+01 2.549736075358999869e+02
-5.975293183799999852e+00 1.645184422130000002e+01 2.552348083953000071e+02
-5.967103045100000003e+00 1.602118960589999830e+01 2.552679782332000116e+02
-5.962842050399999927e+00 1.580630179989999995e+01 2.552892377535000037e+02
-5.585673158799999705e+00 -8.527843891699999901e+00 2.548323991482999986e+02
-5.576080159600000030e+00 -9.182284369099999566e+00 2.548051188661000026e+02
-5.583084494799999575e+00 -9.675375414099999460e+00 2.543972627592000038e+02
-6.370186714799999983e+00 1.874274299140000011e+01 2.514554406864999976e+02
-6.355566603099999767e+00 1.854931840289999911e+01 2.517639811043000009e+02
-6.338871212099999930e+00 1.836095611869999900e+01 2.521303937696000048e+02
-6.320441706899999623e+00 1.817696802309999882e+01 2.525453371906000086e+02
-6.231720309700000016e+00 1.725520982560000149e+01 2.545271807482999975e+02
-6.211329621199999984e+00 1.685303996000000026e+01 2.548999062835999894e+02
-6.179410856599999669e+00 1.535270952710000003e+01 2.551046571079999978e+02
-5.811527756900000341e+00 -8.104820723499999602e+00 2.547836170353000114e+02
-5.803705497100000166e+00 -8.535261285100000705e+00 2.548065159338999877e+02
-5.799992765299999853e+00 -8.751281843699999285e+00 2.548122675262999905e+02
-5.794483900000000354e+00 -9.191238117299999288e+00 2.547689167327999940e+02
-5.795382755900000404e+00 -9.426457377300000218e+00 2.546424711681000019e+02
-5.802423310900000075e+00 -9.687449880899999144e+00 2.543399256666000099e+02
-6.452259609999999590e+00 1.701875313760000097e+01 2.543430047317000060e+02
-6.438074528899999649e+00 1.660134388659999871e+01 2.545398025069999903e+02
-6.425107548799999790e+00 1.595581903649999944e+01 2.546064118095000026e+02
-6.412281196400000383e+00 1.531015957700000030e+01 2.546692138905000036e+02
-6.383742851400000085e+00 1.357477693190000068e+01 2.546806875233000085e+02
-6.379589280200000267e+00 1.335938932300000026e+01 2.546983303128000102e+02
-6.375493040800000344e+00 1.314387115219999913e+01 2.547143965493000053e+02
-6.371673601400000386e+00 1.292764064560000037e+01 2.547227740843999868e+02
-6.365266682699999734e+00 1.249195192100000007e+01 2.547055854859000021e+02
-6.359182716000000291e+00 1.205536494879999942e+01 2.546794196843999885e+02
-6.352715612299999925e+00 1.161976890140000052e+01 2.546638526924000132e+02
-6.346190191199999830e+00 1.118430544069999932e+01 2.546498672458000101e+02
-6.342466438199999779e+00 1.096783202670000001e+01 2.546556385702999989e+02
-6.334373638699999809e+00 1.053670359840000081e+01 2.546850815894999869e+02
-6.330439179499999902e+00 1.032085140020000047e+01 2.546967100287000108e+02
-6.326568227700000158e+00 1.010483221349999994e+01 2.547065680013000133e+02
-6.322601971900000173e+00 9.889098073999999627e+00 2.547191171146000102e+02
-6.314231222700000146e+00 9.458912107899999810e+00 2.547562924357999918e+02
-6.310094502500000146e+00 9.243710626800000441e+00 2.547735569719999944e+02
-6.302275883800000145e+00 8.812053261000000859e+00 2.547955099659000098e+02
-6.298546718699999936e+00 8.595718286600000368e+00 2.548014810321000141e+02
-6.287899989999999661e+00 7.945166547900000431e+00 2.548044199880999940e+02
-6.284115572500000191e+00 7.729020085000000151e+00 2.548119525161000070e+02
-6.276059897099999674e+00 7.298208694400000418e+00 2.548405461369999898e+02
-6.035161170500000338e+00 -7.903525489599999787e+00 2.546999641184000041e+02
-6.027484874199999787e+00 -8.334710025599999739e+00 2.547183368567999935e+02
-6.023567697699999890e+00 -8.549965741299999422e+00 2.547297683415999927e+02
-6.017112154800000390e+00 -8.986059955200000005e+00 2.547136552478000056e+02
-6.015562598399999850e+00 -9.210979406299999894e+00 2.546581665138000119e+02
-6.812552889300000025e+00 1.872545851610000156e+01 2.513301089702000013e+02
-6.799828678299999929e+00 1.852709568339999890e+01 2.515789951621000000e+02
-6.770926768699999876e+00 1.813888105770000081e+01 2.521707534951999889e+02
-6.740968556300000358e+00 1.775426943029999904e+01 2.527916735356999993e+02
-6.483032430099999743e+00 5.504349443999999814e+00 2.543487872178000089e+02
-6.474407037999999837e+00 5.074950559400000394e+00 2.543924961927000084e+02
-6.470541740099999828e+00 4.858893758799999851e+00 2.544020412501999999e+02
-6.463143661600000200e+00 4.425776574400000385e+00 2.544120563820999905e+02
-6.459357561900000100e+00 4.209501897900000067e+00 2.544194541219999905e+02
-6.451668799300000146e+00 3.777347818900000043e+00 2.544374624700000140e+02
-6.429665696099999828e+00 2.477679561500000016e+00 2.544623441534999984e+02
-6.421605607400000082e+00 2.046885745199999995e+00 2.544906327225999974e+02
-6.417615160000000429e+00 1.831386949499999917e+00 2.545037333365999928e+02
-6.409695636999999557e+00 1.400219437500000108e+00 2.545281840941999860e+02
-6.405732459700000270e+00 1.184671959699999944e+00 2.545405408978000139e+02
-6.398158836000000349e+00 7.524249606999999784e-01 2.545555088540999975e+02
-6.394678573800000265e+00 5.352753115999999700e-01 2.545545302859000003e+02
-6.387372688800000198e+00 1.021576056000000066e-01 2.545621157781000079e+02
-6.374543905300000368e+00 -5.410079801999999605e-01 2.546251895686000069e+02
-6.364290329100000143e+00 -1.192986525300000045e+00 2.546171355012999982e+02
-6.358234138500000299e+00 -1.630396337000000084e+00 2.545902082208999957e+02
-6.355339992700000273e+00 -1.849597666199999990e+00 2.545730174535000003e+02
-6.348794356500000013e+00 -2.285340930599999876e+00 2.545595824089000132e+02
-6.337872851900000271e+00 -2.935003703300000044e+00 2.545699887691000072e+02
-6.328221373599999922e+00 -3.589268045799999918e+00 2.545452259662999950e+02
-6.269091783300000387e+00 -7.280665929100000433e+00 2.545278031919999933e+02
-6.259319865800000215e+00 -7.934694929700000010e+00 2.545062705160999883e+02
-6.251723608499999862e+00 -8.366443154500000645e+00 2.545220425297000020e+02
-6.248090453599999705e+00 -8.582960132700000244e+00 2.545253462812999885e+02
-6.242734436800000175e+00 -9.023662503800000678e+00 2.544786803723000048e+02
-6.242024590299999787e+00 -9.251985729199999398e+00 2.544004807519000053e+02
-6.310142887299999614e+00 -1.068913816070000067e+01 2.520086944775000006e+02
-6.329943745199999583e+00 -1.100350882010000042e+01 2.513573022689000140e+02
-7.044301277799999816e+00 1.892059539059999906e+01 2.510822287702000040e+02
-7.034057082300000374e+00 1.871632602400000067e+01 2.512614457308999931e+02
-7.023050493300000419e+00 1.851390213959999897e+01 2.514610805531999915e+02
-7.011317491099999799e+00 1.831328369359999897e+01 2.516802564468000014e+02
-6.987358920900000214e+00 1.791380933800000008e+01 2.521320532914000125e+02
-6.975998869899999733e+00 1.771302871880000041e+01 2.523415149186999997e+02
-6.604696372900000334e+00 -1.047207282200000034e+00 2.540818132208000009e+02
-6.601463707999999819e+00 -1.265451470699999970e+00 2.540739804941999864e+02
-6.570346967699999929e+00 -3.222699927299999878e+00 2.540586291532999894e+02
-6.563698955599999607e+00 -3.658611045499999825e+00 2.540479169980999927e+02
-6.522308169000000433e+00 -6.038236097399999558e+00 2.541212201596000000e+02
-6.517904642200000431e+00 -6.252093454399999750e+00 2.541454773467999928e+02
-6.507100669699999784e+00 -6.902709287899999602e+00 2.541522547966999923e+02
-6.501052020100000384e+00 -7.340875655399999644e+00 2.541251368451000019e+02
-6.486900176699999854e+00 -8.209336538600000566e+00 2.541272254348999979e+02
-6.483358092499999614e+00 -8.426431500599999680e+00 2.541278615315999900e+02
-6.476129180300000066e+00 -9.091174307899999363e+00 2.540363651401000027e+02
-6.535052456799999909e+00 -1.071880697269999949e+01 2.518325356038999985e+02
-6.551800225300000058e+00 -1.101957342300000064e+01 2.512739192532999937e+02
-6.564086916099999947e+00 -1.130272065850000018e+01 2.508379213021999874e+02
-7.246592096099999658e+00 1.850027144910000132e+01 2.513378239731000008e+02
-7.237280269500000252e+00 1.829409215880000161e+01 2.514901658254999859e+02
-7.196735614299999639e+00 1.725206255490000018e+01 2.520938476606999927e+02
-7.189687178699999848e+00 1.704163832209999896e+01 2.521867056291999916e+02
-7.485683829800000133e+00 1.890663627549999859e+01 2.509973766557000090e+02
-7.477910472199999603e+00 1.869670956290000063e+01 2.511075309251999954e+02
-7.463304826699999950e+00 1.827517313430000101e+01 2.513034150274000069e+02
-7.445334908499999571e+00 1.763501511679999822e+01 2.514947985366999887e+02
-7.435076495699999732e+00 1.720476538970000036e+01 2.515775825661999932e+02
-6.972695603400000053e+00 -1.026370242870000027e+01 2.520104259910999929e+02
-6.980408722800000021e+00 -1.052615072030000043e+01 2.517088388013999918e+02
-7.694905305699999865e+00 1.847119409260000111e+01 2.510692178316000138e+02
-7.689333426700000196e+00 1.825663781920000162e+01 2.511213576348000061e+02
-7.684371658599999932e+00 1.804083240630000162e+01 2.511577799654000103e+02
-7.208108971699999756e+00 -9.636839757400000650e+00 2.518443744287000072e+02
-7.207493299000000242e+00 -9.866356187699999225e+00 2.517671112593000089e+02
-7.209462940799999942e+00 -1.033802457890000071e+01 2.515277020951999987e+02
-7.212609990699999862e+00 -1.058243156840000054e+01 2.513507301630000086e+02
-7.222088258500000357e+00 -1.108424126599999937e+01 2.509122620256000005e+02
-7.227368483800000298e+00 -1.133760622700000020e+01 2.506785707893999984e+02
-7.448264299999999949e+00 -9.721994780299999306e+00 2.512819224428000098e+02
-7.443241154399999893e+00 -1.039912039330000049e+01 2.511354699494999920e+02
-7.444009758700000035e+00 -1.086662424350000045e+01 2.509301239751999901e+02
-7.446241922999999652e+00 -1.110766593079999964e+01 2.507790797151000106e+02
-7.676881446400000364e+00 -1.022609100290000050e+01 2.508482231998000032e+02
-7.673944211700000295e+00 -1.044717552800000071e+01 2.508324815018000038e+02
-7.671619509600000164e+00 -1.067059558230000071e+01 2.508009122061999960e+02
-7.670411965899999629e+00 -1.089828718340000080e+01 2.507405236083000091e+02
-4.697635722100000244e+00 1.731309977480000128e+01 2.549164533734999907e+02
-4.685735844999999955e+00 1.711831008020000056e+01 2.551752139630000045e+02
-4.677618897200000347e+00 1.691374059340000002e+01 2.553174239257000124e+02
-5.556900963700000418e+00 1.709658816689999838e+01 2.550865575898000088e+02
-5.536900343200000130e+00 1.647001850079999841e+01 2.553622481575000052e+02
-5.532704006500000382e+00 1.625505063119999960e+01 2.553823030725000081e+02
-5.528574143000000163e+00 1.603993447679999917e+01 2.554004354994999915e+02
-5.141084002400000408e+00 -9.171716395000000688e+00 2.548268057690999910e+02
-5.147212177700000169e+00 -9.662676930900000016e+00 2.544333454993000032e+02
-5.915505632600000396e+00 1.856257797920000030e+01 2.518393788298999993e+02
-5.898732198900000334e+00 1.837528484170000098e+01 2.522183744614999910e+02
-5.759623607099999987e+00 1.667756519310000130e+01 2.552970949001999941e+02
-5.746713437400000402e+00 1.603332160160000086e+01 2.553655292573999986e+02
-5.361180921999999960e+00 -8.956321888199999748e+00 2.548426079138000091e+02
-5.379400857800000324e+00 -9.962700566000000535e+00 2.538908295498000030e+02
-6.219961869699999646e+00 1.705776495730000164e+01 2.547571001944999978e+02
-6.205210756199999622e+00 1.664238215720000014e+01 2.549726083212999868e+02
-6.200574616799999994e+00 1.642819528580000110e+01 2.550039721775000032e+02
-6.196445697299999722e+00 1.621279956549999923e+01 2.550211880793000034e+02
-6.192322478600000402e+00 1.599741052329999924e+01 2.550382649919000073e+02
-6.188025751299999655e+00 1.578246939579999975e+01 2.550601904616999889e+02
-5.807603389299999641e+00 -8.319995678099999736e+00 2.547954313552999963e+02
-5.796699177899999889e+00 -8.969021294799999211e+00 2.548060466954999868e+02
-6.577235674199999771e+00 1.853913854880000045e+01 2.516828682242999946e+02
-6.561504112899999797e+00 1.834815730660000099e+01 2.520179030843999897e+02
-6.544404605299999567e+00 1.816062527560000106e+01 2.523906607046000090e+02
-6.433422902000000221e+00 1.638693407150000070e+01 2.545710656804999985e+02
-6.420801576799999744e+00 1.574064771619999981e+01 2.546281486341999880e+02
-6.408601483500000029e+00 1.509350536600000048e+01 2.546737446962999911e+02
-6.368290687700000063e+00 1.271027197000000086e+01 2.547191312708000055e+02
-6.318450757899999992e+00 9.673896416499999873e+00 2.547367365942999982e+02
-6.306118710299999819e+00 9.028067099599999423e+00 2.547863738926999986e+02
-6.280121795400000373e+00 7.513505756399999846e+00 2.548253051453999944e+02
-6.017202245400000038e+00 -9.449042948500000705e+00 2.545125177253000004e+02
-6.024752639799999976e+00 -9.711606112000000124e+00 2.541996489404999977e+02
-6.383120449499999793e+00 -1.123388114000000021e-01 2.545824466532000088e+02
-6.370841018800000199e+00 -7.573436787999999753e-01 2.546303767375000007e+02
-6.334744484499999828e+00 -3.153409393000000005e+00 2.545592677251999874e+02
-6.324654851100000030e+00 -3.806090300700000206e+00 2.545466285006000078e+02
-6.266032082199999742e+00 -7.499443014799999752e+00 2.545151350522000087e+02
-6.965235621799999777e+00 1.751111695330000018e+01 2.525351098138999930e+02
-6.504082782400000262e+00 -7.121812892900000413e+00 2.541385063808000098e+02
-6.476098046099999728e+00 -9.322285403400000448e+00 2.539404069548999985e+02
-7.470464586200000312e+00 1.848619533160000117e+01 2.512091674815999909e+02
-7.680164789800000058e+00 1.782344528999999866e+01 2.511747659602999931e+02
-7.217004649499999758e+00 -1.083188142200000037e+01 2.511406587534000039e+02
-7.446232251299999660e+00 -9.946297789400000866e+00 2.512424638027000015e+02
-7.670666190000000384e+00 -1.113161091389999946e+01 2.506423963899999876e+02
