8.953865410700000638e+00 1.834610890369999936e+01 2.515856681424999977e+02
8.957542250499999525e+00 1.813663949909999928e+01 2.516946526806000008e+02
8.961174156800000290e+00 1.792514995690000035e+01 2.517780436156999997e+02
8.513398305100000840e+00 1.856394316589999960e+01 2.516645897861000094e+02
8.109936167400000784e+00 1.724430414749999940e+01 2.542081757832999926e+02
8.135582666799999529e+00 1.575711299790000020e+01 2.545826878940000029e+02
8.173395762800000242e+00 1.336054687799999918e+01 2.544807092766999972e+02
8.211296309199999754e+00 1.096515629740000008e+01 2.543999624916999949e+02
8.074511846500000090e+00 5.986722159100000162e+00 2.545569330524999998e+02
8.112028605200000797e+00 3.579383219099999902e+00 2.543769563801000118e+02
8.050800400600000017e+00 -6.198203079399999815e+00 2.543136521710999887e+02
8.088147329799999952e+00 -8.617826582499999333e+00 2.540857208175999915e+02
7.488339790000000384e+00 1.581979300529999932e+01 2.554103640163000080e+02
7.759997941900000029e+00 -1.347187852700000077e+00 2.549448157406000064e+02
7.835202609699999599e+00 -6.149821698400000258e+00 2.546915010797999912e+02
7.872613006399999946e+00 -8.560579031399999650e+00 2.545114627206999955e+02
7.893622752599999792e+00 -1.122640858549999976e+01 2.511553145325999878e+02
8.964762715699999163e+00 1.771166045889999907e+01 2.518365419136000014e+02
8.975334159599999140e+00 1.706199893000000145e+01 2.518998872672000005e+02
8.517543271999999277e+00 1.836543583630000143e+01 2.519071509025000069e+02
8.537602752099999748e+00 1.735712183020000055e+01 2.528913350338000043e+02
8.541378085299999867e+00 1.714873050690000156e+01 2.530023163303000047e+02
8.966975495799999862e+00 -9.835887565600000215e+00 2.515733451238999976e+02
8.983446138999999775e+00 -1.101488604829999929e+01 2.509807003479000116e+02
8.295109501100000671e+00 1.856737518850000157e+01 2.517499971359999904e+02
8.749447907000000413e+00 -9.773731587400000365e+00 2.520274751890000005e+02
8.114065648600000458e+00 1.704265991999999841e+01 2.543898217336999892e+02
8.139021606400000053e+00 1.553933287729999968e+01 2.545739915023000037e+02
8.176881119999999115e+00 1.314391307150000010e+01 2.544850088549000020e+02
8.190551111099999559e+00 1.226983154420000055e+01 2.544233614585000112e+02
8.214698205799999542e+00 1.074605104429999969e+01 2.543795194109999898e+02
7.889513180899999867e+00 1.746558515499999942e+01 2.542981719294000129e+02
8.077999191400000001e+00 5.770269871800000061e+00 2.545615113135000058e+02
8.091834311099999510e+00 4.901094422699999953e+00 2.545494833067000116e+02
8.115394258700000307e+00 3.358965957200000130e+00 2.543478736161000029e+02
8.129035820000000356e+00 2.482730973899999860e+00 2.542797479708999902e+02
8.208585193899999410e+00 -2.520835865900000083e+00 2.541932139916000040e+02
7.690519015799999636e+00 1.667659506549999904e+01 2.552583347066000101e+02
7.704560586000000377e+00 1.581331374039999993e+01 2.552972692341000140e+02
7.742779010099999581e+00 1.343215996059999995e+01 2.553189017127000113e+02
7.763365856100000073e+00 1.212787633259999964e+01 2.552725004995999996e+02
7.780702878599999650e+00 1.104485501659999969e+01 2.552746453142000007e+02
8.013518205000000449e+00 -3.779896696099999787e+00 2.545488895910999929e+02
8.030395520800000853e+00 -4.881133806200000258e+00 2.544249183256999913e+02
8.054199186099999963e+00 -6.417870496499999966e+00 2.542944100811000112e+02
7.427186166500000297e+00 1.837785287770000053e+01 2.522737706572000036e+02
7.456397462400000009e+00 1.748259379290000126e+01 2.545825329365999892e+02
7.466434675800000420e+00 1.710070896859999934e+01 2.551914581620000035e+02
7.470600976100000068e+00 1.689587406809999948e+01 2.553294419958000105e+02
7.491787341800000277e+00 1.560287266029999920e+01 2.554068371646000060e+02
7.739267951999999617e+00 -4.467414849999999660e-02 2.549618532917999971e+02
7.763403333000000295e+00 -1.565714515900000103e+00 2.549307237161000046e+02
7.814806932699999820e+00 -4.835690188000000056e+00 2.547891071029000045e+02
7.838610322200000091e+00 -6.368670283200000171e+00 2.546768555929000115e+02
7.855295111100000227e+00 -7.474936105500000316e+00 2.545195884283000112e+02
7.876004286099999696e+00 -8.780185953500000196e+00 2.544925915619000136e+02
7.457612659199999605e+00 -9.916132865499999838e+00 2.541914954149000039e+02
6.165398660700000200e+00 1.708061626070000116e+01 2.552042238354000006e+02
6.169957215200000178e+00 1.687560030890000107e+01 2.553400673243000085e+02
6.588091057699999809e+00 -9.940867952899999693e+00 2.541241725861999896e+02
9.172258604699999651e+00 1.833651408349999912e+01 2.514257121855999912e+02
9.182876021300000247e+00 1.769082993800000025e+01 2.515450160844000038e+02
8.968309356700000734e+00 1.749622273689999830e+01 2.518711814901000139e+02
8.978845457100000260e+00 1.684487026169999879e+01 2.519137876846000097e+02
8.735631572599999117e+00 1.835592781220000091e+01 2.517483090780000055e+02
8.747060847700000252e+00 1.773750910549999915e+01 2.521879970184999991e+02
8.757960937600000051e+00 1.710031390669999851e+01 2.523918110179999985e+02
9.191966911299999765e+00 -1.033031000799999966e+01 2.511520376871999929e+02
8.521683896900000832e+00 1.816719298310000141e+01 2.521500205860000108e+02
8.525787266000000031e+00 1.796809069380000068e+01 2.523797007668999868e+02
8.529816506499999562e+00 1.776702996599999906e+01 2.525832843553000089e+02
8.970356365100000673e+00 -1.006358789849999980e+01 2.515088684456000010e+02
8.976994212599999301e+00 -1.053046704910000031e+01 2.513028835371000014e+02
8.986618096400000866e+00 -1.126261449849999963e+01 2.507839065944000083e+02
8.299538117899999179e+00 1.837319184840000119e+01 2.520446341729999915e+02
8.312918840400000065e+00 1.779559958289999955e+01 2.529671147653000105e+02
8.317237605600000805e+00 1.760016689640000109e+01 2.532329631135000056e+02
8.752705150000000600e+00 -1.000722273040000054e+01 2.519217225522999968e+02
8.764911278699999642e+00 -1.100027208550000068e+01 2.511052039152999953e+02
8.117923770699999153e+00 1.683477161329999916e+01 2.544968907816999888e+02
8.125110349799999909e+00 1.640661554589999938e+01 2.545652028657999892e+02
8.142424180200000805e+00 1.532060778800000023e+01 2.545548217788999921e+02
8.162934742799999199e+00 1.401036609039999981e+01 2.544665256911000029e+02
8.180345642300000719e+00 1.292669259070000010e+01 2.544830814642000121e+02
8.183773620600000243e+00 1.270850670899999990e+01 2.544710297810999862e+02
8.193948742099999905e+00 1.205070680350000067e+01 2.544020584204000102e+02
8.200858630000000815e+00 1.161565547120000019e+01 2.543927547117999950e+02
8.538666866299999825e+00 -1.018385027899999962e+01 2.522315357120000101e+02
8.541350933200000384e+00 -1.044632142410000064e+01 2.519281052288000069e+02
8.543945598700000588e+00 -1.071441347530000066e+01 2.515884534040999938e+02
8.546547331199999320e+00 -1.098271813320000057e+01 2.512495979232000138e+02
8.549216713899999931e+00 -1.124784624179999959e+01 2.509344239451999954e+02
7.858476296200000100e+00 1.856839881060000153e+01 2.518492883723999967e+02
7.863480882100000180e+00 1.837996183010000095e+01 2.522132188440000107e+02
7.868662395700000367e+00 1.819550238289999911e+01 2.526209321915000032e+02
7.873944471799999789e+00 1.801361900779999914e+01 2.530548029612000107e+02
7.894259055400000058e+00 1.727481772140000160e+01 2.546080889330999923e+02
7.898617884700000147e+00 1.707635001970000133e+01 2.548245458256999996e+02
7.909794162299999876e+00 1.644210308179999913e+01 2.550132944583000096e+02
7.920309402400000032e+00 1.579416850189999977e+01 2.550411277197999880e+02
7.930527036299999999e+00 1.513972235379999987e+01 2.549955926599999998e+02
7.937317645300000279e+00 1.470286931190000068e+01 2.549598592744999905e+02
7.947758867500000157e+00 1.405331127790000068e+01 2.549694604475000119e+02
7.958324746399999761e+00 1.340675663380000060e+01 2.550106032630999948e+02
7.968681474500000306e+00 1.275534884370000022e+01 2.549994827547999989e+02
7.978842366400000330e+00 1.209906360829999983e+01 2.549382179302000111e+02
7.989240901099999626e+00 1.144852915409999916e+01 2.549371378497000080e+02
7.996175129300000073e+00 1.101489541409999973e+01 2.549369386975000111e+02
8.006270230800000220e+00 1.035648394530000083e+01 2.548575406147000137e+02
8.016357331500000072e+00 9.697519893400000868e+00 2.547748794812000028e+02
8.026665484500000503e+00 9.044256452200000851e+00 2.547494302167999933e+02
8.037158288700000597e+00 8.396009253800000849e+00 2.547722770581000020e+02
8.043985245700000064e+00 7.959183726900000089e+00 2.547431785411999954e+02
8.054136977800000707e+00 7.301269616799999973e+00 2.546755454876999920e+02
8.060882866600000085e+00 6.861841225900000119e+00 2.546238715497999863e+02
8.064255781800000022e+00 6.642107775300000405e+00 2.545981856155999878e+02
8.081500045200000315e+00 5.554254211299999966e+00 2.545699428073000092e+02
8.095207244899999210e+00 4.681152909799999762e+00 2.545231707233999998e+02
8.101933809300000178e+00 4.240488250000000292e+00 2.544643459167000117e+02
8.118764827399999717e+00 3.138654664000000150e+00 2.543199286610999934e+02
8.122153568499999921e+00 2.918907011199999957e+00 2.542970027133999906e+02
8.132507049599999149e+00 2.265667947699999907e+00 2.542798393022999903e+02
8.139444766500000483e+00 1.831337916799999910e+00 2.542782773175999864e+02
8.212138146499999181e+00 -2.734817969799999915e+00 2.542170809325000107e+02
8.218998890299999971e+00 -3.172153234700000102e+00 2.541927151982999931e+02
8.324330314499999162e+00 -1.038794959510000027e+01 2.523518503726000120e+02
7.678188856600000278e+00 1.729087222640000121e+01 2.548381188294999902e+02
7.694045499199999583e+00 1.646106177669999937e+01 2.552715543138000100e+02
7.708009665999999704e+00 1.559632716229999971e+01 2.552935914882999953e+02
7.714782806599999709e+00 1.515986219900000087e+01 2.552586535170999866e+02
7.735712010300000330e+00 1.386259752159999969e+01 2.552883955956999955e+02
7.746248543600000147e+00 1.321560524490000077e+01 2.553197591859999989e+02
7.766815207899999685e+00 1.191086468940000032e+01 2.552687827953000124e+02
7.773780441699999599e+00 1.147832362960000019e+01 2.552764887175000013e+02
7.784092813000000000e+00 1.082647870269999935e+01 2.552572580624000125e+02
7.848888086899999728e+00 6.683293937100000193e+00 2.550089302567999994e+02
7.859181680199999853e+00 6.030216776899999687e+00 2.549831727300000068e+02
7.869729126500000227e+00 5.383886868500000311e+00 2.550182371747999923e+02
7.879929905800000078e+00 4.728227898000000096e+00 2.549700532411999916e+02
7.886622011500000085e+00 4.288000819799999697e+00 2.549112798269999871e+02
7.896712733500000247e+00 3.628846495899999969e+00 2.548351250711999967e+02
7.906838082400000189e+00 2.970409873099999931e+00 2.547668870187999914e+02
7.917193737999999925e+00 2.318424941900000036e+00 2.547545294935999891e+02
7.924192691300000035e+00 1.886572004700000083e+00 2.547698121704000016e+02
7.934517867500000321e+00 1.233670058500000000e+00 2.547499322706999862e+02
7.944593148500000090e+00 5.729912028000000435e-01 2.546670631293999918e+02
7.996635022899999612e+00 -2.679764610599999930e+00 2.546687517370999956e+02
8.003603358099999454e+00 -3.112437328399999981e+00 2.546766468744000065e+02
8.016797758699999221e+00 -4.003402666200000404e+00 2.544992472817999953e+02
8.020134188300000133e+00 -4.225007409999999908e+00 2.544641956183999980e+02
8.033795833199999237e+00 -5.100597955299999597e+00 2.544064128876999860e+02
8.040528920599999907e+00 -5.542029320100000156e+00 2.543514234095000006e+02
8.057547095600000375e+00 -6.639459616599999947e+00 2.542614453642000001e+02
8.060866226599999962e+00 -6.862215813799999786e+00 2.542203186886999902e+02
8.077739742900000408e+00 -7.966085919600000231e+00 2.540887298837999992e+02
8.098243499100000520e+00 -9.281886387100000135e+00 2.539975173416999894e+02
7.461693755999999844e+00 1.729612236759999888e+01 2.549412447642000075e+02
7.474335245799999861e+00 1.668380603059999956e+01 2.553823611887999903e+02
7.477860829900000006e+00 1.646820533260000019e+01 2.553941309008999951e+02
7.495194673300000332e+00 1.538522320899999940e+01 2.553952046505000055e+02
7.742704911599999740e+00 -2.622714411000000023e-01 2.549548796118999974e+02
7.749629335599999891e+00 -6.960178017999999467e-01 2.549525876728000071e+02
7.766796286499999979e+00 -1.784626221699999959e+00 2.549137263753000013e+02
7.818204782699999633e+00 -5.054709038200000393e+00 2.547725909305999892e+02
7.824930358799999652e+00 -5.495054529399999943e+00 2.547229716731999929e+02
7.841962561999999970e+00 -6.589319244000000353e+00 2.546493292984999925e+02
7.845281963699999750e+00 -6.811128323500000192e+00 2.546136560507000013e+02
7.858702194100000149e+00 -7.693961404999999587e+00 2.545045312432999935e+02
7.862168178900000193e+00 -7.911038674000000270e+00 2.545033126078000123e+02
7.879395051600000421e+00 -8.999881710000000368e+00 2.544732265526999981e+02
7.882780053100000295e+00 -9.219775645600000402e+00 2.544526128951999908e+02
7.892416128999999891e+00 -1.092521174530000039e+01 2.517155449573000112e+02
7.249805677100000345e+00 1.710057165250000111e+01 2.552310842628999978e+02
7.639265413000000393e+00 -7.446530162000000175e+00 2.547477039236999872e+02
7.646162269500000441e+00 -7.881365991700000073e+00 2.547388169035000089e+02
7.656622529399999877e+00 -8.530108712400000570e+00 2.547501646146999974e+02
7.666873047100000171e+00 -9.185341189000000739e+00 2.547163368870999989e+02
7.674277880900000071e+00 -9.931126739299999784e+00 2.540634092523999925e+02
6.811042756300000001e+00 1.728906557290000023e+01 2.549827808772000139e+02
6.816153272400000240e+00 1.709370387030000060e+01 2.552333396500000049e+02
6.820568485099999911e+00 1.688947133279999946e+01 2.553781034810999984e+02
6.828062387200000138e+00 1.646366512859999887e+01 2.554636944243999892e+02
7.223428107200000170e+00 -8.517648396000000233e+00 2.548889732846000129e+02
7.233701503799999877e+00 -9.171268113900000074e+00 2.548649557912999910e+02
7.239376931699999851e+00 -9.637662365800000686e+00 2.546387548543999912e+02
7.240483897399999869e+00 -9.916485726499999487e+00 2.542145567999000093e+02
6.154047609400000063e+00 1.746751078690000014e+01 2.546547100822999994e+02
6.582809879300000055e+00 -9.184064894600000528e+00 2.548535102273000064e+02
6.587704958299999802e+00 -9.659866426300000697e+00 2.545629010440999878e+02
5.948521472500000407e+00 1.707690978600000165e+01 2.552021906774000115e+02
6.370718142100000314e+00 -9.945980123100000014e+00 2.541146778318999964e+02
9.168654652400000771e+00 1.854768038850000167e+01 2.513352356172999862e+02
9.175824445699999998e+00 1.812304315640000141e+01 2.514872175767000044e+02
9.179361638799999668e+00 1.790767065780000067e+01 2.515251231137000048e+02
9.186371138000000158e+00 1.747268376519999933e+01 2.515491372175000038e+02
8.946382301799999937e+00 1.875957335669999893e+01 2.512963172832000112e+02
8.950143613299999856e+00 1.855364314999999920e+01 2.514516778615000021e+02
8.971827428799999282e+00 1.727938444489999981e+01 2.518888644188999990e+02
8.739497996100000776e+00 1.815168575159999875e+01 2.519195704804999991e+02
8.743311451400000323e+00 1.794572728569999853e+01 2.520681688216000111e+02
8.750741372900000314e+00 1.752681673800000084e+01 2.522770114390000060e+02
8.754367280700000364e+00 1.731414908040000000e+01 2.523416492322000124e+02
8.761538179200000442e+00 1.688590744389999898e+01 2.524347177797000086e+02
8.765095527899999794e+00 1.667077076280000014e+01 2.524686377872000094e+02
9.188534452700000799e+00 -1.010444383849999994e+01 2.512025105884000027e+02
9.195376430099999610e+00 -1.055908613269999918e+01 2.510820266810000021e+02
8.509276828999999154e+00 1.876349845620000067e+01 2.514320088732000045e+02
8.533752914700000858e+00 1.756334508859999843e+01 2.527532914966000135e+02
8.963568164999999865e+00 -9.610555290600000689e+00 2.516218548175000080e+02
8.973699217300000086e+00 -1.029485280970000005e+01 2.514204308045000005e+02
8.980242173500000646e+00 -1.077056662829999922e+01 2.511556158674999892e+02
8.290766546500000445e+00 1.876412748019999910e+01 2.514834196148999865e+02
8.304018647599999525e+00 1.818077096509999890e+01 2.523571061476999944e+02
8.308497265599999793e+00 1.798873259619999843e+01 2.526704824827000095e+02
8.755867273299999809e+00 -1.024743091440000065e+01 2.517707043887000111e+02
8.758936515300000281e+00 -1.049422390380000003e+01 2.515757454751999944e+02
8.761940670399999576e+00 -1.074587898280000076e+01 2.513490028607000113e+02
8.767875630100000706e+00 -1.125567505619999942e+01 2.508561696772000005e+02
8.076815740800000754e+00 1.856888717209999839e+01 2.518118915656000070e+02
8.081539774799999520e+00 1.837813729779999861e+01 2.521479118949999929e+02
8.086380452800000285e+00 1.819046857500000058e+01 2.525172267844999965e+02
8.091272715100000568e+00 1.800443816579999989e+01 2.529018718009999986e+02
8.096141190299999124e+00 1.781840800020000160e+01 2.532820388707999939e+02
8.121571645099999515e+00 1.662199523379999988e+01 2.545462815154000111e+02
8.128612903300000525e+00 1.619040315790000051e+01 2.545744096983000020e+02
8.145804677999999299e+00 1.510133860070000011e+01 2.545297840222999923e+02
8.149188563399999197e+00 1.488207807420000073e+01 2.545051132405000089e+02
8.159464109099999973e+00 1.422741929100000036e+01 2.544665353750999941e+02
8.166417000999999232e+00 1.379362666769999990e+01 2.544698834540000121e+02
8.187168722599999171e+00 1.248935373670000004e+01 2.544490057945999979e+02
8.197383790499999989e+00 1.183262072750000016e+01 2.543916325529000062e+02
8.204355545100000313e+00 1.139933541509999948e+01 2.544004057369999998e+02
8.207844219300000077e+00 1.118277710209999931e+01 2.544055731804000118e+02
7.902584094199999853e+00 1.686991949580000139e+01 2.549460700664999990e+02
7.906258310700000180e+00 1.665746354470000057e+01 2.549966421521000086e+02
7.913301808599999987e+00 1.622617099960000075e+01 2.550232177954999884e+02
7.923756378300000236e+00 1.557694781130000017e+01 2.550362083722000079e+02
7.933907325699999902e+00 1.492097912929999914e+01 2.549741340372000025e+02
7.940764412300000075e+00 1.448556796919999989e+01 2.549545530624000094e+02
7.944246300099999658e+00 1.426908199979999914e+01 2.549581663941000045e+02
7.951288011199999950e+00 1.383794683059999997e+01 2.549849737769999933e+02
7.954814407099999762e+00 1.362254237159999981e+01 2.549999031806999881e+02
7.961809122600000066e+00 1.319039818499999939e+01 2.550151043744999981e+02
7.965262487999999585e+00 1.297329816869999952e+01 2.550117358088000117e+02
7.972070257700000440e+00 1.253664921959999923e+01 2.549795160369999962e+02
7.982273465399999601e+00 1.188134125849999911e+01 2.549288474651999934e+02
7.992727620200000160e+00 1.123221659300000042e+01 2.549421508776999872e+02
7.999571689299999733e+00 1.079626366009999927e+01 2.549186328474999925e+02
8.002928533200000416e+00 1.057658722020000042e+01 2.548900688532000061e+02
8.009617439399999483e+00 1.013647681349999985e+01 2.548262512007999874e+02
8.012980133399999261e+00 9.916818104200000761e+00 2.547986791616000062e+02
8.019754375799999835e+00 9.478733643700000044e+00 2.547562818915999969e+02
8.030178171499999351e+00 8.828558901199999198e+00 2.547608201449999967e+02
8.040585510099999667e+00 8.178003504699999482e+00 2.547615130817999898e+02
8.047373259400000478e+00 7.740027758100000099e+00 2.547218365964000100e+02
8.050757988299999113e+00 7.520730849099999560e+00 2.546993608957999982e+02
8.057511809299999328e+00 7.081617738100000281e+00 2.546501804085999936e+02
8.067643481499999325e+00 6.422752671099999588e+00 2.545761750073000087e+02
8.084985437400000308e+00 5.337781374000000412e+00 2.545742081084999882e+02
8.088430979900000040e+00 5.120111115000000268e+00 2.545677835237000011e+02
8.098571277699999627e+00 4.460860470800000144e+00 2.544939847507000081e+02
8.105297353799999271e+00 4.020115438800000440e+00 2.544349460818999944e+02
8.135978291000000695e+00 2.048553170799999990e+00 2.542794787180000071e+02
8.142903684300000222e+00 1.613803113899999975e+00 2.542744154705000028e+02
8.184083368499999622e+00 -1.008417158999999952e+00 2.541359980047000136e+02
8.201421984699999612e+00 -2.094917032500000165e+00 2.541289926940000043e+02
8.215617263200000409e+00 -2.951609433699999840e+00 2.542192337856000108e+02
8.222293674099999450e+00 -3.396145850799999977e+00 2.541401396315999932e+02
8.326324301099999659e+00 -1.067623067769999956e+01 2.518735553170999992e+02
8.328385717999999827e+00 -1.096210628699999923e+01 2.514147130467000011e+02
8.330647304199999326e+00 -1.123923209720000038e+01 2.510179855455000109e+02
7.645357677699999854e+00 1.837956757679999953e+01 2.522515355975999967e+02
7.650835385699999769e+00 1.819686377689999901e+01 2.526802139087000114e+02
7.673138836799999751e+00 1.747871150860000000e+01 2.544949567843999887e+02
7.682752987799999822e+00 1.709440140919999962e+01 2.550765776604999928e+02
7.697545385899999815e+00 1.624503748429999916e+01 2.552790038166000102e+02
7.701060753000000147e+00 1.602930985669999941e+01 2.552897147783999969e+02
7.711406912900000243e+00 1.537831784649999989e+01 2.552785275994000074e+02
7.718175113600000081e+00 1.494170360020000032e+01 2.552422648918000050e+02
7.739264712199999785e+00 1.364777422859999945e+01 2.553079719389000104e+02
7.749685626799999838e+00 1.299836393590000050e+01 2.553133488999000065e+02
7.756519322599999988e+00 1.256299964529999968e+01 2.552914869187999898e+02
7.770289620299999811e+00 1.169440484959999971e+01 2.552707230963000029e+02
7.777261980299999600e+00 1.126204278270000003e+01 2.552801606989999925e+02
7.787447642600000108e+00 1.060728759440000069e+01 2.552319112755000106e+02
7.790799350700000403e+00 1.038796870490000046e+01 2.552055247106000024e+02
7.797541778300000281e+00 9.950175526000000659e+00 2.551617670589999989e+02
7.800923332700000046e+00 9.731495615600000093e+00 2.551423053425999967e+02
7.804317593799999564e+00 9.513073354499999468e+00 2.551255191577999994e+02
7.811230960699999670e+00 9.079194110799999606e+00 2.551209894701999872e+02
7.814758516899999563e+00 8.863983745300000550e+00 2.551353375298999993e+02
7.821784306599999681e+00 8.432872889700000485e+00 2.551570198853000022e+02
7.825228626400000387e+00 8.215654917100000176e+00 2.551519555426999943e+02
7.832037208900000103e+00 7.779177030499999645e+00 2.551227905046999922e+02
7.835427076200000229e+00 7.560561794599999885e+00 2.551048656581000103e+02
7.838805900399999693e+00 7.341634816800000074e+00 2.550841973651000103e+02
7.845527094999999562e+00 6.902754420499999988e+00 2.550339336032000119e+02
7.852274662100000135e+00 6.464445501700000207e+00 2.549897228113999859e+02
7.862698935800000122e+00 5.814789245200000067e+00 2.549951111809999986e+02
7.873180591299999698e+00 5.166721005000000311e+00 2.550143787250999878e+02
7.883274902100000148e+00 4.508086229599999939e+00 2.549402970831000061e+02
7.889977878899999908e+00 4.068114821200000009e+00 2.548842302118999896e+02
7.893340396700000205e+00 3.848375393199999994e+00 2.548586633324999866e+02
7.900084979699999899e+00 3.409326012699999797e+00 2.548118387982999877e+02
7.910250755199999873e+00 2.751950916200000208e+00 2.547531448512999930e+02
7.920693868199999876e+00 2.102499048299999895e+00 2.547622098287000085e+02
7.927675780400000427e+00 1.670160875899999953e+00 2.547733093674000031e+02
7.931124378199999825e+00 1.452742241099999942e+00 2.547684263534000024e+02
7.937869289400000028e+00 1.013258116300000067e+00 2.547205785541000012e+02
7.941209996099999557e+00 7.925117991000000250e-01 2.546887034307999897e+02
7.948026948499999911e+00 3.550419302999999749e-01 2.546583420494000052e+02
7.954954258099999898e+00 -7.907143819999999657e-02 2.546554427224000108e+02
7.958403940700000234e+00 -2.965591148000000232e-01 2.546505298220999975e+02
7.965329274100000134e+00 -7.307423898999999556e-01 2.546471056180000119e+02
7.968789673599999901e+00 -9.478832111999999643e-01 2.546450051060000135e+02
7.972225837499999912e+00 -1.165810757300000056e+00 2.546366999830999873e+02
7.979063864899999636e+00 -1.602835416000000013e+00 2.546110777973999859e+02
7.982513356000000115e+00 -1.820399709299999946e+00 2.546057990257999961e+02
7.989517728500000082e+00 -2.251988754300000117e+00 2.546227612438999870e+02
7.993074348899999571e+00 -2.465972290299999869e+00 2.546451121565999927e+02
8.000157833199999402e+00 -2.894796662300000101e+00 2.546827135062999901e+02
8.006963437499999614e+00 -3.332969973700000033e+00 2.546486143424000090e+02
8.023529902299999961e+00 -4.444563298400000306e+00 2.544446873468999968e+02
8.026964747899999253e+00 -4.662761500700000283e+00 2.544354136844999914e+02
8.037162244799999300e+00 -5.321293550600000088e+00 2.543789706151999894e+02
8.043927847999999159e+00 -5.761658804799999700e+00 2.543321352531999935e+02
8.081231309899999715e+00 -8.182439967800000602e+00 2.540940099656000086e+02
8.091534875200000698e+00 -8.838268900199999223e+00 2.540624680644999955e+02
8.109007614299999389e+00 -1.063680176119999921e+01 2.521670999065999865e+02
8.110382227600000604e+00 -1.094147565099999930e+01 2.515799304802999927e+02
8.112136143400000776e+00 -1.123142005819999945e+01 2.510961062254000069e+02
7.481347890900000408e+00 1.625195035550000000e+01 2.553982738196999946e+02
7.484848467299999975e+00 1.603595235339999903e+01 2.554052822698999989e+02
7.735824737899999803e+00 1.727142975000000025e-01 2.549671783398000002e+02
7.746150016699999696e+00 -4.796212349000000263e-01 2.549499284935999981e+02
7.753112086899999866e+00 -9.123180738999999706e-01 2.549559906798000100e+02
7.770198620600000439e+00 -2.003278230599999876e+00 2.548988585708999892e+02
7.773626578600000059e+00 -2.221183009000000208e+00 2.548898844363000080e+02
7.811377455199999709e+00 -4.617700433299999574e+00 2.547980740977999972e+02
7.821568074500000023e+00 -5.274855086399999671e+00 2.547478937550999945e+02
7.828324391099999779e+00 -5.714258060799999761e+00 2.547054888241000015e+02
7.831759920799999719e+00 -5.932155873000000135e+00 2.546976336573999902e+02
7.848597873100000122e+00 -7.033060518700000152e+00 2.545773510223999949e+02
7.865675118300000435e+00 -8.126698661700000770e+00 2.545120584686999905e+02
7.869171952300000328e+00 -8.342680688399999767e+00 2.545184799010999939e+02
7.885980470399999831e+00 -9.446187272199999541e+00 2.543872207459999970e+02
7.888638087900000428e+00 -9.691899072300000029e+00 2.541897306648000097e+02
7.239416039299999994e+00 1.748157007269999852e+01 2.546121659265999995e+02
7.244915474399999944e+00 1.729553723369999929e+01 2.549758372050999924e+02
7.254071140699999809e+00 1.689622033910000098e+01 2.553744629077999946e+02
7.257856333500000368e+00 1.668457075679999946e+01 2.554319722166000020e+02
7.271842766799999858e+00 1.582012971670000034e+01 2.554541067950999889e+02
7.642689911399999758e+00 -7.664677095100000059e+00 2.547380852128000015e+02
7.649672467400000286e+00 -8.096892671599999147e+00 2.547477045233000013e+02
7.653174281000000079e+00 -8.312679645699999398e+00 2.547546976058000041e+02
7.660024345700000126e+00 -8.748955952199999331e+00 2.547357881528999997e+02
7.663438573799999709e+00 -8.967450781400000182e+00 2.547239360595999926e+02
7.674352401800000223e+00 -1.091625199119999934e+01 2.518016498832000138e+02
7.022324128100000173e+00 1.747865653579999901e+01 2.546194813962000012e+02
7.027997488399999604e+00 1.729256534379999977e+01 2.549824080427000013e+02
7.033013537599999587e+00 1.709760179339999908e+01 2.552376225724999870e+02
7.037363872500000284e+00 1.689347414630000088e+01 2.553835715058000062e+02
7.041206092700000418e+00 1.668221798469999939e+01 2.554455909470999870e+02
7.044778523899999811e+00 1.646714760689999935e+01 2.554631156115000010e+02
7.433216752999999954e+00 -8.085892532700000856e+00 2.548511064214999919e+02
7.436717429199999785e+00 -8.301736765799999418e+00 2.548573505994999948e+02
7.440169917499999563e+00 -8.518939687399999627e+00 2.548540582150000091e+02
7.447007287599999970e+00 -8.955229353700000061e+00 2.548344508307999945e+02
7.450460370500000096e+00 -9.172411889199999280e+00 2.548313854110000136e+02
7.456292335399999693e+00 -9.637498276800000596e+00 2.546143496686999868e+02
6.805223745300000182e+00 1.747557352320000135e+01 2.546247841716999858e+02
6.824456197299999971e+00 1.667842191989999989e+01 2.554425334023000005e+02
7.219968344999999843e+00 -8.300675099299999360e+00 2.548907640785000126e+02
7.226844214199999783e+00 -8.735708007399999531e+00 2.548796264613999938e+02
7.230268490100000278e+00 -8.953599452200000641e+00 2.548714993279000112e+02
7.236916520400000330e+00 -9.394578101800000525e+00 2.548195834576999914e+02
6.594080423100000310e+00 1.728551569680000100e+01 2.549825628234000021e+02
6.599255454499999729e+00 1.708943821440000121e+01 2.552247664719999989e+02
6.603713829100000154e+00 1.688485064549999848e+01 2.553654606917000081e+02
7.006542091300000052e+00 -8.520452156899999352e+00 2.548952846976999922e+02
7.013392016000000062e+00 -8.956003466200000318e+00 2.548805640426000139e+02
7.016782124499999718e+00 -9.174619769999999619e+00 2.548674612458000013e+02
7.022206990399999960e+00 -9.644438335900000325e+00 2.546177629953000121e+02
7.023079769299999775e+00 -9.923940145999999629e+00 2.541890240355999993e+02
6.371097720199999870e+00 1.747017885089999822e+01 2.546445101790999956e+02
6.377108638300000187e+00 1.728188815789999921e+01 2.549814359330999878e+02
6.382331317800000292e+00 1.708500284650000012e+01 2.552142166749999888e+02
6.386830774699999935e+00 1.688008978010000050e+01 2.553511842448000095e+02
6.390794699699999803e+00 1.666915105440000033e+01 2.554170786731999954e+02
6.160123846800000358e+00 1.727816555760000128e+01 2.549791952490000142e+02
6.585745712999999668e+00 -9.411817378900000364e+00 2.547776153766999983e+02
5.943173688999999982e+00 1.727484228779999853e+01 2.549816347823000058e+02
6.370541044800000385e+00 -9.665045005099999642e+00 2.545528835279000077e+02
6.153486793699999957e+00 -9.948262699100000717e+00 2.541245308244999990e+02
8.727806014400000478e+00 1.876184176339999965e+01 2.513679336893000027e+02
8.731728576300000100e+00 1.855910531430000177e+01 2.515619715031999988e+02
9.198757815400000482e+00 -1.079159630090000022e+01 2.509870799519999878e+02
9.202107722099999165e+00 -1.102851982860000035e+01 2.508628456366000137e+02
8.132108235300000487e+00 1.597400188429999979e+01 2.545813438621999865e+02
8.169905733900000300e+00 1.357705830809999981e+01 2.544750229141999966e+02
7.916814621600000379e+00 1.601036210979999908e+01 2.550344109124000056e+02
7.927153240099999998e+00 1.535862495900000013e+01 2.550190270019000138e+02
7.975448846499999966e+00 1.231768211930000056e+01 2.549569547945999943e+02
7.985744580699999595e+00 1.166462987230000081e+01 2.549299042030000066e+02
8.023186410899999288e+00 9.260869069099999962e+00 2.547467786656000044e+02
8.033686714999999978e+00 8.612787925399999267e+00 2.547713922083000000e+02
8.071059171599999971e+00 6.204187238500000312e+00 2.545615150007000125e+02
8.108661644999999751e+00 3.799731856999999824e+00 2.544056792638000104e+02
8.204999155299999458e+00 -2.308073360199999868e+00 2.541597001851999948e+02
7.686820566899999818e+00 1.688891032120000091e+01 2.552075969619000091e+02
7.759936845400000394e+00 1.234531979189999973e+01 2.552807264232999955e+02
7.794164030900000206e+00 1.016894220950000083e+01 2.551822606210999993e+02
7.807746607300000363e+00 9.295478222699999904e+00 2.551168984905999935e+02
7.818289754100000266e+00 8.648875819300000600e+00 2.551505144065999957e+02
7.828639634399999991e+00 7.997596308900000395e+00 2.551390127026000130e+02
7.842170199199999914e+00 7.122318916200000238e+00 2.550601097658999947e+02
7.855703152200000261e+00 6.246676325300000165e+00 2.549804884390999860e+02
7.866226862699999600e+00 5.599665245899999810e+00 2.550096700928999951e+02
7.876574901399999717e+00 4.948012537100000330e+00 2.549968850244999885e+02
7.903457483500000436e+00 3.189777437500000090e+00 2.547884965721000015e+02
7.913705348999999778e+00 2.534688653699999961e+00 2.547496295576000023e+02
7.951495086699999604e+00 1.381373624999999994e-01 2.546581201184000065e+02
7.961856187699999587e+00 -5.139585156000000543e-01 2.546463587670999971e+02
7.975639170900000074e+00 -1.384516788300000023e+00 2.546223212307000097e+02
7.985997919599999939e+00 -2.036776997900000108e+00 2.546097891635000110e+02
8.010254923199999766e+00 -3.555916885099999813e+00 2.546024840588999893e+02
8.047362723199999124e+00 -5.979953279400000099e+00 2.543227047544000072e+02
8.084714115900000664e+00 -8.399176716199999504e+00 2.540965557133000061e+02
8.094904992300000046e+00 -9.059407308799999115e+00 2.540345355320999943e+02
7.756574924799999771e+00 -1.129178102100000025e+00 2.549549296858999980e+02
7.851932528599999905e+00 -7.254446529900000051e+00 2.545451750199000003e+02
7.261398789500000284e+00 1.646916662840000001e+01 2.554457245408999881e+02
7.264879264200000186e+00 1.625279693850000129e+01 2.554482946681999920e+02
7.268363701000000177e+00 1.603649858440000031e+01 2.554516306643000121e+02
7.670124463899999689e+00 -9.408968432500000034e+00 2.546692559292999931e+02
7.672746741500000134e+00 -9.652591431299999414e+00 2.544851845441000080e+02
7.048262906499999758e+00 1.625082063760000040e+01 2.554660806532000095e+02
7.443579897600000272e+00 -8.737306786499999589e+00 2.548426809249000087e+02
7.453724350699999945e+00 -9.394971280800000102e+00 2.547912856377000139e+02
6.588149850799999818e+00 1.747278574210000102e+01 2.546335823652999863e+02
6.607636608400000000e+00 1.667382338539999864e+01 2.554302364323000063e+02
6.611270730000000206e+00 1.645928329519999878e+01 2.554539549918000034e+02
7.009973084100000307e+00 -8.738091655299999871e+00 2.548888581205999913e+02
7.019904559999999627e+00 -9.399652064199999657e+00 2.548102251354000032e+02
6.799807737400000107e+00 -9.179191397700000365e+00 2.548615299390000075e+02
6.802825704500000015e+00 -9.405949172399999725e+00 2.547924441069999943e+02
6.804947744999999770e+00 -9.652662346299999641e+00 2.545868348943999990e+02
6.805574281200000186e+00 -9.933044026199999266e+00 2.541522234120000121e+02
6.368699559799999577e+00 -9.416736106300000131e+00 2.547693379412000070e+02
6.153487333500000211e+00 -9.667988177799999860e+00 2.545582138691000011e+02
