-1.587155825500000006e+00 -3.383840202600000069e+00 3.286965746718000219e+02 0.000000000000000000e+00 0.000000000000000000e+00 0.000000000000000000e+00
-2.969728603300000103e+00 -1.369370667899999994e+01 3.240827243548999945e+02 0.000000000000000000e+00 0.000000000000000000e+00 0.000000000000000000e+00
-3.148855902100000215e+00 -1.538376054149999916e+01 3.231400208698000256e+02 0.000000000000000000e+00 0.000000000000000000e+00 0.000000000000000000e+00
-2.157170401300000151e+00 -1.338392638979999916e+01 3.246465370805000248e+02 0.000000000000000000e+00 0.000000000000000000e+00 0.000000000000000000e+00
1.403783706400000053e+00 -1.145223351029999925e+01 3.286248134215999812e+02 0.000000000000000000e+00 0.000000000000000000e+00 0.000000000000000000e+00
-1.755057633899999914e+00 1.216483030670000076e+01 3.279190721510000230e+02 0.000000000000000000e+00 0.000000000000000000e+00 0.000000000000000000e+00
-1.312939251099999982e+00 -1.146014109200000064e+01 3.266910787392000088e+02 0.000000000000000000e+00 0.000000000000000000e+00 0.000000000000000000e+00
-1.163127138799999960e+00 6.593771068799999746e+00 3.311579040906000273e+02 0.000000000000000000e+00 0.000000000000000000e+00 0.000000000000000000e+00
-2.085317637100000177e+00 1.106954812889999928e+01 3.281870180262999952e+02 0.000000000000000000e+00 0.000000000000000000e+00 0.000000000000000000e+00
-8.366694410000000137e-02 -5.435639747999999827e+00 3.293847871222999970e+02 0.000000000000000000e+00 0.000000000000000000e+00 0.000000000000000000e+00
-1.273977029699999930e+00 -1.762736892419999890e+01 3.228836508027000036e+02 0.000000000000000000e+00 0.000000000000000000e+00 0.000000000000000000e+00
-1.958479463199999993e+00 1.001406492829999983e+01 3.316223343748000048e+02 0.000000000000000000e+00 0.000000000000000000e+00 0.000000000000000000e+00
-1.615538980099999966e+00 -4.889933273799999647e+00 3.290786268672000006e+02 0.000000000000000000e+00 0.000000000000000000e+00 0.000000000000000000e+00
-1.481143833500000007e+00 -7.917872956000000073e+00 3.277154168436999839e+02 0.000000000000000000e+00 0.000000000000000000e+00 0.000000000000000000e+00
-1.652408893899999898e+00 8.115394031099999239e+00 3.292409917182000072e+02 0.000000000000000000e+00 0.000000000000000000e+00 0.000000000000000000e+00
-1.696644926100000061e+00 7.642845568400000289e+00 3.301525698637000232e+02 0.000000000000000000e+00 0.000000000000000000e+00 0.000000000000000000e+00
-1.633662076700000076e+00 5.077504335799999602e+00 3.296881084339000267e+02 0.000000000000000000e+00 0.000000000000000000e+00 0.000000000000000000e+00
-2.215502440999999934e+00 2.583733469699999841e+00 3.281589283558000147e+02 0.000000000000000000e+00 0.000000000000000000e+00 0.000000000000000000e+00
-2.072629986399999957e+00 1.245752007999999939e-01 3.281829345151999746e+02 0.000000000000000000e+00 0.000000000000000000e+00 0.000000000000000000e+00
3.218618390999999912e-01 -1.567294870559999964e+01 3.262720229778000203e+02 0.000000000000000000e+00 0.000000000000000000e+00 0.000000000000000000e+00
-2.495819799399999983e+00 -4.816640987599999590e+00 3.270224063000999877e+02 0.000000000000000000e+00 0.000000000000000000e+00 0.000000000000000000e+00
2.711152332699999778e+00 4.087548338999999586e+00 3.307244767183000249e+02 0.000000000000000000e+00 0.000000000000000000e+00 0.000000000000000000e+00
-1.983698948300000042e+00 -8.394490169499999155e+00 3.266190636297999959e+02 0.000000000000000000e+00 0.000000000000000000e+00 0.000000000000000000e+00
-1.743285810499999977e+00 -8.917639825600000236e+00 3.266587707942999828e+02 0.000000000000000000e+00 0.000000000000000000e+00 0.000000000000000000e+00
-1.344709007300000092e+00 -1.237115738409999999e+01 3.266503759033000165e+02 0.000000000000000000e+00 0.000000000000000000e+00 0.000000000000000000e+00
-1.501723628299999946e+00 -1.485687702569999935e+01 3.276150557709000282e+02 0.000000000000000000e+00 0.000000000000000000e+00 0.000000000000000000e+00
2.266370244199999995e+00 4.102192974400000303e+00 3.309804878877999954e+02 0.000000000000000000e+00 0.000000000000000000e+00 0.000000000000000000e+00
-1.587774351000000028e-01 -6.953005993199999679e+00 3.293002249891999895e+02 0.000000000000000000e+00 0.000000000000000000e+00 0.000000000000000000e+00
1.873546414700000051e+00 -2.904556148300000196e+00 3.298606217671999730e+02 0.000000000000000000e+00 0.000000000000000000e+00 0.000000000000000000e+00
2.860036770199999800e+00 -1.638822444839999903e+01 3.242552148272999943e+02 0.000000000000000000e+00 0.000000000000000000e+00 0.000000000000000000e+00
-6.563870479000000202e-01 -1.235828755250000022e+01 3.285039369739000108e+02 0.000000000000000000e+00 0.000000000000000000e+00 0.000000000000000000e+00
-1.010403809500000083e+00 -1.384206603600000030e+00 3.300836000895999973e+02 0.000000000000000000e+00 0.000000000000000000e+00 0.000000000000000000e+00
2.228112519500000221e+00 8.665892540399999788e+00 3.315826929054999823e+02 0.000000000000000000e+00 0.000000000000000000e+00 0.000000000000000000e+00
3.385607156599999890e+00 -1.590495795240000021e+01 3.252636432282000101e+02 0.000000000000000000e+00 0.000000000000000000e+00 0.000000000000000000e+00
-1.306630599300000029e+00 -1.498347301579999957e+01 3.247648844025000017e+02 0.000000000000000000e+00 0.000000000000000000e+00 0.000000000000000000e+00
2.765833869000000167e+00 -1.345060078020000027e+01 3.281528498100000206e+02 0.000000000000000000e+00 0.000000000000000000e+00 0.000000000000000000e+00
1.363111680400000081e+00 5.088969053199999593e+00 3.311750872042999845e+02 0.000000000000000000e+00 0.000000000000000000e+00 0.000000000000000000e+00
-3.197216304599999948e+00 1.093322405399999919e+00 3.272869403089999878e+02 0.000000000000000000e+00 0.000000000000000000e+00 0.000000000000000000e+00
1.791414266799999933e+00 -1.487327162689999938e+01 3.281564367408000180e+02 0.000000000000000000e+00 0.000000000000000000e+00 0.000000000000000000e+00
2.350730448899999825e+00 -6.410703229100000122e+00 3.293340811220999740e+02 0.000000000000000000e+00 0.000000000000000000e+00 0.000000000000000000e+00
1.372152221999999977e+00 -7.395738639500000211e+00 3.292684497911000108e+02 0.000000000000000000e+00 0.000000000000000000e+00 0.000000000000000000e+00
-1.349146734899999922e+00 -9.402028421100000699e+00 3.280419248659999880e+02 0.000000000000000000e+00 0.000000000000000000e+00 0.000000000000000000e+00
2.743217174599999808e+00 -1.431035359950000085e+01 3.280480185870999890e+02 0.000000000000000000e+00 0.000000000000000000e+00 0.000000000000000000e+00
-1.931877518899999924e+00 -1.035861794829999916e+01 3.260743946024999786e+02 0.000000000000000000e+00 0.000000000000000000e+00 0.000000000000000000e+00
-1.634291367399999917e+00 -8.881603840400000394e+00 3.286272204188999808e+02 0.000000000000000000e+00 0.000000000000000000e+00 0.000000000000000000e+00
-1.276789079899999901e+00 -1.590237722670000053e+01 3.261458956636000153e+02 0.000000000000000000e+00 0.000000000000000000e+00 0.000000000000000000e+00
-1.510559786099999968e+00 -1.237025684590000019e+01 3.267051113117000227e+02 0.000000000000000000e+00 0.000000000000000000e+00 0.000000000000000000e+00
-2.193429805300000091e+00 6.656663688200000095e+00 3.281977941951000162e+02 0.000000000000000000e+00 0.000000000000000000e+00 0.000000000000000000e+00
-1.517655460100000075e+00 3.095342564500000115e+00 3.301959120911000127e+02 0.000000000000000000e+00 0.000000000000000000e+00 0.000000000000000000e+00
-2.674092909500000115e+00 -1.591439072370000041e+01 3.231797199284000044e+02 0.000000000000000000e+00 0.000000000000000000e+00 0.000000000000000000e+00
-1.644770062100000096e+00 1.050574258299999997e+01 3.296424080685999911e+02 0.000000000000000000e+00 0.000000000000000000e+00 0.000000000000000000e+00
-1.952559767599999940e+00 9.495598025199999626e+00 3.305893256951000012e+02 0.000000000000000000e+00 0.000000000000000000e+00 0.000000000000000000e+00
-1.660672431899999912e+00 9.101448825900000372e+00 3.292303209267000170e+02 0.000000000000000000e+00 0.000000000000000000e+00 0.000000000000000000e+00
-1.734123769600000031e+00 8.093875664900000544e+00 3.306843321951999997e+02 0.000000000000000000e+00 0.000000000000000000e+00 0.000000000000000000e+00
-1.670790776800000099e+00 7.636889171400000009e+00 3.292164054223999869e+02 0.000000000000000000e+00 0.000000000000000000e+00 0.000000000000000000e+00
-1.672944885299999962e+00 5.116334905899999619e+00 3.292091838276999738e+02 0.000000000000000000e+00 0.000000000000000000e+00 0.000000000000000000e+00
-2.644931076899999844e+00 1.606242861099999919e+00 3.277053834793999840e+02 0.000000000000000000e+00 0.000000000000000000e+00 0.000000000000000000e+00
-1.988189280300000084e+00 2.572513438200000113e+00 3.285603392956999755e+02 0.000000000000000000e+00 0.000000000000000000e+00 0.000000000000000000e+00
-2.071819840899999932e+00 1.078252162000000069e+00 3.282311208602999955e+02 0.000000000000000000e+00 0.000000000000000000e+00 0.000000000000000000e+00
-1.705881133499999924e+00 1.100124276200000084e+00 3.287235371643999997e+02 0.000000000000000000e+00 0.000000000000000000e+00 0.000000000000000000e+00
-2.625758899500000076e+00 -3.854814033999999778e-01 3.275566965231000154e+02 0.000000000000000000e+00 0.000000000000000000e+00 0.000000000000000000e+00
-1.902098652899999909e+00 -1.484525025309999968e+01 3.244766149843999870e+02 0.000000000000000000e+00 0.000000000000000000e+00 0.000000000000000000e+00
-2.036727441000000027e+00 -4.134490994000000197e-01 3.281753550967999900e+02 0.000000000000000000e+00 0.000000000000000000e+00 0.000000000000000000e+00
-2.835250341500000104e+00 -9.948898917499999328e+00 3.253910388965999800e+02 0.000000000000000000e+00 0.000000000000000000e+00 0.000000000000000000e+00
-2.530956046400000048e+00 -6.849567486999999844e+00 3.265058328935999725e+02 0.000000000000000000e+00 0.000000000000000000e+00 0.000000000000000000e+00
-3.121836220200000067e+00 -3.256046767499999994e+00 3.269723793141000101e+02 0.000000000000000000e+00 0.000000000000000000e+00 0.000000000000000000e+00
-2.208126974799999864e+00 -1.926566429500000011e+00 3.277036574776000180e+02 0.000000000000000000e+00 0.000000000000000000e+00 0.000000000000000000e+00
-1.981194941300000067e+00 -1.376609460699999898e+00 3.281508378065000215e+02 0.000000000000000000e+00 0.000000000000000000e+00 0.000000000000000000e+00
-2.556544727199999922e+00 -4.402775501999999896e+00 3.270319126538000205e+02 0.000000000000000000e+00 0.000000000000000000e+00 0.000000000000000000e+00
-6.428878994000000180e-01 9.560774075799999494e+00 3.318205215309000096e+02 0.000000000000000000e+00 0.000000000000000000e+00 0.000000000000000000e+00
3.140797188000000184e-01 -9.919637454100000085e+00 3.288923961290000193e+02 0.000000000000000000e+00 0.000000000000000000e+00 0.000000000000000000e+00
-3.170650845599999990e+00 -5.902831649600000397e+00 3.262439389579000135e+02 0.000000000000000000e+00 0.000000000000000000e+00 0.000000000000000000e+00
-1.981189579000000034e+00 -4.374998641700000412e+00 3.276532738275000156e+02 0.000000000000000000e+00 0.000000000000000000e+00 0.000000000000000000e+00
-2.500444004599999825e+00 -5.701521358099999937e+00 3.269424541582000074e+02 0.000000000000000000e+00 0.000000000000000000e+00 0.000000000000000000e+00
-3.095703579999999899e+00 -7.816579532899999627e+00 3.259833981759999801e+02 0.000000000000000000e+00 0.000000000000000000e+00 0.000000000000000000e+00
-1.791438789599999915e+00 -5.933847929599999738e+00 3.273441179225999917e+02 0.000000000000000000e+00 0.000000000000000000e+00 0.000000000000000000e+00
-1.560202330300000106e+00 -5.362699556499999964e+00 3.282172209952000230e+02 0.000000000000000000e+00 0.000000000000000000e+00 0.000000000000000000e+00
-1.505674665099999920e+00 -6.394423413600000217e+00 3.281808129125000164e+02 0.000000000000000000e+00 0.000000000000000000e+00 0.000000000000000000e+00
-3.224647578599999953e+00 -9.426446131400000539e+00 3.253045737602000145e+02 0.000000000000000000e+00 0.000000000000000000e+00 0.000000000000000000e+00
-2.172707769500000108e+00 -7.384627339199999696e+00 3.266515388775000019e+02 0.000000000000000000e+00 0.000000000000000000e+00 0.000000000000000000e+00
-2.594540442900000077e+00 -9.883112093099999385e+00 3.256221252322000055e+02 0.000000000000000000e+00 0.000000000000000000e+00 0.000000000000000000e+00
-3.133250221700000004e+00 -1.436730976469999987e+01 3.235983863356000256e+02 0.000000000000000000e+00 0.000000000000000000e+00 0.000000000000000000e+00
-1.601503260199999890e+00 -9.427760119900000291e+00 3.267378150650000066e+02 0.000000000000000000e+00 0.000000000000000000e+00 0.000000000000000000e+00
-3.072576017199999843e+00 -1.335355938930000086e+01 3.240689591706999977e+02 0.000000000000000000e+00 0.000000000000000000e+00 0.000000000000000000e+00
-2.011222272499999963e+00 -1.139956959839999939e+01 3.256268486289000066e+02 0.000000000000000000e+00 0.000000000000000000e+00 0.000000000000000000e+00
-1.553588008399999998e+00 -1.035806245130000036e+01 3.266365071769000110e+02 0.000000000000000000e+00 0.000000000000000000e+00 0.000000000000000000e+00
-1.926256214099999919e+00 -1.187862454130000067e+01 3.256104012256000146e+02 0.000000000000000000e+00 0.000000000000000000e+00 0.000000000000000000e+00
-1.531243196599999967e+00 -1.083059942769999928e+01 3.266000190559000202e+02 0.000000000000000000e+00 0.000000000000000000e+00 0.000000000000000000e+00
-2.656353496299999950e+00 -1.487403518500000033e+01 3.236663711717000069e+02 0.000000000000000000e+00 0.000000000000000000e+00 0.000000000000000000e+00
-1.651787486899999990e+00 -1.295079200440000022e+01 3.252092264139000122e+02 0.000000000000000000e+00 0.000000000000000000e+00 0.000000000000000000e+00
-2.801784611700000038e+00 -1.436108389399999963e+00 3.272957232325999826e+02 0.000000000000000000e+00 0.000000000000000000e+00 0.000000000000000000e+00
-3.101829604799999807e+00 -1.577742949389999971e+01 3.230068226954999773e+02 0.000000000000000000e+00 0.000000000000000000e+00 0.000000000000000000e+00
-2.015122103800000009e+00 -1.387118114199999930e+01 3.246253293931999906e+02 0.000000000000000000e+00 0.000000000000000000e+00 0.000000000000000000e+00
-1.180371407500000025e+00 -1.496974778609999923e+01 3.251410815178999769e+02 0.000000000000000000e+00 0.000000000000000000e+00 0.000000000000000000e+00
-1.272819841300000032e+00 -1.444243893520000022e+01 3.252433881993999876e+02 0.000000000000000000e+00 0.000000000000000000e+00 0.000000000000000000e+00
-1.298971646200000052e+00 -1.485680308949999961e+01 3.266741305621000038e+02 0.000000000000000000e+00 0.000000000000000000e+00 0.000000000000000000e+00
-1.223641667599999927e+00 -9.865821772200000339e+00 3.282333586775999947e+02 0.000000000000000000e+00 0.000000000000000000e+00 0.000000000000000000e+00
-1.694194039799999940e+00 -1.789352591040000107e+01 3.226030976459999806e+02 0.000000000000000000e+00 0.000000000000000000e+00 0.000000000000000000e+00
-1.655286374899999968e+00 -1.732996173960000164e+01 3.229888784286999908e+02 0.000000000000000000e+00 0.000000000000000000e+00 0.000000000000000000e+00
-1.189547803299999984e+00 -1.691415013410000157e+01 3.237077837894000254e+02 0.000000000000000000e+00 0.000000000000000000e+00 0.000000000000000000e+00
3.087222290000000147e-01 -1.571485026889999936e+01 3.266591070783999839e+02 0.000000000000000000e+00 0.000000000000000000e+00 0.000000000000000000e+00
-6.371504661000000347e-01 -1.838478227019999878e+01 3.226283173837999811e+02 0.000000000000000000e+00 0.000000000000000000e+00 0.000000000000000000e+00
-5.870791789999999510e-01 -1.786234251020000130e+01 3.229609569758000021e+02 0.000000000000000000e+00 0.000000000000000000e+00 0.000000000000000000e+00
-1.100937698000000048e-01 -1.751412893050000008e+01 3.232152921132000074e+02 0.000000000000000000e+00 0.000000000000000000e+00 0.000000000000000000e+00
7.727780149999999848e-01 -1.566085426070000075e+01 3.263352410717999987e+02 0.000000000000000000e+00 0.000000000000000000e+00 0.000000000000000000e+00
2.354885783799999910e+00 -6.952172141800000205e+00 3.292362869112000112e+02 0.000000000000000000e+00 0.000000000000000000e+00 0.000000000000000000e+00
-1.751262364600000065e+00 -6.385811074700000312e+00 3.272782775989999777e+02 0.000000000000000000e+00 0.000000000000000000e+00 0.000000000000000000e+00
2.338331638500000142e+00 -1.570387204520000068e+01 3.266725680142000101e+02 0.000000000000000000e+00 0.000000000000000000e+00 0.000000000000000000e+00
-6.841477420999999559e-01 -1.679004966340000138e+01 3.236274300485999902e+02 0.000000000000000000e+00 0.000000000000000000e+00 0.000000000000000000e+00
-3.284915262200000186e+00 5.540940436299999661e+00 3.273691665955000190e+02 0.000000000000000000e+00 0.000000000000000000e+00 0.000000000000000000e+00
-1.689667264799999957e+00 9.657497003899999655e+00 3.292261591334000173e+02 0.000000000000000000e+00 0.000000000000000000e+00 0.000000000000000000e+00
-1.665692226200000015e+00 7.103147937700000192e+00 3.292370680303999961e+02 0.000000000000000000e+00 0.000000000000000000e+00 0.000000000000000000e+00
-2.283633176900000006e+00 -1.107630423180000001e+01 3.253915444644999866e+02 0.000000000000000000e+00 0.000000000000000000e+00 0.000000000000000000e+00
2.814966164599999932e+00 2.102629876700000011e+00 3.302596012920000135e+02 0.000000000000000000e+00 0.000000000000000000e+00 0.000000000000000000e+00
-1.321720828999999875e-01 1.592779411600000028e+00 3.307028562228999817e+02 0.000000000000000000e+00 0.000000000000000000e+00 0.000000000000000000e+00
3.719591869000000162e-01 -1.835838288000000063e+01 3.227393195480000259e+02 0.000000000000000000e+00 0.000000000000000000e+00 0.000000000000000000e+00
-6.354924818999999614e-01 -3.357258882500000041e+00 3.298281477625000093e+02 0.000000000000000000e+00 0.000000000000000000e+00 0.000000000000000000e+00
4.057598352900000371e+00 6.586097556800000419e+00 3.278445902066000031e+02 0.000000000000000000e+00 0.000000000000000000e+00 0.000000000000000000e+00
-1.478680394199999970e+00 -1.341158335289999926e+01 3.272553207779000104e+02 0.000000000000000000e+00 0.000000000000000000e+00 0.000000000000000000e+00
4.564614985699999572e+00 1.312595211710000065e+01 3.268736578488999953e+02 0.000000000000000000e+00 0.000000000000000000e+00 0.000000000000000000e+00
-2.645547910399999925e+00 6.594502462500000384e+00 3.278079751190999787e+02 0.000000000000000000e+00 0.000000000000000000e+00 0.000000000000000000e+00
1.868194243800000098e+00 -2.276995776800000204e+00 3.299357762733000072e+02 0.000000000000000000e+00 0.000000000000000000e+00 0.000000000000000000e+00
-1.636855954400000090e+00 -2.373844325999999949e+00 3.291096275954000134e+02 0.000000000000000000e+00 0.000000000000000000e+00 0.000000000000000000e+00
3.465095133000000160e-01 9.117286629100000539e+00 3.318003098483000031e+02 0.000000000000000000e+00 0.000000000000000000e+00 0.000000000000000000e+00
-1.538149818599999996e+00 -1.235749262190000053e+01 3.257200071250999827e+02 0.000000000000000000e+00 0.000000000000000000e+00 0.000000000000000000e+00
1.926515655300000018e+00 1.074664633829999971e+01 3.297192479280000157e+02 0.000000000000000000e+00 0.000000000000000000e+00 0.000000000000000000e+00
-1.582865758000000067e+00 -1.392928272540000023e+01 3.276974333833999822e+02 0.000000000000000000e+00 0.000000000000000000e+00 0.000000000000000000e+00
-2.686099657000000196e+00 -3.394771469899999783e+00 3.271304593716000113e+02 0.000000000000000000e+00 0.000000000000000000e+00 0.000000000000000000e+00
8.499401470999999875e-01 2.041513005900000177e+00 3.307424150603000044e+02 0.000000000000000000e+00 0.000000000000000000e+00 0.000000000000000000e+00
-3.173056094900000179e+00 1.076862435000000007e-01 3.272409499674000131e+02 0.000000000000000000e+00 0.000000000000000000e+00 0.000000000000000000e+00
3.464043411000000128e-01 -2.450085285300000137e+00 3.300399662556000067e+02 0.000000000000000000e+00 0.000000000000000000e+00 0.000000000000000000e+00
-3.406038682400000184e+00 -1.689780540190000124e+01 3.225659383624000043e+02 0.000000000000000000e+00 0.000000000000000000e+00 0.000000000000000000e+00
3.728583435900000076e+00 -1.433000590049999978e+01 3.249364248261999819e+02 0.000000000000000000e+00 0.000000000000000000e+00 0.000000000000000000e+00
3.861367217599999790e+00 1.362493456940000058e+01 3.271578194333999932e+02 0.000000000000000000e+00 0.000000000000000000e+00 0.000000000000000000e+00
-1.786956302099999894e+00 1.088182711840000039e+01 3.290393524910999759e+02 0.000000000000000000e+00 0.000000000000000000e+00 0.000000000000000000e+00
-1.568980532999999955e+00 -7.892160828999999822e+00 3.287071921181000107e+02 0.000000000000000000e+00 0.000000000000000000e+00 0.000000000000000000e+00
7.902543993999999739e-01 1.159511019910000051e+01 3.287414352580000241e+02 0.000000000000000000e+00 0.000000000000000000e+00 0.000000000000000000e+00
-1.102580611999999932e-01 -1.372229146500000052e+00 3.302150339336999991e+02 0.000000000000000000e+00 0.000000000000000000e+00 0.000000000000000000e+00
-1.262325238400000105e+00 -1.085530130060000076e+01 3.281472398376000115e+02 0.000000000000000000e+00 0.000000000000000000e+00 0.000000000000000000e+00
-1.736084429299999954e+00 9.617929362599999976e+00 3.301873090659000241e+02 0.000000000000000000e+00 0.000000000000000000e+00 0.000000000000000000e+00
-1.709674643700000107e+00 9.106344341899999861e+00 3.296804109371000209e+02 0.000000000000000000e+00 0.000000000000000000e+00 0.000000000000000000e+00
-1.313921721600000092e+00 -1.394744291870000019e+01 3.267283284110999944e+02 0.000000000000000000e+00 0.000000000000000000e+00 0.000000000000000000e+00
-1.685332712099999908e+00 7.146753443999999789e+00 3.296800709469000026e+02 0.000000000000000000e+00 0.000000000000000000e+00 0.000000000000000000e+00
-1.710373266499999989e+00 7.128397290299999689e+00 3.301243618122999806e+02 0.000000000000000000e+00 0.000000000000000000e+00 0.000000000000000000e+00
8.156829811000000374e-01 -5.521342918300000235e+00 3.293944108956000036e+02 0.000000000000000000e+00 0.000000000000000000e+00 0.000000000000000000e+00
-1.693006543599999913e+00 6.067169923399999831e+00 3.301247119129000112e+02 0.000000000000000000e+00 0.000000000000000000e+00 0.000000000000000000e+00
4.632636053399999732e+00 6.638664505799999560e+00 3.274652607300999989e+02 0.000000000000000000e+00 0.000000000000000000e+00 0.000000000000000000e+00
-1.613047762799999951e+00 4.587605884400000278e+00 3.296797834898000019e+02 0.000000000000000000e+00 0.000000000000000000e+00 0.000000000000000000e+00
3.451494124999999746e-01 -1.388439812230000037e+01 3.283129435732000161e+02 0.000000000000000000e+00 0.000000000000000000e+00 0.000000000000000000e+00
-1.684788555799999976e+00 3.609449763499999797e+00 3.291339294323000217e+02 0.000000000000000000e+00 0.000000000000000000e+00 0.000000000000000000e+00
-1.597380202100000091e+00 4.107612190400000252e+00 3.301714752185999942e+02 0.000000000000000000e+00 0.000000000000000000e+00 0.000000000000000000e+00
-1.725251746499999905e+00 2.606102255000000145e+00 3.286833742901999926e+02 0.000000000000000000e+00 0.000000000000000000e+00 0.000000000000000000e+00
-1.603707841399999889e+00 2.602725480300000171e+00 3.296547831644999746e+02 0.000000000000000000e+00 0.000000000000000000e+00 0.000000000000000000e+00
-2.118783221999999800e+00 1.626435941300000021e+00 3.281728685310999936e+02 0.000000000000000000e+00 0.000000000000000000e+00 0.000000000000000000e+00
-1.635797928899999976e+00 2.105991868499999864e+00 3.291138049955999918e+02 0.000000000000000000e+00 0.000000000000000000e+00 0.000000000000000000e+00
2.358557556200000072e+00 -7.402116219499999872e+00 3.291699479892000113e+02 0.000000000000000000e+00 0.000000000000000000e+00 0.000000000000000000e+00
-1.568472058900000077e+00 1.569167321899999967e+00 3.292023632701000224e+02 0.000000000000000000e+00 0.000000000000000000e+00 0.000000000000000000e+00
8.115447370999999688e-01 1.107768461390000070e+01 3.295990204097000174e+02 0.000000000000000000e+00 0.000000000000000000e+00 0.000000000000000000e+00
-1.716625013300000058e+00 6.182245213999999489e-01 3.286884165165000127e+02 0.000000000000000000e+00 0.000000000000000000e+00 0.000000000000000000e+00
-1.653080821299999892e+00 5.974398251000000437e-01 3.296764656543999763e+02 0.000000000000000000e+00 0.000000000000000000e+00 0.000000000000000000e+00
-2.250380734200000177e+00 -1.393440446349999995e+01 3.242893310133999876e+02 0.000000000000000000e+00 0.000000000000000000e+00 0.000000000000000000e+00
2.930975613999999840e-01 -1.232010574709999950e+01 3.284786481250999941e+02 0.000000000000000000e+00 0.000000000000000000e+00 0.000000000000000000e+00
-2.573961727199999938e+00 -8.704321202999999452e-01 3.275403598707999890e+02 0.000000000000000000e+00 0.000000000000000000e+00 0.000000000000000000e+00
-1.675046820399999969e+00 1.124443818000000067e-01 3.287092148309999970e+02 0.000000000000000000e+00 0.000000000000000000e+00 0.000000000000000000e+00
-2.236986074499999866e+00 -1.388255295300000025e+00 3.277707883769999739e+02 0.000000000000000000e+00 0.000000000000000000e+00 0.000000000000000000e+00
-1.608222548399999896e+00 -4.019032824000000059e-01 3.287290428096999904e+02 0.000000000000000000e+00 0.000000000000000000e+00 0.000000000000000000e+00
-1.552262411699999900e+00 -9.168021102000000200e-01 3.296693455379000284e+02 0.000000000000000000e+00 0.000000000000000000e+00 0.000000000000000000e+00
-3.128908322900000094e+00 -3.899903491099999897e+00 3.267179646422999895e+02 0.000000000000000000e+00 0.000000000000000000e+00 0.000000000000000000e+00
-1.763117574900000095e+00 -1.378872155800000110e+00 3.282833317258999841e+02 0.000000000000000000e+00 0.000000000000000000e+00 0.000000000000000000e+00
-3.105607552800000004e+00 -4.361222641300000369e+00 3.266253440107000188e+02 0.000000000000000000e+00 0.000000000000000000e+00 0.000000000000000000e+00
-2.628722844999999975e+00 -3.932647656999999963e+00 3.270711165701000027e+02 0.000000000000000000e+00 0.000000000000000000e+00 0.000000000000000000e+00
-1.611327980300000018e+00 -1.890440562200000008e+00 3.286567394611000168e+02 0.000000000000000000e+00 0.000000000000000000e+00 0.000000000000000000e+00
-2.772638276999999984e+00 -4.873437126999999869e+00 3.267712470069000119e+02 0.000000000000000000e+00 0.000000000000000000e+00 0.000000000000000000e+00
-2.016602032499999808e+00 -3.855608245400000023e+00 3.276556391593999820e+02 0.000000000000000000e+00 0.000000000000000000e+00 0.000000000000000000e+00
-2.624959829599999850e+00 -5.933245446599999973e+00 3.266423476185000254e+02 0.000000000000000000e+00 0.000000000000000000e+00 0.000000000000000000e+00
-2.185564428799999792e+00 -5.372489824499999678e+00 3.271220324604000211e+02 0.000000000000000000e+00 0.000000000000000000e+00 0.000000000000000000e+00
-3.121641957700000081e+00 -7.399465483500000218e+00 3.260408787139999731e+02 0.000000000000000000e+00 0.000000000000000000e+00 0.000000000000000000e+00
-1.605221047899999975e+00 -4.424120300000000228e+00 3.281692240677999735e+02 0.000000000000000000e+00 0.000000000000000000e+00 0.000000000000000000e+00
-2.606783171900000085e+00 -6.391366103000000187e+00 3.265656077470999890e+02 0.000000000000000000e+00 0.000000000000000000e+00 0.000000000000000000e+00
-1.666385257700000011e+00 -5.394797490200000212e+00 3.277003000185999895e+02 0.000000000000000000e+00 0.000000000000000000e+00 0.000000000000000000e+00
-2.004997325100000172e+00 -6.395961386299999774e+00 3.271025689741999827e+02 0.000000000000000000e+00 0.000000000000000000e+00 0.000000000000000000e+00
-1.502266136200000046e+00 -8.391675548500000303e+00 3.281998669115999974e+02 0.000000000000000000e+00 0.000000000000000000e+00 0.000000000000000000e+00
-2.625676679800000191e+00 -7.908518954099999831e+00 3.261710185412999863e+02 0.000000000000000000e+00 0.000000000000000000e+00 0.000000000000000000e+00
-1.571291466599999964e+00 -6.422974775200000153e+00 3.286600852711999892e+02 0.000000000000000000e+00 0.000000000000000000e+00 0.000000000000000000e+00
-2.686619137700000159e+00 -8.903972204900000520e+00 3.257928139641999792e+02 0.000000000000000000e+00 0.000000000000000000e+00 0.000000000000000000e+00
-2.589519314399999939e+00 -8.343831903599999933e+00 3.260764527682999869e+02 0.000000000000000000e+00 0.000000000000000000e+00 0.000000000000000000e+00
-1.573180416700000084e+00 -6.877444278699999636e+00 3.276620259068999985e+02 0.000000000000000000e+00 0.000000000000000000e+00 0.000000000000000000e+00
-3.204358868699999974e+00 -9.855586799299999257e+00 3.251911809938000033e+02 0.000000000000000000e+00 0.000000000000000000e+00 0.000000000000000000e+00
-1.495996502499999936e+00 -6.893220571499999672e+00 3.281636689317999753e+02 0.000000000000000000e+00 0.000000000000000000e+00 0.000000000000000000e+00
-3.215900701099999814e+00 -1.095309177919999932e+01 3.248312127605000228e+02 0.000000000000000000e+00 0.000000000000000000e+00 0.000000000000000000e+00
-1.479522215400000063e+00 -7.895526460400000168e+00 3.282190274548000275e+02 0.000000000000000000e+00 0.000000000000000000e+00 0.000000000000000000e+00
-2.537334760999999883e+00 -1.034609699569999997e+01 3.254933709483000257e+02 0.000000000000000000e+00 0.000000000000000000e+00 0.000000000000000000e+00
-1.572337465900000009e+00 -8.881135849599999688e+00 3.271364033995999989e+02 0.000000000000000000e+00 0.000000000000000000e+00 0.000000000000000000e+00
-2.646419914500000026e+00 -1.091614232440000087e+01 3.252201871838000216e+02 0.000000000000000000e+00 0.000000000000000000e+00 0.000000000000000000e+00
-1.773887870500000075e+00 -9.892716236400000085e+00 3.263029514520999896e+02 0.000000000000000000e+00 0.000000000000000000e+00 0.000000000000000000e+00
-1.502990352799999929e+00 -9.389626812799999556e+00 3.271390304250999748e+02 0.000000000000000000e+00 0.000000000000000000e+00 0.000000000000000000e+00
-1.550628698899999991e+00 -8.891040289299999344e+00 3.282064763881999738e+02 0.000000000000000000e+00 0.000000000000000000e+00 0.000000000000000000e+00
-1.650794321800000075e+00 -9.310076749300000287e+00 3.285333196250999777e+02 0.000000000000000000e+00 0.000000000000000000e+00 0.000000000000000000e+00
2.980979919900000219e+00 -7.352348951599999793e+00 3.287235029070999985e+02 0.000000000000000000e+00 0.000000000000000000e+00 0.000000000000000000e+00
-1.578833994000000018e+00 -9.886071526200000292e+00 3.267109108079999942e+02 0.000000000000000000e+00 0.000000000000000000e+00 0.000000000000000000e+00
-1.383726484599999917e+00 -9.453608481099999850e+00 3.272550530025999933e+02 0.000000000000000000e+00 0.000000000000000000e+00 0.000000000000000000e+00
-1.536898606799999900e+00 -9.922457324399999834e+00 3.285528672891999804e+02 0.000000000000000000e+00 0.000000000000000000e+00 0.000000000000000000e+00
-2.621362288099999827e+00 -1.289133914109999957e+01 3.245299095367000177e+02 0.000000000000000000e+00 0.000000000000000000e+00 0.000000000000000000e+00
-2.170230695999999959e+00 -1.190491597389999967e+01 3.252359949519999986e+02 0.000000000000000000e+00 0.000000000000000000e+00 0.000000000000000000e+00
-1.820363905700000062e+00 -1.102835376800000056e+01 3.258135325690000172e+02 0.000000000000000000e+00 0.000000000000000000e+00 0.000000000000000000e+00
-1.383870280400000041e+00 -1.038380465260000030e+01 3.268585004308000066e+02 0.000000000000000000e+00 0.000000000000000000e+00 0.000000000000000000e+00
-1.369371061100000064e+00 -1.033038873589999973e+01 3.271874429078000048e+02 0.000000000000000000e+00 0.000000000000000000e+00 0.000000000000000000e+00
-3.465654977499999845e+00 -1.436008260620000065e+01 3.234615101750000008e+02 0.000000000000000000e+00 0.000000000000000000e+00 0.000000000000000000e+00
-1.353855837600000056e+00 -1.094498513879999990e+01 3.266847460283000260e+02 0.000000000000000000e+00 0.000000000000000000e+00 0.000000000000000000e+00
-1.351404520900000072e+00 -1.089595620819999944e+01 3.271862460606000127e+02 0.000000000000000000e+00 0.000000000000000000e+00 0.000000000000000000e+00
1.359683511999999928e+00 -5.867794185900000237e+00 3.294790935710000213e+02 0.000000000000000000e+00 0.000000000000000000e+00 0.000000000000000000e+00
-3.181414511299999859e+00 -1.390871395299999946e+01 3.237311678724000217e+02 0.000000000000000000e+00 0.000000000000000000e+00 0.000000000000000000e+00
-2.690931823700000169e+00 -1.336449507779999912e+01 3.242741338892000158e+02 0.000000000000000000e+00 0.000000000000000000e+00 0.000000000000000000e+00
-2.152631433699999874e+00 -1.235037762370000003e+01 3.250679136013999937e+02 0.000000000000000000e+00 0.000000000000000000e+00 0.000000000000000000e+00
-1.569277183699999911e+00 -1.140654722550000066e+01 3.262375811008000142e+02 0.000000000000000000e+00 0.000000000000000000e+00 0.000000000000000000e+00
-1.337869001999999918e+00 -1.139218954799999928e+01 3.276057885330000090e+02 0.000000000000000000e+00 0.000000000000000000e+00 0.000000000000000000e+00
-1.647085686100000057e+00 -1.189264640849999921e+01 3.257115220197999861e+02 0.000000000000000000e+00 0.000000000000000000e+00 0.000000000000000000e+00
-1.510802644600000022e+00 -1.288758964600000034e+01 3.281114234720000127e+02 0.000000000000000000e+00 0.000000000000000000e+00 0.000000000000000000e+00
-1.795354345900000093e+00 -1.346568834710000040e+01 3.248439609115999929e+02 0.000000000000000000e+00 0.000000000000000000e+00 0.000000000000000000e+00
-1.326490121400000000e+00 -1.284135809230000014e+01 3.271639925938000033e+02 0.000000000000000000e+00 0.000000000000000000e+00 0.000000000000000000e+00
-2.539463972200000086e+00 -1.534337743460000070e+01 3.235266245956000262e+02 0.000000000000000000e+00 0.000000000000000000e+00 0.000000000000000000e+00
-1.694959824799999959e+00 -1.390254619549999937e+01 3.247688720538000098e+02 0.000000000000000000e+00 0.000000000000000000e+00 0.000000000000000000e+00
-1.259716542700000108e+00 -1.337431699539999919e+01 3.276621300008000048e+02 0.000000000000000000e+00 0.000000000000000000e+00 0.000000000000000000e+00
-3.204570970599999846e+00 -1.593581352190000011e+01 3.227950859215999913e+02 0.000000000000000000e+00 0.000000000000000000e+00 0.000000000000000000e+00
-2.278191842800000089e+00 -1.498502400339999951e+01 3.238410924268999906e+02 0.000000000000000000e+00 0.000000000000000000e+00 0.000000000000000000e+00
-2.027957969200000043e+00 -1.490221866279999929e+01 3.241445545606999872e+02 0.000000000000000000e+00 0.000000000000000000e+00 0.000000000000000000e+00
-1.367191966000000036e+00 -1.349121912060000028e+01 3.253476767601999882e+02 0.000000000000000000e+00 0.000000000000000000e+00 0.000000000000000000e+00
-1.297697009099999965e+00 -1.347122932000000084e+01 3.266904184719999762e+02 0.000000000000000000e+00 0.000000000000000000e+00 0.000000000000000000e+00
-1.339111181899999892e+00 -1.390168005780000016e+01 3.271190490000000182e+02 0.000000000000000000e+00 0.000000000000000000e+00 0.000000000000000000e+00
-1.514101275100000032e+00 -1.435121500760000046e+01 3.276244953706000160e+02 0.000000000000000000e+00 0.000000000000000000e+00 0.000000000000000000e+00
-1.602641679900000060e+00 -1.441369954319999991e+01 3.246847546126999760e+02 0.000000000000000000e+00 0.000000000000000000e+00 0.000000000000000000e+00
-1.232325680600000029e+00 -1.438173627349999961e+01 3.257213903583000274e+02 0.000000000000000000e+00 0.000000000000000000e+00 0.000000000000000000e+00
3.858675216999999935e-01 1.359080232370000019e+01 3.279688328221000120e+02 0.000000000000000000e+00 0.000000000000000000e+00 0.000000000000000000e+00
-2.677110149799999839e+00 -1.729731158790000123e+01 3.224832388377000143e+02 0.000000000000000000e+00 0.000000000000000000e+00 0.000000000000000000e+00
-2.244212669299999963e+00 -1.601882077559999829e+01 3.233347012882999820e+02 0.000000000000000000e+00 0.000000000000000000e+00 0.000000000000000000e+00
-1.655951730099999963e+00 -1.494733630880000064e+01 3.243169256474000122e+02 0.000000000000000000e+00 0.000000000000000000e+00 0.000000000000000000e+00
-1.435693178399999992e+00 -1.485830066469999977e+01 3.246628827302999980e+02 0.000000000000000000e+00 0.000000000000000000e+00 0.000000000000000000e+00
-1.159441595199999897e+00 -1.490620007569999927e+01 3.256410701203000144e+02 0.000000000000000000e+00 0.000000000000000000e+00 0.000000000000000000e+00
2.414749615299999874e+00 -3.358113364899999898e+00 3.297255735199000242e+02 0.000000000000000000e+00 0.000000000000000000e+00 0.000000000000000000e+00
-2.069502319700000204e+00 -1.684536413209999850e+01 3.230458580756999822e+02 0.000000000000000000e+00 0.000000000000000000e+00 0.000000000000000000e+00
-1.074167630400000073e+00 -1.542486582069999912e+01 3.276116141380999807e+02 0.000000000000000000e+00 0.000000000000000000e+00 0.000000000000000000e+00
-1.507117999100000105e+00 -1.533102560750000087e+01 3.275841810399999758e+02 0.000000000000000000e+00 0.000000000000000000e+00 0.000000000000000000e+00
-1.839476119900000040e+00 -1.653988486489999943e+01 3.233594719242000224e+02 0.000000000000000000e+00 0.000000000000000000e+00 0.000000000000000000e+00
-1.635833584900000082e+00 -1.692130952029999946e+01 3.232542848545999732e+02 0.000000000000000000e+00 0.000000000000000000e+00 0.000000000000000000e+00
-1.613405964200000042e+00 -1.636165184440000075e+01 3.237389895980999768e+02 0.000000000000000000e+00 0.000000000000000000e+00 0.000000000000000000e+00
-9.675978343000000148e-01 -1.576718574200000056e+01 3.271846119572999783e+02 0.000000000000000000e+00 0.000000000000000000e+00 0.000000000000000000e+00
-6.959553198000000274e-01 -1.584082239870000031e+01 3.272026828039000179e+02 0.000000000000000000e+00 0.000000000000000000e+00 0.000000000000000000e+00
-5.890315783999999777e-01 -1.589194084820000086e+01 3.279426325118000136e+02 0.000000000000000000e+00 0.000000000000000000e+00 0.000000000000000000e+00
-1.548161115999999948e+00 -1.823124692609999897e+01 3.225346107383999765e+02 0.000000000000000000e+00 0.000000000000000000e+00 0.000000000000000000e+00
-1.273810623199999936e+00 -1.773549659109999865e+01 3.229394941844000186e+02 0.000000000000000000e+00 0.000000000000000000e+00 0.000000000000000000e+00
-1.153870331400000060e+00 -1.736239242879999978e+01 3.231399181419999991e+02 0.000000000000000000e+00 0.000000000000000000e+00 0.000000000000000000e+00
-1.159282426499999907e+00 -1.790487676309999898e+01 3.227848844697999766e+02 0.000000000000000000e+00 0.000000000000000000e+00 0.000000000000000000e+00
-6.486456543999999935e-01 -1.746900744610000089e+01 3.231919703968000022e+02 0.000000000000000000e+00 0.000000000000000000e+00 0.000000000000000000e+00
8.249197244999999512e-01 -1.569857225740000040e+01 3.267115576914000030e+02 0.000000000000000000e+00 0.000000000000000000e+00 0.000000000000000000e+00
-1.648224727899999964e+00 6.621005255000000034e+00 3.306718894625000189e+02 0.000000000000000000e+00 0.000000000000000000e+00 0.000000000000000000e+00
3.509720639000000197e-01 -1.749536171860000167e+01 3.232757309058000033e+02 0.000000000000000000e+00 0.000000000000000000e+00 0.000000000000000000e+00
1.299225355099999923e+00 -1.577028318440000021e+01 3.246788777849999974e+02 0.000000000000000000e+00 0.000000000000000000e+00 0.000000000000000000e+00
1.781501146499999910e+00 -1.582369600360000028e+01 3.276714530561000061e+02 0.000000000000000000e+00 0.000000000000000000e+00 0.000000000000000000e+00
2.333541031699999824e+00 -1.584034992730000013e+01 3.271506898580000211e+02 0.000000000000000000e+00 0.000000000000000000e+00 0.000000000000000000e+00
2.424430661400000186e+00 -2.889622758399999825e+00 3.297738308652999990e+02 0.000000000000000000e+00 0.000000000000000000e+00 0.000000000000000000e+00
1.836044980899999901e+00 -1.718265008459999876e+01 3.236075058921999812e+02 0.000000000000000000e+00 0.000000000000000000e+00 0.000000000000000000e+00
-3.242622054599999970e+00 -1.489147662929999960e+01 3.232844301479000251e+02 0.000000000000000000e+00 0.000000000000000000e+00 0.000000000000000000e+00
2.350288101099999860e+00 -1.683454762910000113e+01 3.241871836038000083e+02 0.000000000000000000e+00 0.000000000000000000e+00 0.000000000000000000e+00
2.838023865099999821e+00 -1.584914635360000013e+01 3.256861638964999770e+02 0.000000000000000000e+00 0.000000000000000000e+00 0.000000000000000000e+00
2.729770263799999874e+00 8.672720055499999248e+00 3.311030349394000041e+02 0.000000000000000000e+00 0.000000000000000000e+00 0.000000000000000000e+00
2.839196026799999828e+00 1.263849358769999931e+01 3.278351139701999841e+02 0.000000000000000000e+00 0.000000000000000000e+00 0.000000000000000000e+00
-1.901256050300000000e+00 -3.397656501500000203e+00 3.279402508279000017e+02 0.000000000000000000e+00 0.000000000000000000e+00 0.000000000000000000e+00
1.302511692299999968e+00 -1.583613515250000070e+01 3.276697717265000165e+02 0.000000000000000000e+00 0.000000000000000000e+00 0.000000000000000000e+00
2.325878471099999789e+00 -1.433516685100000032e+01 3.281932043630999942e+02 0.000000000000000000e+00 0.000000000000000000e+00 0.000000000000000000e+00
2.349158622800000096e+00 2.057482090300000177e+00 3.306001259769000171e+02 0.000000000000000000e+00 0.000000000000000000e+00 0.000000000000000000e+00
1.962943035199999908e+00 1.128315415189999982e+01 3.289181150159000140e+02 0.000000000000000000e+00 0.000000000000000000e+00 0.000000000000000000e+00
1.349271124699999991e+00 7.065372392599999607e+00 3.315832150392000131e+02 0.000000000000000000e+00 0.000000000000000000e+00 0.000000000000000000e+00
1.333576453899999903e+00 1.158623390039999990e+01 3.286918869594999819e+02 0.000000000000000000e+00 0.000000000000000000e+00 0.000000000000000000e+00
3.332266098000000176e-01 -8.357496501000000189e-01 3.302507614790000048e+02 0.000000000000000000e+00 0.000000000000000000e+00 0.000000000000000000e+00
-1.607721139399999943e+00 -6.893281654299999950e+00 3.289676244825000140e+02 0.000000000000000000e+00 0.000000000000000000e+00 0.000000000000000000e+00
-2.238508716000000009e-01 -1.287945825159999913e+01 3.284940529500000252e+02 0.000000000000000000e+00 0.000000000000000000e+00 0.000000000000000000e+00
-2.177255455400000095e+00 9.581686727399999270e+00 3.280876321124000015e+02 0.000000000000000000e+00 0.000000000000000000e+00 0.000000000000000000e+00
4.452361443100000038e+00 -1.557437056150000032e+01 3.233895427795999922e+02 0.000000000000000000e+00 0.000000000000000000e+00 0.000000000000000000e+00
1.335214351799999921e+00 -1.568963654619999915e+01 3.266967018534999738e+02 0.000000000000000000e+00 0.000000000000000000e+00 0.000000000000000000e+00
1.892424780000000029e+00 -5.298245329400000259e+00 3.294783580042999915e+02 0.000000000000000000e+00 0.000000000000000000e+00 0.000000000000000000e+00
1.906466216999999963e+00 -6.949547495500000061e+00 3.292784362507999845e+02 0.000000000000000000e+00 0.000000000000000000e+00 0.000000000000000000e+00
-3.219633256799999899e+00 -2.368359896799999920e+00 3.269022136003000014e+02 0.000000000000000000e+00 0.000000000000000000e+00 0.000000000000000000e+00
-1.555583070000000068e-01 4.549626634000000003e+00 3.311164851153000086e+02 0.000000000000000000e+00 0.000000000000000000e+00 0.000000000000000000e+00
2.766776856799999962e+00 -2.834089492599999982e+00 3.296018314565999958e+02 0.000000000000000000e+00 0.000000000000000000e+00 0.000000000000000000e+00
8.385053874000000240e-01 -3.939736315999999849e-01 3.303392395379000277e+02 0.000000000000000000e+00 0.000000000000000000e+00 0.000000000000000000e+00
-1.351780686199999915e+00 -5.939879889200000207e+00 3.287328501553000137e+02 0.000000000000000000e+00 0.000000000000000000e+00 0.000000000000000000e+00
4.097877863099999907e+00 -1.707265511610000175e+01 3.228682018151000079e+02 0.000000000000000000e+00 0.000000000000000000e+00 0.000000000000000000e+00
-2.168236575599999938e+00 -1.539820311669999953e+01 3.237425930149000237e+02 0.000000000000000000e+00 0.000000000000000000e+00 0.000000000000000000e+00
-1.613935844500000050e+00 -6.395762603699999715e+00 3.276798459697000112e+02 0.000000000000000000e+00 0.000000000000000000e+00 0.000000000000000000e+00
-1.746861875600000058e+00 9.093769192299999915e+00 3.301703335976000062e+02 0.000000000000000000e+00 0.000000000000000000e+00 0.000000000000000000e+00
-1.673435333100000033e+00 8.158270177800000411e+00 3.297170866395999838e+02 0.000000000000000000e+00 0.000000000000000000e+00 0.000000000000000000e+00
-1.711977138399999987e+00 7.096511930800000201e+00 3.306366390893999778e+02 0.000000000000000000e+00 0.000000000000000000e+00 0.000000000000000000e+00
4.571298872899999921e+00 -6.483834781599999708e+00 3.264269545463000100e+02 0.000000000000000000e+00 0.000000000000000000e+00 0.000000000000000000e+00
-1.572308540299999891e+00 3.617112911099999994e+00 3.301643840145999889e+02 0.000000000000000000e+00 0.000000000000000000e+00 0.000000000000000000e+00
-1.680210711099999976e+00 4.611039822000000399e+00 3.291796399054999824e+02 0.000000000000000000e+00 0.000000000000000000e+00 0.000000000000000000e+00
-1.618194067599999952e+00 4.125288010400000260e+00 3.296966934463999905e+02 0.000000000000000000e+00 0.000000000000000000e+00 0.000000000000000000e+00
-1.715165230300000010e+00 1.603237045099999980e+00 3.287063905205000083e+02 0.000000000000000000e+00 0.000000000000000000e+00 0.000000000000000000e+00
1.848835614800000027e+00 -1.090991366030000087e+01 3.287086820353999883e+02 0.000000000000000000e+00 0.000000000000000000e+00 0.000000000000000000e+00
-1.572408087199999915e+00 1.054977599799999943e+00 3.292416251595000176e+02 0.000000000000000000e+00 0.000000000000000000e+00 0.000000000000000000e+00
-1.576564770300000085e+00 6.095380998999999633e-01 3.291902431551999939e+02 0.000000000000000000e+00 0.000000000000000000e+00 0.000000000000000000e+00
-1.412537144899999930e+00 -1.208348434670000060e+01 3.274036123481999994e+02 0.000000000000000000e+00 0.000000000000000000e+00 0.000000000000000000e+00
-1.580975655999999896e+00 -3.976398217000000068e-01 3.292178215540999986e+02 0.000000000000000000e+00 0.000000000000000000e+00 0.000000000000000000e+00
-2.686398446700000164e+00 -2.862937582199999831e+00 3.272159462604000169e+02 0.000000000000000000e+00 0.000000000000000000e+00 0.000000000000000000e+00
-3.132792435999999903e+00 -4.857192730799999580e+00 3.265459441072000004e+02 0.000000000000000000e+00 0.000000000000000000e+00 0.000000000000000000e+00
-1.598456198500000092e+00 -2.416111287400000140e+00 3.287070966571999975e+02 0.000000000000000000e+00 0.000000000000000000e+00 0.000000000000000000e+00
-3.127541760699999784e+00 -5.374532396700000270e+00 3.264859471733000191e+02 0.000000000000000000e+00 0.000000000000000000e+00 0.000000000000000000e+00
-1.670648986600000052e+00 -2.925149453299999980e+00 3.291672013341000138e+02 0.000000000000000000e+00 0.000000000000000000e+00 0.000000000000000000e+00
-1.570674818000000084e+00 -3.885310115999999869e+00 3.286638044681000110e+02 0.000000000000000000e+00 0.000000000000000000e+00 0.000000000000000000e+00
-1.606903870600000062e+00 -3.853928792900000122e+00 3.290970326710000222e+02 0.000000000000000000e+00 0.000000000000000000e+00 0.000000000000000000e+00
-1.600927731699999912e+00 -4.411783136400000416e+00 3.290838583232999781e+02 0.000000000000000000e+00 0.000000000000000000e+00 0.000000000000000000e+00
-2.049918902399999965e+00 -5.934192765599999753e+00 3.271593314007000117e+02 0.000000000000000000e+00 0.000000000000000000e+00 0.000000000000000000e+00
-1.620904493400000090e+00 -5.892493990700000239e+00 3.277602030629000183e+02 0.000000000000000000e+00 0.000000000000000000e+00 0.000000000000000000e+00
-1.591429144999999989e+00 -5.893006182399999737e+00 3.286541135177000115e+02 0.000000000000000000e+00 0.000000000000000000e+00 0.000000000000000000e+00
-1.651104710600000081e+00 -5.971913547699999825e+00 3.290578264111999829e+02 0.000000000000000000e+00 0.000000000000000000e+00 0.000000000000000000e+00
-2.520604850399999819e+00 -8.855599760300000511e+00 3.259897962195000218e+02 0.000000000000000000e+00 0.000000000000000000e+00 0.000000000000000000e+00
-1.604457488099999996e+00 -8.381424497899999437e+00 3.271987428471999806e+02 0.000000000000000000e+00 0.000000000000000000e+00 0.000000000000000000e+00
