1.857017050999999919e+00 -5.158893617230000217e+01 2.867938530512000170e+02 0.000000000000000000e+00 0.000000000000000000e+00 0.000000000000000000e+00
1.296435673199999972e+00 -5.008849365329999870e+01 2.898401182649000134e+02 0.000000000000000000e+00 0.000000000000000000e+00 0.000000000000000000e+00
1.312187239700000063e+00 -4.921784943950000013e+01 2.916015572874999862e+02 0.000000000000000000e+00 0.000000000000000000e+00 0.000000000000000000e+00
3.957324561000000185e-01 -4.573851911010000038e+01 2.985709571782999774e+02 0.000000000000000000e+00 0.000000000000000000e+00 0.000000000000000000e+00
4.709085215800000057e+00 -5.217446773529999859e+01 2.785050531957999738e+02 0.000000000000000000e+00 0.000000000000000000e+00 0.000000000000000000e+00
3.996238376500000022e+00 -5.060369459670000225e+01 2.833312184709000121e+02 0.000000000000000000e+00 0.000000000000000000e+00 0.000000000000000000e+00
2.416845339700000039e+00 -4.755986929430000032e+01 2.947496827494999820e+02 0.000000000000000000e+00 0.000000000000000000e+00 0.000000000000000000e+00
4.417281817500000152e+00 -5.013337905750000090e+01 2.837463213395000139e+02 0.000000000000000000e+00 0.000000000000000000e+00 0.000000000000000000e+00
2.896026581200000116e+00 -4.709239920950000169e+01 2.953131663072999800e+02 0.000000000000000000e+00 0.000000000000000000e+00 0.000000000000000000e+00
2.762924834700000165e+00 -4.667799923519999794e+01 2.965422824156000274e+02 0.000000000000000000e+00 0.000000000000000000e+00 0.000000000000000000e+00
5.725291755099999769e+00 -5.118300849570000111e+01 2.805084499080999763e+02 0.000000000000000000e+00 0.000000000000000000e+00 0.000000000000000000e+00
2.917159118699999887e+00 -4.510795249329999734e+01 2.993441423166000277e+02 0.000000000000000000e+00 0.000000000000000000e+00 0.000000000000000000e+00
4.028580826999999864e+00 -4.660286565460000219e+01 2.918157078621999858e+02 0.000000000000000000e+00 0.000000000000000000e+00 0.000000000000000000e+00
4.443535216099999907e+00 -4.608704021799999850e+01 2.923513649824000140e+02 0.000000000000000000e+00 0.000000000000000000e+00 0.000000000000000000e+00
6.240779027700000370e+00 -4.879374120220000322e+01 2.856084922746999837e+02 0.000000000000000000e+00 0.000000000000000000e+00 0.000000000000000000e+00
4.069595925099999789e+00 -4.261468416230000145e+01 2.987345180204000030e+02 0.000000000000000000e+00 0.000000000000000000e+00 0.000000000000000000e+00
4.481656179999999878e+00 -3.958018073230000056e+01 3.028721347230999754e+02 0.000000000000000000e+00 0.000000000000000000e+00 0.000000000000000000e+00
-6.905429033000000105e-01 -4.936373972389999665e+01 2.901869451110000000e+02 0.000000000000000000e+00 0.000000000000000000e+00 0.000000000000000000e+00
-3.128981915299999805e+00 -4.676388748589999977e+01 2.901491335003000245e+02 0.000000000000000000e+00 0.000000000000000000e+00 0.000000000000000000e+00
-6.201538442999999790e-01 -4.693715743180000288e+01 2.951433587998999997e+02 0.000000000000000000e+00 0.000000000000000000e+00 0.000000000000000000e+00
1.825993237000000102e-01 -4.516489495030000256e+01 3.000280889888999809e+02 0.000000000000000000e+00 0.000000000000000000e+00 0.000000000000000000e+00
-1.434633619600000021e+00 -4.934293126520000072e+01 2.865483595791000084e+02 0.000000000000000000e+00 0.000000000000000000e+00 0.000000000000000000e+00
-5.523509894999999448e-01 -5.080851277370000219e+01 2.876053575684999828e+02 0.000000000000000000e+00 0.000000000000000000e+00 0.000000000000000000e+00
-1.019762061400000031e+00 -4.689879901759999825e+01 2.936606965185000035e+02 0.000000000000000000e+00 0.000000000000000000e+00 0.000000000000000000e+00
-9.575470537000000393e-01 -4.537467641810000174e+01 2.975742681699999821e+02 0.000000000000000000e+00 0.000000000000000000e+00 0.000000000000000000e+00
-1.659410359600000051e+00 -3.992382455980000344e+01 3.026715439453000158e+02 0.000000000000000000e+00 0.000000000000000000e+00 0.000000000000000000e+00
-8.377677406000000326e-01 -4.441462983480000304e+01 2.977085839257999851e+02 0.000000000000000000e+00 0.000000000000000000e+00 0.000000000000000000e+00
-1.814583979900000088e+00 -5.168493304919999787e+01 2.813453299959999754e+02 0.000000000000000000e+00 0.000000000000000000e+00 0.000000000000000000e+00
-6.277096075000000441e-01 -5.235592343710000307e+01 2.801810254545999896e+02 0.000000000000000000e+00 0.000000000000000000e+00 0.000000000000000000e+00
-1.401029944999999943e-01 -5.285354018969999856e+01 2.841145095327000263e+02 0.000000000000000000e+00 0.000000000000000000e+00 0.000000000000000000e+00
-6.712369190000000430e-01 -5.092521204549999680e+01 2.866995431304000022e+02 0.000000000000000000e+00 0.000000000000000000e+00 0.000000000000000000e+00
1.893981187300000091e+00 -5.391116151380000332e+01 2.812327152395999974e+02 0.000000000000000000e+00 0.000000000000000000e+00 0.000000000000000000e+00
-6.178169747999999739e-01 -5.385325613780000253e+01 2.798329498995000222e+02 0.000000000000000000e+00 0.000000000000000000e+00 0.000000000000000000e+00
2.508673477699999932e+00 -5.245816017939999654e+01 2.804583152798999777e+02 0.000000000000000000e+00 0.000000000000000000e+00 0.000000000000000000e+00
-2.293171368799999943e+00 -4.459416987470000038e+01 2.948944323902999827e+02 0.000000000000000000e+00 0.000000000000000000e+00 0.000000000000000000e+00
-4.239028335000000203e-01 -4.972043064750000241e+01 2.905919215047999842e+02 0.000000000000000000e+00 0.000000000000000000e+00 0.000000000000000000e+00
1.350911642400000057e+00 -3.959493926049999857e+01 3.038220758780000210e+02 0.000000000000000000e+00 0.000000000000000000e+00 0.000000000000000000e+00
4.418622993499999652e+00 -4.604183292420000129e+01 2.946693169504000025e+02 0.000000000000000000e+00 0.000000000000000000e+00 0.000000000000000000e+00
-9.227457019000000482e-01 -4.773199809390000325e+01 2.936314412401000027e+02 0.000000000000000000e+00 0.000000000000000000e+00 0.000000000000000000e+00
-7.847996901999999553e-01 -5.138788364789999719e+01 2.836841880864000132e+02 0.000000000000000000e+00 0.000000000000000000e+00 0.000000000000000000e+00
-2.778971523500000096e+00 -4.958542849829999710e+01 2.843206906066999977e+02 0.000000000000000000e+00 0.000000000000000000e+00 0.000000000000000000e+00
4.336465020000000337e+00 -4.898809303240000190e+01 2.890877718924999726e+02 0.000000000000000000e+00 0.000000000000000000e+00 0.000000000000000000e+00
-2.749659942800000145e+00 -5.206993031150000206e+01 2.782910138806000191e+02 0.000000000000000000e+00 0.000000000000000000e+00 0.000000000000000000e+00
-2.259117868200000157e+00 -5.261272563170000183e+01 2.772684937149999769e+02 0.000000000000000000e+00 0.000000000000000000e+00 0.000000000000000000e+00
-1.648066786700000064e+00 -5.173137941270000084e+01 2.801568683370999793e+02 0.000000000000000000e+00 0.000000000000000000e+00 0.000000000000000000e+00
-1.806672239999999874e-02 -5.364567660259999826e+01 2.817645337848999816e+02 0.000000000000000000e+00 0.000000000000000000e+00 0.000000000000000000e+00
-1.681213840999999931e-01 -5.233346429080000206e+01 2.796656739806999781e+02 0.000000000000000000e+00 0.000000000000000000e+00 0.000000000000000000e+00
-5.945479009999999898e-01 -5.136706166279999763e+01 2.861996762675000241e+02 0.000000000000000000e+00 0.000000000000000000e+00 0.000000000000000000e+00
3.314733315000000236e-01 -5.273538843829999934e+01 2.845686013196000204e+02 0.000000000000000000e+00 0.000000000000000000e+00 0.000000000000000000e+00
-9.657649403000000410e-01 -5.056219481330000320e+01 2.870416657493000230e+02 0.000000000000000000e+00 0.000000000000000000e+00 0.000000000000000000e+00
1.299641200900000015e+00 -5.310350045170000044e+01 2.772513292398999738e+02 0.000000000000000000e+00 0.000000000000000000e+00 0.000000000000000000e+00
1.764579122300000025e+00 -5.311004068950000345e+01 2.772500596012000074e+02 0.000000000000000000e+00 0.000000000000000000e+00 0.000000000000000000e+00
2.287534148000000211e+00 -5.365546398440000075e+01 2.829450783217000094e+02 0.000000000000000000e+00 0.000000000000000000e+00 0.000000000000000000e+00
-2.980115501999999861e+00 -4.541752871999999996e+01 2.935973984066000071e+02 0.000000000000000000e+00 0.000000000000000000e+00 0.000000000000000000e+00
-3.113558094900000128e+00 -4.473998428950000061e+01 2.940637047240999777e+02 0.000000000000000000e+00 0.000000000000000000e+00 0.000000000000000000e+00
-1.431581570999999886e-01 -4.882107507460000306e+01 2.922205219136000096e+02 0.000000000000000000e+00 0.000000000000000000e+00 0.000000000000000000e+00
-2.848870655999999890e+00 -4.441770285519999817e+01 2.957676335090000066e+02 0.000000000000000000e+00 0.000000000000000000e+00 0.000000000000000000e+00
-9.679511684999999588e-01 -4.636867048540000269e+01 2.957099542616999770e+02 0.000000000000000000e+00 0.000000000000000000e+00 0.000000000000000000e+00
-2.932903507999999881e-01 -4.603556130820000192e+01 2.972024508664999871e+02 0.000000000000000000e+00 0.000000000000000000e+00 0.000000000000000000e+00
3.610551392500000123e+00 -4.824049979320000148e+01 2.905003055028000176e+02 0.000000000000000000e+00 0.000000000000000000e+00 0.000000000000000000e+00
5.952760029600000280e+00 -5.079771631490000061e+01 2.816653225091999957e+02 0.000000000000000000e+00 0.000000000000000000e+00 0.000000000000000000e+00
3.158075679800000035e+00 -4.329714941350000146e+01 3.026179663092000283e+02 0.000000000000000000e+00 0.000000000000000000e+00 0.000000000000000000e+00
3.144489043900000169e+00 -4.290312237079999846e+01 3.024755543086000102e+02 0.000000000000000000e+00 0.000000000000000000e+00 0.000000000000000000e+00
2.588628287100000147e+00 -4.124860119360000255e+01 3.029987671363999766e+02 0.000000000000000000e+00 0.000000000000000000e+00 0.000000000000000000e+00
-1.726188716900000086e+00 -4.407358330950000180e+01 2.962346309028999940e+02 0.000000000000000000e+00 0.000000000000000000e+00 0.000000000000000000e+00
-1.094453046000000013e-01 -5.270635559939999837e+01 2.844815666334999946e+02 0.000000000000000000e+00 0.000000000000000000e+00 0.000000000000000000e+00
-1.149077976400000090e+00 -4.988060682620000108e+01 2.852208025365000026e+02 0.000000000000000000e+00 0.000000000000000000e+00 0.000000000000000000e+00
2.759957673899999797e+00 -4.809033059000000065e+01 2.933074213050999788e+02 0.000000000000000000e+00 0.000000000000000000e+00 0.000000000000000000e+00
-3.088049911900000222e+00 -5.023742536190000152e+01 2.826173092308999912e+02 0.000000000000000000e+00 0.000000000000000000e+00 0.000000000000000000e+00
-1.275982341000000131e-01 -5.377302117699999684e+01 2.821406213111999932e+02 0.000000000000000000e+00 0.000000000000000000e+00 0.000000000000000000e+00
-3.688489043000000023e-01 -5.152966048830000290e+01 2.862267053133999752e+02 0.000000000000000000e+00 0.000000000000000000e+00 0.000000000000000000e+00
1.279395675199999971e+00 -5.310850287910000134e+01 2.838595517328000142e+02 0.000000000000000000e+00 0.000000000000000000e+00 0.000000000000000000e+00
2.748321427900000113e+00 -5.381668454919999789e+01 2.812586193216000083e+02 0.000000000000000000e+00 0.000000000000000000e+00 0.000000000000000000e+00
2.796687287300000158e+00 -5.234437962919999876e+01 2.796917098915000111e+02 0.000000000000000000e+00 0.000000000000000000e+00 0.000000000000000000e+00
2.613226183900000166e+00 -4.764721584179999780e+01 2.945255469521000009e+02 0.000000000000000000e+00 0.000000000000000000e+00 0.000000000000000000e+00
4.097085336700000191e+00 -4.754066010460000058e+01 2.897320980577999876e+02 0.000000000000000000e+00 0.000000000000000000e+00 0.000000000000000000e+00
3.610043797599999937e+00 -4.622683899009999919e+01 2.942069399151000084e+02 0.000000000000000000e+00 0.000000000000000000e+00 0.000000000000000000e+00
5.983906124399999804e+00 -4.757992573509999801e+01 2.879203815693999786e+02 0.000000000000000000e+00 0.000000000000000000e+00 0.000000000000000000e+00
5.368939640199999808e+00 -4.495073531829999780e+01 2.946054573581000113e+02 0.000000000000000000e+00 0.000000000000000000e+00 0.000000000000000000e+00
2.664910081299999955e+00 -4.021710550680000296e+01 3.031478432183000109e+02 0.000000000000000000e+00 0.000000000000000000e+00 0.000000000000000000e+00
3.372642436900000096e+00 -4.085709284299999666e+01 3.016878635269000029e+02 0.000000000000000000e+00 0.000000000000000000e+00 0.000000000000000000e+00
6.115076924400000280e+00 -4.166650733190000011e+01 2.986410368768000012e+02 0.000000000000000000e+00 0.000000000000000000e+00 0.000000000000000000e+00
-2.621385560399999815e+00 -4.280132385550000151e+01 2.976922844439000073e+02 0.000000000000000000e+00 0.000000000000000000e+00 0.000000000000000000e+00
-2.624569221299999811e+00 -5.169984953849999698e+01 2.795200303322000082e+02 0.000000000000000000e+00 0.000000000000000000e+00 0.000000000000000000e+00
-6.147339450000000038e-02 -4.022433570550000326e+01 3.029819120403000170e+02 0.000000000000000000e+00 0.000000000000000000e+00 0.000000000000000000e+00
1.246628569499999895e+00 -4.029792886730000134e+01 3.032696424851999950e+02 0.000000000000000000e+00 0.000000000000000000e+00 0.000000000000000000e+00
5.045124677199999574e+00 -4.597498792270000223e+01 2.936957418384000107e+02 0.000000000000000000e+00 0.000000000000000000e+00 0.000000000000000000e+00
1.803870543900000012e+00 -5.310547906269999885e+01 2.838573390756999970e+02 0.000000000000000000e+00 0.000000000000000000e+00 0.000000000000000000e+00
-1.150248497900000055e+00 -3.938573887129999918e+01 3.036829400793000104e+02 0.000000000000000000e+00 0.000000000000000000e+00 0.000000000000000000e+00
-6.523034067999999852e-01 -3.947502677079999955e+01 3.037052378353999984e+02 0.000000000000000000e+00 0.000000000000000000e+00 0.000000000000000000e+00
-3.170097056399999946e+00 -4.341735492349999959e+01 2.961642144384999824e+02 0.000000000000000000e+00 0.000000000000000000e+00 0.000000000000000000e+00
-2.597328629300000191e+00 -4.224068321059999676e+01 2.986136869930999751e+02 0.000000000000000000e+00 0.000000000000000000e+00 0.000000000000000000e+00
5.286670069100000369e+00 -4.596203404970000150e+01 2.933029832482000074e+02 0.000000000000000000e+00 0.000000000000000000e+00 0.000000000000000000e+00
5.339880599799999850e+00 -4.777233022059999712e+01 2.896750733805999971e+02 0.000000000000000000e+00 0.000000000000000000e+00 0.000000000000000000e+00
1.385663791999999894e+00 -5.416862152310000056e+01 2.812971115012999803e+02 0.000000000000000000e+00 0.000000000000000000e+00 0.000000000000000000e+00
4.279769966799999992e+00 -5.038626347110000125e+01 2.864331693885999925e+02 0.000000000000000000e+00 0.000000000000000000e+00 0.000000000000000000e+00
-7.722346723999999885e-01 -4.841601407040000282e+01 2.906470357535999938e+02 0.000000000000000000e+00 0.000000000000000000e+00 0.000000000000000000e+00
-8.435475478999999721e-01 -4.442232348209999770e+01 2.986800634291000165e+02 0.000000000000000000e+00 0.000000000000000000e+00 0.000000000000000000e+00
-8.075045665000000206e-01 -4.987355113360000303e+01 2.867109455985000181e+02 0.000000000000000000e+00 0.000000000000000000e+00 0.000000000000000000e+00
5.800673591799999862e+00 -4.689194483410000203e+01 2.905900697774999912e+02 0.000000000000000000e+00 0.000000000000000000e+00 0.000000000000000000e+00
3.408019252999999749e-01 -4.036418293959999914e+01 3.030886524544999929e+02 0.000000000000000000e+00 0.000000000000000000e+00 0.000000000000000000e+00
-2.629221664100000133e+00 -4.188100001349999957e+01 2.991372387011999763e+02 0.000000000000000000e+00 0.000000000000000000e+00 0.000000000000000000e+00
-2.120566402900000202e+00 -4.180777937559999913e+01 2.996342402889000027e+02 0.000000000000000000e+00 0.000000000000000000e+00 0.000000000000000000e+00
-1.659091042500000057e+00 -4.094508079309999715e+01 3.012199178179999990e+02 0.000000000000000000e+00 0.000000000000000000e+00 0.000000000000000000e+00
3.062615867999999852e-01 -4.239659656770000140e+01 3.016847279089000153e+02 0.000000000000000000e+00 0.000000000000000000e+00 0.000000000000000000e+00
-7.063784547000000469e-01 -4.240738557819999954e+01 3.012080902994999860e+02 0.000000000000000000e+00 0.000000000000000000e+00 0.000000000000000000e+00
-1.190516898600000095e+00 -4.448332567250000125e+01 2.961802887985999746e+02 0.000000000000000000e+00 0.000000000000000000e+00 0.000000000000000000e+00
-8.252747757999999711e-01 -4.385043459709999780e+01 2.987274906330999897e+02 0.000000000000000000e+00 0.000000000000000000e+00 0.000000000000000000e+00
-5.740792327999999500e-01 -4.393572558700000030e+01 3.011570155712000201e+02 0.000000000000000000e+00 0.000000000000000000e+00 0.000000000000000000e+00
-3.205605075199999821e+00 -4.761827656650000051e+01 2.882165110604000233e+02 0.000000000000000000e+00 0.000000000000000000e+00 0.000000000000000000e+00
-2.677963964199999936e+00 -4.692602038759999772e+01 2.901529965300999834e+02 0.000000000000000000e+00 0.000000000000000000e+00 0.000000000000000000e+00
-2.190859630299999861e+00 -4.652354017430000255e+01 2.912721010235999870e+02 0.000000000000000000e+00 0.000000000000000000e+00 0.000000000000000000e+00
-1.654354451799999959e+00 -4.547121502059999898e+01 2.937092772501999889e+02 0.000000000000000000e+00 0.000000000000000000e+00 0.000000000000000000e+00
1.934545584100000104e+00 -4.418355464289999901e+01 3.020622982817000093e+02 0.000000000000000000e+00 0.000000000000000000e+00 0.000000000000000000e+00
-2.044302223099999871e+00 -5.023296042860000199e+01 2.835452195171000085e+02 0.000000000000000000e+00 0.000000000000000000e+00 0.000000000000000000e+00
-1.722022573300000081e+00 -5.004978603160000006e+01 2.841966547842000068e+02 0.000000000000000000e+00 0.000000000000000000e+00 0.000000000000000000e+00
-1.195038918000000061e+00 -4.947804454309999755e+01 2.862138869226000111e+02 0.000000000000000000e+00 0.000000000000000000e+00 0.000000000000000000e+00
-6.391597839999999531e-01 -5.289617888389999933e+01 2.811878091071999961e+02 0.000000000000000000e+00 0.000000000000000000e+00 0.000000000000000000e+00
5.842325512999999582e+00 -4.339586270019999859e+01 2.965921007856999836e+02 0.000000000000000000e+00 0.000000000000000000e+00 0.000000000000000000e+00
6.152425286899999790e+00 -4.369933779360000159e+01 2.959942315038999823e+02 0.000000000000000000e+00 0.000000000000000000e+00 0.000000000000000000e+00
4.659332305300000421e+00 -4.786277352559999798e+01 2.907094960489999949e+02 0.000000000000000000e+00 0.000000000000000000e+00 0.000000000000000000e+00
5.447288831999999914e+00 -4.739732747930000301e+01 2.902168804223999814e+02 0.000000000000000000e+00 0.000000000000000000e+00 0.000000000000000000e+00
4.586675283599999986e+00 -4.896057829459999766e+01 2.886994542304000220e+02 0.000000000000000000e+00 0.000000000000000000e+00 0.000000000000000000e+00
2.846677173899999858e+00 -5.159717625639999738e+01 2.862736967185999788e+02 0.000000000000000000e+00 0.000000000000000000e+00 0.000000000000000000e+00
4.279629402800000371e+00 -5.071405023049999983e+01 2.857758551643000260e+02 0.000000000000000000e+00 0.000000000000000000e+00 0.000000000000000000e+00
-2.078921180100000043e+00 -4.373974163860000175e+01 2.965078469732000030e+02 0.000000000000000000e+00 0.000000000000000000e+00 0.000000000000000000e+00
4.963901708099999865e+00 -4.709303091849999845e+01 2.916673071517000153e+02 0.000000000000000000e+00 0.000000000000000000e+00 0.000000000000000000e+00
4.451302562100000415e+00 -5.036064522769999741e+01 2.861758816369999749e+02 0.000000000000000000e+00 0.000000000000000000e+00 0.000000000000000000e+00
-8.938285512000000432e-01 -5.105929915059999757e+01 2.828350012233000257e+02 0.000000000000000000e+00 0.000000000000000000e+00 0.000000000000000000e+00
4.444008856199999968e+00 -4.684246109960000126e+01 2.931069209936999869e+02 0.000000000000000000e+00 0.000000000000000000e+00 0.000000000000000000e+00
4.789285481000000289e+00 -4.933223204450000310e+01 2.876365396339999734e+02 0.000000000000000000e+00 0.000000000000000000e+00 0.000000000000000000e+00
-2.102052410399999793e+00 -3.978571982990000322e+01 3.025876023199999736e+02 0.000000000000000000e+00 0.000000000000000000e+00 0.000000000000000000e+00
-4.691162333000000184e-01 -5.067557338129999778e+01 2.880135441427000274e+02 0.000000000000000000e+00 0.000000000000000000e+00 0.000000000000000000e+00
-4.515204032999999839e-01 -4.981444271050000339e+01 2.901457521881999924e+02 0.000000000000000000e+00 0.000000000000000000e+00 0.000000000000000000e+00
-1.228573536000000077e+00 -4.336167549369999819e+01 3.014342111368000019e+02 0.000000000000000000e+00 0.000000000000000000e+00 0.000000000000000000e+00
-1.374832382999999991e+00 -4.706852432280000187e+01 2.908878195685999799e+02 0.000000000000000000e+00 0.000000000000000000e+00 0.000000000000000000e+00
-7.509065650000000536e-02 -4.669672447540000348e+01 2.966211619228000131e+02 0.000000000000000000e+00 0.000000000000000000e+00 0.000000000000000000e+00
-6.166725410000000185e-01 -5.392185703500000216e+01 2.801910942939999813e+02 0.000000000000000000e+00 0.000000000000000000e+00 0.000000000000000000e+00
3.767241087399999966e+00 -5.144293431020000185e+01 2.852350392386999829e+02 0.000000000000000000e+00 0.000000000000000000e+00 0.000000000000000000e+00
-3.356181728999999780e+00 -4.261479258140000326e+01 2.974050087704999896e+02 0.000000000000000000e+00 0.000000000000000000e+00 0.000000000000000000e+00
-2.582609229200000023e+00 -4.374837914529999949e+01 2.961047812427000281e+02 0.000000000000000000e+00 0.000000000000000000e+00 0.000000000000000000e+00
-1.919496313100000018e+00 -4.326655186579999679e+01 2.975554776226999820e+02 0.000000000000000000e+00 0.000000000000000000e+00 0.000000000000000000e+00
-2.732480745700000213e+00 -5.006907959950000020e+01 2.832582292806999931e+02 0.000000000000000000e+00 0.000000000000000000e+00 0.000000000000000000e+00
-3.252036948599999810e+00 -5.006775275420000071e+01 2.827525112774000036e+02 0.000000000000000000e+00 0.000000000000000000e+00 0.000000000000000000e+00
-1.178497113299999954e+00 -4.248444806420000219e+01 3.011274850971000205e+02 0.000000000000000000e+00 0.000000000000000000e+00 0.000000000000000000e+00
-1.417479853499999942e+00 -5.016633429569999691e+01 2.847470341100000155e+02 0.000000000000000000e+00 0.000000000000000000e+00 0.000000000000000000e+00
-3.004229554700000193e+00 -4.873781463249999746e+01 2.861000322209000046e+02 0.000000000000000000e+00 0.000000000000000000e+00 0.000000000000000000e+00
4.275727848299999856e+00 -5.169972946480000076e+01 2.838085242138000126e+02 0.000000000000000000e+00 0.000000000000000000e+00 0.000000000000000000e+00
-3.274332776800000122e+00 -4.554837134089999751e+01 2.922505053313000190e+02 0.000000000000000000e+00 0.000000000000000000e+00 0.000000000000000000e+00
4.006081008999999860e-01 -5.388384353970000262e+01 2.808895447729000239e+02 0.000000000000000000e+00 0.000000000000000000e+00 0.000000000000000000e+00
4.590166907100000415e+00 -5.190340890920000305e+01 2.827841647655999964e+02 0.000000000000000000e+00 0.000000000000000000e+00 0.000000000000000000e+00
1.831887501400000007e+00 -4.342642180280000019e+01 3.020728265334000184e+02 0.000000000000000000e+00 0.000000000000000000e+00 0.000000000000000000e+00
-1.140946355699999915e+00 -4.739290290489999791e+01 2.906925432163000096e+02 0.000000000000000000e+00 0.000000000000000000e+00 0.000000000000000000e+00
-3.140793857299999825e+00 -4.091768667600000242e+01 3.001864603208999824e+02 0.000000000000000000e+00 0.000000000000000000e+00 0.000000000000000000e+00
-2.669008821299999834e+00 -4.007850885060000223e+01 3.017806793959999823e+02 0.000000000000000000e+00 0.000000000000000000e+00 0.000000000000000000e+00
-3.114020303100000220e+00 -4.323657304460000006e+01 2.965621165024999755e+02 0.000000000000000000e+00 0.000000000000000000e+00 0.000000000000000000e+00
-3.144684248699999962e+00 -4.286044544180000315e+01 2.971629975158999741e+02 0.000000000000000000e+00 0.000000000000000000e+00 0.000000000000000000e+00
-2.825667567300000016e+00 -4.255842831929999903e+01 2.978656466963000184e+02 0.000000000000000000e+00 0.000000000000000000e+00 0.000000000000000000e+00
-1.159247967300000015e+00 -4.020851496800000291e+01 3.025218286090999982e+02 0.000000000000000000e+00 0.000000000000000000e+00 0.000000000000000000e+00
3.370831913999999818e-01 -3.958976704220000187e+01 3.037735183520999840e+02 0.000000000000000000e+00 0.000000000000000000e+00 0.000000000000000000e+00
-2.282724621099999851e+00 -4.402662411899999739e+01 2.957825573265999992e+02 0.000000000000000000e+00 0.000000000000000000e+00 0.000000000000000000e+00
-1.180607391199999912e+00 -4.238074569780000189e+01 2.996370154667000065e+02 0.000000000000000000e+00 0.000000000000000000e+00 0.000000000000000000e+00
-3.034801711999999818e-01 -4.113776524139999680e+01 3.023863314830999798e+02 0.000000000000000000e+00 0.000000000000000000e+00 0.000000000000000000e+00
-3.154692672499999961e+00 -4.542331183539999984e+01 2.926872494654999741e+02 0.000000000000000000e+00 0.000000000000000000e+00 0.000000000000000000e+00
-1.187657993400000001e+00 -4.391288247979999682e+01 2.972647347431999947e+02 0.000000000000000000e+00 0.000000000000000000e+00 0.000000000000000000e+00
-2.484857387999999945e-01 -4.255794090719999900e+01 3.023373713870000188e+02 0.000000000000000000e+00 0.000000000000000000e+00 0.000000000000000000e+00
-1.124913009399999941e+00 -4.433252304959999890e+01 2.966670375904000139e+02 0.000000000000000000e+00 0.000000000000000000e+00 0.000000000000000000e+00
-1.060393005799999955e+00 -4.390553417049999751e+01 2.976742141748999870e+02 0.000000000000000000e+00 0.000000000000000000e+00 0.000000000000000000e+00
-8.233027950000000317e-01 -4.386204041650000107e+01 2.981982437335000213e+02 0.000000000000000000e+00 0.000000000000000000e+00 0.000000000000000000e+00
-9.346978770999999631e-01 -4.459489544739999900e+01 2.994685017859999903e+02 0.000000000000000000e+00 0.000000000000000000e+00 0.000000000000000000e+00
-4.413007592000000034e-01 -4.425702902689999974e+01 3.009744077418999950e+02 0.000000000000000000e+00 0.000000000000000000e+00 0.000000000000000000e+00
-2.155902942800000055e+00 -4.855974384209999783e+01 2.872244220753000263e+02 0.000000000000000000e+00 0.000000000000000000e+00 0.000000000000000000e+00
-2.253885829700000176e+00 -4.805918494880000225e+01 2.882088353211000253e+02 0.000000000000000000e+00 0.000000000000000000e+00 0.000000000000000000e+00
-2.151534058499999791e+00 -4.787401630960000176e+01 2.886892617001000190e+02 0.000000000000000000e+00 0.000000000000000000e+00 0.000000000000000000e+00
-1.643602611699999994e+00 -4.735398269640000279e+01 2.901692419417000224e+02 0.000000000000000000e+00 0.000000000000000000e+00 0.000000000000000000e+00
-1.233128105900000104e+00 -4.701550899859999788e+01 2.912301482650000253e+02 0.000000000000000000e+00 0.000000000000000000e+00 0.000000000000000000e+00
-1.148909232100000066e+00 -4.647951569730000188e+01 2.921800702525999895e+02 0.000000000000000000e+00 0.000000000000000000e+00 0.000000000000000000e+00
-1.134422864700000089e+00 -4.633671302140000137e+01 2.927066636947000120e+02 0.000000000000000000e+00 0.000000000000000000e+00 0.000000000000000000e+00
-7.993455243999999515e-01 -4.642106958400000138e+01 2.936923776689000078e+02 0.000000000000000000e+00 0.000000000000000000e+00 0.000000000000000000e+00
-2.612791917600000069e+00 -4.932637746879999696e+01 2.850886097269000174e+02 0.000000000000000000e+00 0.000000000000000000e+00 0.000000000000000000e+00
-2.650778159700000192e+00 -4.882414249570000209e+01 2.861992573271999731e+02 0.000000000000000000e+00 0.000000000000000000e+00 0.000000000000000000e+00
-8.157163691000000050e-01 -4.689114144650000071e+01 2.936940850057999910e+02 0.000000000000000000e+00 0.000000000000000000e+00 0.000000000000000000e+00
-7.952959125999999879e-01 -4.850576357869999811e+01 2.896911126951000028e+02 0.000000000000000000e+00 0.000000000000000000e+00 0.000000000000000000e+00
-1.647562267999999885e-01 -4.730778103929999645e+01 2.951869527593000271e+02 0.000000000000000000e+00 0.000000000000000000e+00 0.000000000000000000e+00
-2.192548758100000050e+00 -5.050158966320000076e+01 2.827624542251999742e+02 0.000000000000000000e+00 0.000000000000000000e+00 0.000000000000000000e+00
-2.259297512299999866e+00 -5.004257320709999846e+01 2.837757475336999846e+02 0.000000000000000000e+00 0.000000000000000000e+00 0.000000000000000000e+00
-1.608111905699999955e+00 -4.977600167180000312e+01 2.851302215256000068e+02 0.000000000000000000e+00 0.000000000000000000e+00 0.000000000000000000e+00
-1.173872070899999898e+00 -4.882052871449999998e+01 2.876854665515999727e+02 0.000000000000000000e+00 0.000000000000000000e+00 0.000000000000000000e+00
-2.231461405100000128e+00 -5.106680333309999753e+01 2.813016031651999924e+02 0.000000000000000000e+00 0.000000000000000000e+00 0.000000000000000000e+00
-7.716370531999999782e-01 -4.947130397029999926e+01 2.876698316982000279e+02 0.000000000000000000e+00 0.000000000000000000e+00 0.000000000000000000e+00
-7.399152774999999682e-01 -4.941650492720000187e+01 2.887139133989999777e+02 0.000000000000000000e+00 0.000000000000000000e+00 0.000000000000000000e+00
2.816518301999999974e+00 -4.471720921370000212e+01 3.006137902662999863e+02 0.000000000000000000e+00 0.000000000000000000e+00 0.000000000000000000e+00
-8.304861815999999841e-01 -5.086220114230000178e+01 2.837116742191000185e+02 0.000000000000000000e+00 0.000000000000000000e+00 0.000000000000000000e+00
-8.116790031999999711e-01 -5.089089071800000141e+01 2.842001385781999829e+02 0.000000000000000000e+00 0.000000000000000000e+00 0.000000000000000000e+00
-7.899592999000000226e-01 -5.048683866670000242e+01 2.846949571589000243e+02 0.000000000000000000e+00 0.000000000000000000e+00 0.000000000000000000e+00
-7.633317080999999504e-01 -5.041509738559999931e+01 2.862128544977999809e+02 0.000000000000000000e+00 0.000000000000000000e+00 0.000000000000000000e+00
-7.832547075000000358e-01 -5.094400219199999924e+01 2.846831387903999939e+02 0.000000000000000000e+00 0.000000000000000000e+00 0.000000000000000000e+00
-7.978219106999999699e-01 -5.196583500730000083e+01 2.811934844540999734e+02 0.000000000000000000e+00 0.000000000000000000e+00 0.000000000000000000e+00
-6.040782536000000036e-01 -5.293687453060000081e+01 2.821773142322999774e+02 0.000000000000000000e+00 0.000000000000000000e+00 0.000000000000000000e+00
6.235271833099999661e+00 -4.326560812649999832e+01 2.972074914291000027e+02 0.000000000000000000e+00 0.000000000000000000e+00 0.000000000000000000e+00
5.276641718699999650e+00 -4.552858437049999907e+01 2.941254488180999829e+02 0.000000000000000000e+00 0.000000000000000000e+00 0.000000000000000000e+00
4.249058269899999907e+00 -4.723445240790000099e+01 2.926904575815000271e+02 0.000000000000000000e+00 0.000000000000000000e+00 0.000000000000000000e+00
8.413851511000000061e-01 -5.294333807590000163e+01 2.801602998112999785e+02 0.000000000000000000e+00 0.000000000000000000e+00 0.000000000000000000e+00
4.818528714600000207e+00 -4.746792730779999658e+01 2.911899589930999923e+02 0.000000000000000000e+00 0.000000000000000000e+00 0.000000000000000000e+00
4.891699514999999998e+00 -4.819292378789999987e+01 2.896513270271000238e+02 0.000000000000000000e+00 0.000000000000000000e+00 0.000000000000000000e+00
4.424888918299999752e+00 -4.935754403180000338e+01 2.882221566772000187e+02 0.000000000000000000e+00 0.000000000000000000e+00 0.000000000000000000e+00
1.865061341100000103e+00 -5.277469752839999728e+01 2.801397251368999832e+02 0.000000000000000000e+00 0.000000000000000000e+00 0.000000000000000000e+00
3.757925331200000052e+00 -5.047454213799999678e+01 2.872019195107000087e+02 0.000000000000000000e+00 0.000000000000000000e+00 0.000000000000000000e+00
5.769817343999999792e+00 -4.793189700479999971e+01 2.886199365725000234e+02 0.000000000000000000e+00 0.000000000000000000e+00 0.000000000000000000e+00
4.976042735600000100e+00 -4.939448700269999648e+01 2.871629206709999949e+02 0.000000000000000000e+00 0.000000000000000000e+00 0.000000000000000000e+00
5.611793948899999940e+00 -4.881743964329999841e+01 2.871496720372999789e+02 0.000000000000000000e+00 0.000000000000000000e+00 0.000000000000000000e+00
6.230190411499999747e+00 -4.777394713820000050e+01 2.881592771412999809e+02 0.000000000000000000e+00 0.000000000000000000e+00 0.000000000000000000e+00
3.750551806599999871e+00 -5.179372012380000001e+01 2.845759212423999998e+02 0.000000000000000000e+00 0.000000000000000000e+00 0.000000000000000000e+00
4.557852635799999774e+00 -5.064496305849999658e+01 2.853956649497999933e+02 0.000000000000000000e+00 0.000000000000000000e+00 0.000000000000000000e+00
5.124845218299999949e+00 -4.983721955899999756e+01 2.859522800543999779e+02 0.000000000000000000e+00 0.000000000000000000e+00 0.000000000000000000e+00
4.290678714700000285e+00 -5.200371573339999998e+01 2.831588400351000132e+02 0.000000000000000000e+00 0.000000000000000000e+00 0.000000000000000000e+00
3.888454937900000186e+00 -5.285524361430000084e+01 2.812015094661999797e+02 0.000000000000000000e+00 0.000000000000000000e+00 0.000000000000000000e+00
-9.497607731999999636e-01 -4.133866742250000215e+01 3.014816877276999776e+02 0.000000000000000000e+00 0.000000000000000000e+00 0.000000000000000000e+00
-9.110017200000000148e-01 -4.577399127369999832e+01 2.951863006181000060e+02 0.000000000000000000e+00 0.000000000000000000e+00 0.000000000000000000e+00
-7.868730749999999774e-02 -4.142773424199999965e+01 3.025554251790999842e+02 0.000000000000000000e+00 0.000000000000000000e+00 0.000000000000000000e+00
-2.271754250399999897e+00 -4.259305633289999804e+01 2.982604761331999725e+02 0.000000000000000000e+00 0.000000000000000000e+00 0.000000000000000000e+00
-3.230979418800000058e+00 -4.807317934900000012e+01 2.872859500384000171e+02 0.000000000000000000e+00 0.000000000000000000e+00 0.000000000000000000e+00
-7.695759790999999739e-01 -5.315327179909999700e+01 2.793969681295999976e+02 0.000000000000000000e+00 0.000000000000000000e+00 0.000000000000000000e+00
-3.283727494899999932e+00 -4.706616695679999651e+01 2.893101921396000193e+02 0.000000000000000000e+00 0.000000000000000000e+00 0.000000000000000000e+00
-2.887198722900000014e+00 -5.056054140639999872e+01 2.818816200438999999e+02 0.000000000000000000e+00 0.000000000000000000e+00 0.000000000000000000e+00
-1.623676683700000067e+00 -4.634623090430000047e+01 2.921731412300999864e+02 0.000000000000000000e+00 0.000000000000000000e+00 0.000000000000000000e+00
-9.594150479999999925e-01 -4.730161486690000316e+01 2.946216859940000177e+02 0.000000000000000000e+00 0.000000000000000000e+00 0.000000000000000000e+00
-5.118784244999999844e-01 -4.144680324210000322e+01 3.021097161065000023e+02 0.000000000000000000e+00 0.000000000000000000e+00 0.000000000000000000e+00
-3.064542438300000171e+00 -4.967084203040000290e+01 2.839332008459999770e+02 0.000000000000000000e+00 0.000000000000000000e+00 0.000000000000000000e+00
5.896033524999999997e+00 -4.384798092650000001e+01 2.962273532593000027e+02 0.000000000000000000e+00 0.000000000000000000e+00 0.000000000000000000e+00
2.910340779100000219e+00 -4.143858900640000087e+01 3.013531945717999747e+02 0.000000000000000000e+00 0.000000000000000000e+00 0.000000000000000000e+00
-1.095993512099999956e+00 -4.782467879200000027e+01 2.901655186611999966e+02 0.000000000000000000e+00 0.000000000000000000e+00 0.000000000000000000e+00
5.520781942500000206e+00 -4.629325353229999962e+01 2.922389052047000177e+02 0.000000000000000000e+00 0.000000000000000000e+00 0.000000000000000000e+00
1.410661885999999976e+00 -5.269457946450000208e+01 2.799000689177000254e+02 0.000000000000000000e+00 0.000000000000000000e+00 0.000000000000000000e+00
4.068743002599999770e+00 -4.937118901059999843e+01 2.888095294410999827e+02 0.000000000000000000e+00 0.000000000000000000e+00 0.000000000000000000e+00
-2.192742287100000187e+00 -4.553478920530000096e+01 2.932225871429999984e+02 0.000000000000000000e+00 0.000000000000000000e+00 0.000000000000000000e+00
5.076597398000000094e-01 -5.316424650889999981e+01 2.803946770470000160e+02 0.000000000000000000e+00 0.000000000000000000e+00 0.000000000000000000e+00
-1.741194357699999973e+00 -4.800258532019999791e+01 2.887277421113000173e+02 0.000000000000000000e+00 0.000000000000000000e+00 0.000000000000000000e+00
-8.309207969999999888e-01 -4.492168822530000227e+01 2.966924749533000067e+02 0.000000000000000000e+00 0.000000000000000000e+00 0.000000000000000000e+00
-3.283155682899999928e+00 -4.005133121090000259e+01 3.013590664093999862e+02 0.000000000000000000e+00 0.000000000000000000e+00 0.000000000000000000e+00
-8.053708050000000229e-01 -4.942653135020000121e+01 2.872242830574999743e+02 0.000000000000000000e+00 0.000000000000000000e+00 0.000000000000000000e+00
-1.145320840999999978e+00 -4.787408676300000110e+01 2.896411169178999785e+02 0.000000000000000000e+00 0.000000000000000000e+00 0.000000000000000000e+00
-1.565579325899999930e+00 -3.971622124489999806e+01 3.030323438098000111e+02 0.000000000000000000e+00 0.000000000000000000e+00 0.000000000000000000e+00
-8.424083648000000313e-01 -4.489743157800000262e+01 2.962355232557000022e+02 0.000000000000000000e+00 0.000000000000000000e+00 0.000000000000000000e+00
3.433625905000000089e-01 -5.285978101589999767e+01 2.801620110710999825e+02 0.000000000000000000e+00 0.000000000000000000e+00 0.000000000000000000e+00
-2.612441484900000166e+00 -4.026032146650000243e+01 3.015895552576999989e+02 0.000000000000000000e+00 0.000000000000000000e+00 0.000000000000000000e+00
-7.603494684999999587e-01 -5.039417451069999743e+01 2.851936567116999868e+02 0.000000000000000000e+00 0.000000000000000000e+00 0.000000000000000000e+00
-2.145993429899999860e+00 -4.990293121650000074e+01 2.842070649826000022e+02 0.000000000000000000e+00 0.000000000000000000e+00 0.000000000000000000e+00
3.229370461000000136e-01 -4.337602901409999845e+01 3.019965506025999957e+02 0.000000000000000000e+00 0.000000000000000000e+00 0.000000000000000000e+00
-1.594741082200000104e+00 -4.926492686830000167e+01 2.861778576075000160e+02 0.000000000000000000e+00 0.000000000000000000e+00 0.000000000000000000e+00
-2.289425361700000217e+00 -4.057466535199999669e+01 3.013187872117999859e+02 0.000000000000000000e+00 0.000000000000000000e+00 0.000000000000000000e+00
-8.006854272000000217e-01 -4.442396107809999961e+01 2.982174404817000095e+02 0.000000000000000000e+00 0.000000000000000000e+00 0.000000000000000000e+00
-3.223479327200000188e+00 -4.663321672680000063e+01 2.901829799116999880e+02 0.000000000000000000e+00 0.000000000000000000e+00 0.000000000000000000e+00
3.361842795999999911e+00 -5.230384721669999948e+01 2.796414194702999794e+02 0.000000000000000000e+00 0.000000000000000000e+00 0.000000000000000000e+00
1.348615313800000104e+00 -4.174821735980000170e+01 3.014169302355999776e+02 0.000000000000000000e+00 0.000000000000000000e+00 0.000000000000000000e+00
-3.161970648600000100e+00 -3.986406237989999823e+01 3.017173461009999755e+02 0.000000000000000000e+00 0.000000000000000000e+00 0.000000000000000000e+00
-2.280616116100000035e+00 -3.959333646040000332e+01 3.027652045861000261e+02 0.000000000000000000e+00 0.000000000000000000e+00 0.000000000000000000e+00
-2.137427011699999824e+00 -3.939832631870000057e+01 3.031101986338999836e+02 0.000000000000000000e+00 0.000000000000000000e+00 0.000000000000000000e+00
-3.195104653200000033e+00 -4.246454032510000332e+01 2.977415568824000047e+02 0.000000000000000000e+00 0.000000000000000000e+00 0.000000000000000000e+00
-3.106509567599999855e+00 -4.226736460789999938e+01 2.981333619874000078e+02 0.000000000000000000e+00 0.000000000000000000e+00 0.000000000000000000e+00
-3.126643641899999881e+00 -4.191395706910000030e+01 2.986702204813000208e+02 0.000000000000000000e+00 0.000000000000000000e+00 0.000000000000000000e+00
-2.683131377000000040e+00 -4.144986775630000153e+01 2.997431499462999795e+02 0.000000000000000000e+00 0.000000000000000000e+00 0.000000000000000000e+00
-2.634231194499999873e+00 -4.092138199299999712e+01 3.006950363215000266e+02 0.000000000000000000e+00 0.000000000000000000e+00 0.000000000000000000e+00
-2.158106712599999977e+00 -4.042929934909999901e+01 3.016556342514999756e+02 0.000000000000000000e+00 0.000000000000000000e+00 0.000000000000000000e+00
-1.694918180399999974e+00 -3.950448481109999932e+01 3.032439497472000198e+02 0.000000000000000000e+00 0.000000000000000000e+00 0.000000000000000000e+00
-2.969696968300000073e+00 -4.272111970400000303e+01 2.975742264594999824e+02 0.000000000000000000e+00 0.000000000000000000e+00 0.000000000000000000e+00
-2.667991298700000069e+00 -4.244360006750000025e+01 2.982198872307000102e+02 0.000000000000000000e+00 0.000000000000000000e+00 0.000000000000000000e+00
-1.644812041900000077e+00 -4.138162265740000123e+01 3.006745028191999722e+02 0.000000000000000000e+00 0.000000000000000000e+00 0.000000000000000000e+00
-1.150136469300000019e+00 -4.087404648020000053e+01 3.016669512921999967e+02 0.000000000000000000e+00 0.000000000000000000e+00 0.000000000000000000e+00
-1.275595250999999875e-01 -3.958735658909999700e+01 3.036931168753000065e+02 0.000000000000000000e+00 0.000000000000000000e+00 0.000000000000000000e+00
-2.669989894400000008e+00 -4.339765887410000289e+01 2.966371190596000247e+02 0.000000000000000000e+00 0.000000000000000000e+00 0.000000000000000000e+00
-2.732607697000000169e+00 -4.299664083799999759e+01 2.972776879420999876e+02 0.000000000000000000e+00 0.000000000000000000e+00 0.000000000000000000e+00
-2.164966413400000178e+00 -4.299780567610000048e+01 2.977049869130000275e+02 0.000000000000000000e+00 0.000000000000000000e+00 0.000000000000000000e+00
-2.097971755400000138e+00 -4.277146089469999879e+01 2.981082546641000022e+02 0.000000000000000000e+00 0.000000000000000000e+00 0.000000000000000000e+00
-1.198627652999999960e+00 -4.152525484009999701e+01 3.007309024647000228e+02 0.000000000000000000e+00 0.000000000000000000e+00 0.000000000000000000e+00
-6.220127577999999824e-01 -4.035142843940000290e+01 3.025896358223999982e+02 0.000000000000000000e+00 0.000000000000000000e+00 0.000000000000000000e+00
-3.142125576000000198e+00 -4.434395773429999821e+01 2.946806734332000133e+02 0.000000000000000000e+00 0.000000000000000000e+00 0.000000000000000000e+00
-2.809041379800000016e+00 -4.405279444600000005e+01 2.953666045973999985e+02 0.000000000000000000e+00 0.000000000000000000e+00 0.000000000000000000e+00
-1.123396328099999897e+00 -4.190230815219999982e+01 3.006385683666999853e+02 0.000000000000000000e+00 0.000000000000000000e+00 0.000000000000000000e+00
-1.744841986000000011e-01 -4.087131712589999921e+01 3.025675145148999832e+02 0.000000000000000000e+00 0.000000000000000000e+00 0.000000000000000000e+00
3.697199586000000093e-01 -3.978857366329999934e+01 3.035297969868000223e+02 0.000000000000000000e+00 0.000000000000000000e+00 0.000000000000000000e+00
-1.675664265200000003e+00 -4.295384988290000194e+01 2.981802507137999783e+02 0.000000000000000000e+00 0.000000000000000000e+00 0.000000000000000000e+00
-1.596581387200000091e+00 -4.276961709460000094e+01 2.986021649593000120e+02 0.000000000000000000e+00 0.000000000000000000e+00 0.000000000000000000e+00
-1.177557744300000042e+00 -4.252100783139999862e+01 2.992043632557000024e+02 0.000000000000000000e+00 0.000000000000000000e+00 0.000000000000000000e+00
-7.085245908999999731e-01 -4.185904240930000242e+01 3.017472301427999923e+02 0.000000000000000000e+00 0.000000000000000000e+00 0.000000000000000000e+00
-2.677225028300000087e+00 -4.486068932829999767e+01 2.941512132052999959e+02 0.000000000000000000e+00 0.000000000000000000e+00 0.000000000000000000e+00
-2.574131020199999842e+00 -4.473859942309999838e+01 2.944952676703999828e+02 0.000000000000000000e+00 0.000000000000000000e+00 0.000000000000000000e+00
-2.167164475399999901e+00 -4.444411666940000316e+01 2.952411363804000075e+02 0.000000000000000000e+00 0.000000000000000000e+00 0.000000000000000000e+00
-3.173340568999999944e-01 -4.140852603460000125e+01 3.023361462670000037e+02 0.000000000000000000e+00 0.000000000000000000e+00 0.000000000000000000e+00
-8.340699579999999447e-01 -4.291381429489999988e+01 3.001916949207999892e+02 0.000000000000000000e+00 0.000000000000000000e+00 0.000000000000000000e+00
-8.395866753999999821e-01 -4.241522891110000160e+01 3.006695956469999942e+02 0.000000000000000000e+00 0.000000000000000000e+00 0.000000000000000000e+00
7.581489039000000041e-01 -4.041882464030000222e+01 3.032120244659000150e+02 0.000000000000000000e+00 0.000000000000000000e+00 0.000000000000000000e+00
-1.648047231500000098e+00 -4.440847694229999831e+01 2.957200732449999805e+02 0.000000000000000000e+00 0.000000000000000000e+00 0.000000000000000000e+00
-1.334865945300000023e+00 -4.361125140299999714e+01 2.973674525787999983e+02 0.000000000000000000e+00 0.000000000000000000e+00 0.000000000000000000e+00
-1.149989783399999910e+00 -4.342575073439999755e+01 2.981647057559999894e+02 0.000000000000000000e+00 0.000000000000000000e+00 0.000000000000000000e+00
-7.939169958999999777e-01 -4.301679280900000180e+01 2.991844043639999882e+02 0.000000000000000000e+00 0.000000000000000000e+00 0.000000000000000000e+00
-8.169631438000000134e-01 -4.289324524639999936e+01 3.006163982443000009e+02 0.000000000000000000e+00 0.000000000000000000e+00 0.000000000000000000e+00
-5.710829241999999528e-01 -4.286202887839999676e+01 3.016304802413000061e+02 0.000000000000000000e+00 0.000000000000000000e+00 0.000000000000000000e+00
-5.188386781999999586e-01 -4.239644665179999805e+01 3.020396287889000178e+02 0.000000000000000000e+00 0.000000000000000000e+00 0.000000000000000000e+00
-3.165306097499999805e+00 -4.645566056580000236e+01 2.907091651503999969e+02 0.000000000000000000e+00 0.000000000000000000e+00 0.000000000000000000e+00
-2.662438393099999967e+00 -4.572934124689999891e+01 2.925251585781999779e+02 0.000000000000000000e+00 0.000000000000000000e+00 0.000000000000000000e+00
-2.650936784999999851e+00 -4.536387467790000017e+01 2.932166937011999721e+02 0.000000000000000000e+00 0.000000000000000000e+00 0.000000000000000000e+00
-2.198764636699999997e+00 -4.503970626790000154e+01 2.941663030909999748e+02 0.000000000000000000e+00 0.000000000000000000e+00 0.000000000000000000e+00
-2.126226653599999850e+00 -4.482039218189999730e+01 2.946566784090999818e+02 0.000000000000000000e+00 0.000000000000000000e+00 0.000000000000000000e+00
-1.708765984600000065e+00 -4.458383969930000035e+01 2.952896537665000096e+02 0.000000000000000000e+00 0.000000000000000000e+00 0.000000000000000000e+00
-8.185895319999999531e-01 -4.335701439519999667e+01 3.001425310977999743e+02 0.000000000000000000e+00 0.000000000000000000e+00 0.000000000000000000e+00
-7.338396755999999632e-01 -4.341189786289999830e+01 3.007364174181000180e+02 0.000000000000000000e+00 0.000000000000000000e+00 0.000000000000000000e+00
-5.838823993999999740e-01 -4.337855974069999831e+01 3.016168882366000048e+02 0.000000000000000000e+00 0.000000000000000000e+00 0.000000000000000000e+00
-1.130978042999999933e-01 -4.388520690680000058e+01 3.020699475719999896e+02 0.000000000000000000e+00 0.000000000000000000e+00 0.000000000000000000e+00
-7.160729233000000526e-01 -4.386904020019999706e+01 3.006604117091999910e+02 0.000000000000000000e+00 0.000000000000000000e+00 0.000000000000000000e+00
-1.656527930099999990e+00 -4.582182373860000268e+01 2.931500955404999900e+02 0.000000000000000000e+00 0.000000000000000000e+00 0.000000000000000000e+00
-7.728590309999999741e-01 -4.446031118039999797e+01 2.997269230402999938e+02 0.000000000000000000e+00 0.000000000000000000e+00 0.000000000000000000e+00
-8.093196767000000458e-01 -4.487159840660000043e+01 2.971559784850999790e+02 0.000000000000000000e+00 0.000000000000000000e+00 0.000000000000000000e+00
-1.280501098400000037e+00 -4.558337871180000178e+01 2.937079132186000265e+02 0.000000000000000000e+00 0.000000000000000000e+00 0.000000000000000000e+00
-1.170821341199999921e+00 -4.533518386850000326e+01 2.946456360541000095e+02 0.000000000000000000e+00 0.000000000000000000e+00 0.000000000000000000e+00
-6.393884156000000374e-01 -4.483209993559999873e+01 2.996322584182000242e+02 0.000000000000000000e+00 0.000000000000000000e+00 0.000000000000000000e+00
