2.836162395400000147e+00 7.445426955790000534e+01 2.491768696533999901e+02 0.000000000000000000e+00 0.000000000000000000e+00 0.000000000000000000e+00
2.910836721699999963e+00 7.505695923989999585e+01 2.512292202559999907e+02 0.000000000000000000e+00 0.000000000000000000e+00 0.000000000000000000e+00
-3.650698268699999804e+00 7.405299276270000064e+01 2.481873902684000086e+02 0.000000000000000000e+00 0.000000000000000000e+00 0.000000000000000000e+00
1.863762162300000025e+00 7.347826412739999569e+01 2.626369585850999897e+02 0.000000000000000000e+00 0.000000000000000000e+00 0.000000000000000000e+00
4.401763386799999900e+00 7.376651085689999832e+01 2.506857907458000057e+02 0.000000000000000000e+00 0.000000000000000000e+00 0.000000000000000000e+00
-2.148678944399999846e+00 7.615407559220000167e+01 2.566777753914000186e+02 0.000000000000000000e+00 0.000000000000000000e+00 0.000000000000000000e+00
-4.234250798099999713e+00 7.377602252389999649e+01 2.528003277711000010e+02 0.000000000000000000e+00 0.000000000000000000e+00 0.000000000000000000e+00
2.219474539000000135e+00 7.516907707730000254e+01 2.506972241750000023e+02 0.000000000000000000e+00 0.000000000000000000e+00 0.000000000000000000e+00
3.757270691500000037e+00 7.440978665049999563e+01 2.535741779280999992e+02 0.000000000000000000e+00 0.000000000000000000e+00 0.000000000000000000e+00
-3.200308587299999896e+00 7.402908258200000091e+01 2.556821788347999984e+02 0.000000000000000000e+00 0.000000000000000000e+00 0.000000000000000000e+00
8.253303869000000459e-01 7.654720621430000449e+01 2.556684191047000070e+02 0.000000000000000000e+00 0.000000000000000000e+00 0.000000000000000000e+00
-2.504601744299999933e+00 7.566810707199999797e+01 2.536526957995999965e+02 0.000000000000000000e+00 0.000000000000000000e+00 0.000000000000000000e+00
-4.794359428399999956e+00 7.327224544569999409e+01 2.421380076142999940e+02 0.000000000000000000e+00 0.000000000000000000e+00 0.000000000000000000e+00
3.819524791999999724e-01 7.654400798170000542e+01 2.522022523450000051e+02 0.000000000000000000e+00 0.000000000000000000e+00 0.000000000000000000e+00
2.677687588800000018e+00 7.439449172780000197e+01 2.562215147406000142e+02 0.000000000000000000e+00 0.000000000000000000e+00 0.000000000000000000e+00
3.334129299599999818e+00 7.368618017139999665e+01 2.411233742139999947e+02 0.000000000000000000e+00 0.000000000000000000e+00 0.000000000000000000e+00
2.346425066600000164e+00 7.464397981400000504e+01 2.536493239044000063e+02 0.000000000000000000e+00 0.000000000000000000e+00 0.000000000000000000e+00
3.906939299399999843e+00 7.377086903059999656e+01 2.431907426225999984e+02 0.000000000000000000e+00 0.000000000000000000e+00 0.000000000000000000e+00
-2.461267028299999993e+00 7.598308962480000162e+01 2.547030387014999917e+02 0.000000000000000000e+00 0.000000000000000000e+00 0.000000000000000000e+00
-6.336055296999999475e-01 7.655029867109999486e+01 2.581773787326999923e+02 0.000000000000000000e+00 0.000000000000000000e+00 0.000000000000000000e+00
-4.139040604999999928e+00 7.403398073900000043e+01 2.507146120173999861e+02 0.000000000000000000e+00 0.000000000000000000e+00 0.000000000000000000e+00
-3.678828655599999831e+00 7.406293108900000277e+01 2.501759371853000005e+02 0.000000000000000000e+00 0.000000000000000000e+00 0.000000000000000000e+00
-2.510392032800000006e+00 7.568463205819999473e+01 2.531912433930000077e+02 0.000000000000000000e+00 0.000000000000000000e+00 0.000000000000000000e+00
-4.635939098099999711e+00 7.267942865109999673e+01 2.626320474158999900e+02 0.000000000000000000e+00 0.000000000000000000e+00 0.000000000000000000e+00
3.893016351300000011e+00 7.362873115169999494e+01 2.581955860682999742e+02 0.000000000000000000e+00 0.000000000000000000e+00 0.000000000000000000e+00
4.301674540199999619e+00 7.343878656760000467e+01 2.411683157974999858e+02 0.000000000000000000e+00 0.000000000000000000e+00 0.000000000000000000e+00
4.326834688499999970e+00 7.370541791200000148e+01 2.546779913940000029e+02 0.000000000000000000e+00 0.000000000000000000e+00 0.000000000000000000e+00
4.023470936099999840e+00 7.379432135860000130e+01 2.557441312345000028e+02 0.000000000000000000e+00 0.000000000000000000e+00 0.000000000000000000e+00
3.362543534999999917e+00 7.367084715560000063e+01 2.406651058768999860e+02 0.000000000000000000e+00 0.000000000000000000e+00 0.000000000000000000e+00
3.838535383600000017e+00 7.368245388779999416e+01 2.421665360002000114e+02 0.000000000000000000e+00 0.000000000000000000e+00 0.000000000000000000e+00
4.461873336600000073e+00 7.376760584720000224e+01 2.456663829700000008e+02 0.000000000000000000e+00 0.000000000000000000e+00 0.000000000000000000e+00
3.925570116799999898e+00 7.401217578240000705e+01 2.526900025500999902e+02 0.000000000000000000e+00 0.000000000000000000e+00 0.000000000000000000e+00
3.874774374499999841e+00 7.401714779130000466e+01 2.532077677169000083e+02 0.000000000000000000e+00 0.000000000000000000e+00 0.000000000000000000e+00
2.806301649399999931e+00 7.400775974949999636e+01 2.582150741991999894e+02 0.000000000000000000e+00 0.000000000000000000e+00 0.000000000000000000e+00
2.869766224900000218e+00 7.395289794239999992e+01 2.426151602232000073e+02 0.000000000000000000e+00 0.000000000000000000e+00 0.000000000000000000e+00
3.811333179100000024e+00 7.404096799309999710e+01 2.481372776066999961e+02 0.000000000000000000e+00 0.000000000000000000e+00 0.000000000000000000e+00
3.870979394999999990e+00 7.412769272069999715e+01 2.501997353005000093e+02 0.000000000000000000e+00 0.000000000000000000e+00 0.000000000000000000e+00
3.403957028399999807e+00 7.418910940550000532e+01 2.506792295637000052e+02 0.000000000000000000e+00 0.000000000000000000e+00 0.000000000000000000e+00
2.903200034800000218e+00 7.421150361979999843e+01 2.551740205291000052e+02 0.000000000000000000e+00 0.000000000000000000e+00 0.000000000000000000e+00
2.254974361299999952e+00 7.455799423999999931e+01 2.402833187333000069e+02 0.000000000000000000e+00 0.000000000000000000e+00 0.000000000000000000e+00
2.851350861999999875e+00 7.445604898499999535e+01 2.476549743113000090e+02 0.000000000000000000e+00 0.000000000000000000e+00 0.000000000000000000e+00
2.151669713200000000e+00 7.507050955569999928e+01 2.422318153957000106e+02 0.000000000000000000e+00 0.000000000000000000e+00 0.000000000000000000e+00
2.298600216600000135e+00 7.507103042030000495e+01 2.456789683991999880e+02 0.000000000000000000e+00 0.000000000000000000e+00 0.000000000000000000e+00
2.290074801899999901e+00 7.515077887569999859e+01 2.482075100627000097e+02 0.000000000000000000e+00 0.000000000000000000e+00 0.000000000000000000e+00
2.260678800200000005e+00 7.514516948360000015e+01 2.496925994062999905e+02 0.000000000000000000e+00 0.000000000000000000e+00 0.000000000000000000e+00
2.306017520100000162e+00 7.508842740100000412e+01 2.516902679181000053e+02 0.000000000000000000e+00 0.000000000000000000e+00 0.000000000000000000e+00
2.236689175500000015e+00 7.514604489869999782e+01 2.541965947575999962e+02 0.000000000000000000e+00 0.000000000000000000e+00 0.000000000000000000e+00
2.207818323100000146e+00 7.552235988030000158e+01 2.566972676191999767e+02 0.000000000000000000e+00 0.000000000000000000e+00 0.000000000000000000e+00
-2.635848725399999815e+00 7.341100345840000330e+01 2.387188603303000036e+02 0.000000000000000000e+00 0.000000000000000000e+00 0.000000000000000000e+00
-4.942178050699999936e+00 7.349019815649999998e+01 2.581627548024000021e+02 0.000000000000000000e+00 0.000000000000000000e+00 0.000000000000000000e+00
2.451225140400000058e+00 7.464780042190000131e+01 2.466983556143999863e+02 0.000000000000000000e+00 0.000000000000000000e+00 0.000000000000000000e+00
2.282316704699999921e+00 7.508386763359999350e+01 2.522074325181000063e+02 0.000000000000000000e+00 0.000000000000000000e+00 0.000000000000000000e+00
3.801301118700000092e+00 7.345377916229999471e+01 2.601410439225999767e+02 0.000000000000000000e+00 0.000000000000000000e+00 0.000000000000000000e+00
3.869676836000000009e-01 7.491566125030000478e+01 2.597281164871000101e+02 0.000000000000000000e+00 0.000000000000000000e+00 0.000000000000000000e+00
2.861954447800000079e+00 7.452285814309999523e+01 2.441675285592000080e+02 0.000000000000000000e+00 0.000000000000000000e+00 0.000000000000000000e+00
3.460375605899999929e+00 7.334345226950000551e+01 2.607478706658999954e+02 0.000000000000000000e+00 0.000000000000000000e+00 0.000000000000000000e+00
3.232435882599999921e+00 7.387855850549999559e+01 2.571984633527000028e+02 0.000000000000000000e+00 0.000000000000000000e+00 0.000000000000000000e+00
-3.023753243299999838e+00 7.391598791590000417e+01 2.581243891437999878e+02 0.000000000000000000e+00 0.000000000000000000e+00 0.000000000000000000e+00
-3.049366281599999784e+00 7.441566207329999827e+01 2.506891293834999885e+02 0.000000000000000000e+00 0.000000000000000000e+00 0.000000000000000000e+00
2.633838946600000064e+00 7.436580678609999495e+01 2.427340469201000133e+02 0.000000000000000000e+00 0.000000000000000000e+00 0.000000000000000000e+00
4.487493321499999688e+00 7.377519624159999978e+01 2.501193984777999901e+02 0.000000000000000000e+00 0.000000000000000000e+00 0.000000000000000000e+00
-1.628160679899999908e+00 7.640490923270000678e+01 2.571647400693000236e+02 0.000000000000000000e+00 0.000000000000000000e+00 0.000000000000000000e+00
1.393160667300000100e+00 7.348761277799999903e+01 2.381768221416000131e+02 0.000000000000000000e+00 0.000000000000000000e+00 0.000000000000000000e+00
2.190711703299999868e+00 7.598950029690000463e+01 2.422040218459999892e+02 0.000000000000000000e+00 0.000000000000000000e+00 0.000000000000000000e+00
3.460209833099999965e+00 7.381861586179999790e+01 2.571463784512999950e+02 0.000000000000000000e+00 0.000000000000000000e+00 0.000000000000000000e+00
3.784909632899999821e+00 7.401930854910000335e+01 2.547171651207000025e+02 0.000000000000000000e+00 0.000000000000000000e+00 0.000000000000000000e+00
1.299229991700000086e+00 7.633390190490000293e+01 2.446855632961000140e+02 0.000000000000000000e+00 0.000000000000000000e+00 0.000000000000000000e+00
1.373269371899999980e+00 7.562509598820000178e+01 2.411637028796999971e+02 0.000000000000000000e+00 0.000000000000000000e+00 0.000000000000000000e+00
3.783799755600000037e+00 7.400123217930000408e+01 2.557002839465999955e+02 0.000000000000000000e+00 0.000000000000000000e+00 0.000000000000000000e+00
2.377863878399999908e+00 7.412637366309999720e+01 2.591873584713999890e+02 0.000000000000000000e+00 0.000000000000000000e+00 0.000000000000000000e+00
-2.620309884900000164e+00 7.462632698160000189e+01 2.596448182693000035e+02 0.000000000000000000e+00 0.000000000000000000e+00 0.000000000000000000e+00
-3.006912390600000151e+00 7.534900842320000436e+01 2.523455503876000137e+02 0.000000000000000000e+00 0.000000000000000000e+00 0.000000000000000000e+00
2.144268893100000017e+00 7.557112890390000359e+01 2.422061311976999889e+02 0.000000000000000000e+00 0.000000000000000000e+00 0.000000000000000000e+00
-2.008833526000000091e-01 7.657439445970000236e+01 2.461402440221999939e+02 0.000000000000000000e+00 0.000000000000000000e+00 0.000000000000000000e+00
2.249780599999999797e+00 7.503875453919999927e+01 2.561912952857999812e+02 0.000000000000000000e+00 0.000000000000000000e+00 0.000000000000000000e+00
-1.713981898299999918e+00 7.624762181180000198e+01 2.581621543931000247e+02 0.000000000000000000e+00 0.000000000000000000e+00 0.000000000000000000e+00
-1.199452978999999919e+00 7.650611955630000693e+01 2.431410829655000043e+02 0.000000000000000000e+00 0.000000000000000000e+00 0.000000000000000000e+00
3.364129443599999991e+00 7.397925339610000606e+01 2.441625907801999915e+02 0.000000000000000000e+00 0.000000000000000000e+00 0.000000000000000000e+00
-1.179374324699999921e+00 7.652239875969999616e+01 2.461722713821999946e+02 0.000000000000000000e+00 0.000000000000000000e+00 0.000000000000000000e+00
3.226697150000000236e-01 7.660490389320000304e+01 2.436888368154000091e+02 0.000000000000000000e+00 0.000000000000000000e+00 0.000000000000000000e+00
2.683811927499999861e+00 7.458575262089999569e+01 2.546643242154999882e+02 0.000000000000000000e+00 0.000000000000000000e+00 0.000000000000000000e+00
1.452794731100000014e+00 7.621211818199999755e+01 2.541533139148999965e+02 0.000000000000000000e+00 0.000000000000000000e+00 0.000000000000000000e+00
-3.570248848399999897e+00 7.469743641540000567e+01 2.581343201405999821e+02 0.000000000000000000e+00 0.000000000000000000e+00 0.000000000000000000e+00
-5.123289543500000320e+00 7.332562902969999641e+01 2.536583782326999881e+02 0.000000000000000000e+00 0.000000000000000000e+00 0.000000000000000000e+00
3.317762749299999925e+00 7.320583947720000140e+01 2.626303468201999749e+02 0.000000000000000000e+00 0.000000000000000000e+00 0.000000000000000000e+00
-2.175718700200000022e+00 7.560824470910000628e+01 2.417773350051000136e+02 0.000000000000000000e+00 0.000000000000000000e+00 0.000000000000000000e+00
8.168211301000000146e-01 7.654103502590000119e+01 2.526826707246999888e+02 0.000000000000000000e+00 0.000000000000000000e+00 0.000000000000000000e+00
1.882779512699999991e+00 7.407581253130000221e+01 2.406712706893000018e+02 0.000000000000000000e+00 0.000000000000000000e+00 0.000000000000000000e+00
2.203096153600000218e+00 7.551895413629999609e+01 2.585957900788000074e+02 0.000000000000000000e+00 0.000000000000000000e+00 0.000000000000000000e+00
8.526778862999999653e-01 7.662316829069999358e+01 2.482161973217000082e+02 0.000000000000000000e+00 0.000000000000000000e+00 0.000000000000000000e+00
2.294678016799999831e+00 7.458520177830000364e+01 2.416862683875000073e+02 0.000000000000000000e+00 0.000000000000000000e+00 0.000000000000000000e+00
2.322650600799999854e+00 7.461497130930000310e+01 2.571778320710999992e+02 0.000000000000000000e+00 0.000000000000000000e+00 0.000000000000000000e+00
-2.376204852599999917e+00 7.513941495960000339e+01 2.562533653701000276e+02 0.000000000000000000e+00 0.000000000000000000e+00 0.000000000000000000e+00
-2.525371134499999837e+00 7.510680823680000628e+01 2.586774855274999823e+02 0.000000000000000000e+00 0.000000000000000000e+00 0.000000000000000000e+00
3.309075013799999798e+00 7.414412761170000010e+01 2.456783615770000040e+02 0.000000000000000000e+00 0.000000000000000000e+00 0.000000000000000000e+00
-4.205911120199999687e+00 7.370060786329999303e+01 2.501642615019000004e+02 0.000000000000000000e+00 0.000000000000000000e+00 0.000000000000000000e+00
-5.053752740400000221e+00 7.348210656839999899e+01 2.551997743629999889e+02 0.000000000000000000e+00 0.000000000000000000e+00 0.000000000000000000e+00
-3.113355487100000207e+00 7.371709482670000568e+01 2.587153618798000139e+02 0.000000000000000000e+00 0.000000000000000000e+00 0.000000000000000000e+00
-1.826444956300000033e+00 7.625581972739999514e+01 2.497007511607999959e+02 0.000000000000000000e+00 0.000000000000000000e+00 0.000000000000000000e+00
-3.652847617900000010e+00 7.377567352570000025e+01 2.436557038512000020e+02 0.000000000000000000e+00 0.000000000000000000e+00 0.000000000000000000e+00
-3.155714035599999967e+00 7.422084259570000597e+01 2.506650036229000023e+02 0.000000000000000000e+00 0.000000000000000000e+00 0.000000000000000000e+00
-1.115194280399999904e+00 7.649969119460000400e+01 2.486960387812999898e+02 0.000000000000000000e+00 0.000000000000000000e+00 0.000000000000000000e+00
3.863644992999999972e-01 7.655470822380000584e+01 2.506896446071000071e+02 0.000000000000000000e+00 0.000000000000000000e+00 0.000000000000000000e+00
-2.589365481799999813e+00 7.460632237929999633e+01 2.571832771627999819e+02 0.000000000000000000e+00 0.000000000000000000e+00 0.000000000000000000e+00
8.269143512000000085e-01 7.509747159689999307e+01 2.408134776219999935e+02 0.000000000000000000e+00 0.000000000000000000e+00 0.000000000000000000e+00
-4.184834737000000082e+00 7.293937098000000674e+01 2.382129728305000071e+02 0.000000000000000000e+00 0.000000000000000000e+00 0.000000000000000000e+00
2.081705388600000095e+00 7.577548528730000044e+01 2.538223856378999983e+02 0.000000000000000000e+00 0.000000000000000000e+00 0.000000000000000000e+00
-5.117370355100000268e+00 7.344885810200000265e+01 2.437022482346999936e+02 0.000000000000000000e+00 0.000000000000000000e+00 0.000000000000000000e+00
4.365504656499999747e+00 7.372571039199999632e+01 2.557363061709999954e+02 0.000000000000000000e+00 0.000000000000000000e+00 0.000000000000000000e+00
-2.057672429800000202e+00 7.641887601589999690e+01 2.471799155918999986e+02 0.000000000000000000e+00 0.000000000000000000e+00 0.000000000000000000e+00
3.809664625699999974e+00 7.447086197560000187e+01 2.507178128726999944e+02 0.000000000000000000e+00 0.000000000000000000e+00 0.000000000000000000e+00
-2.724859176999999910e+00 7.462468794730000354e+01 2.496431527462999895e+02 0.000000000000000000e+00 0.000000000000000000e+00 0.000000000000000000e+00
-4.623619542500000179e+00 7.319902287489999537e+01 2.596959365125999852e+02 0.000000000000000000e+00 0.000000000000000000e+00 0.000000000000000000e+00
-2.219767368499999893e+00 7.615919837389999714e+01 2.577292682986999921e+02 0.000000000000000000e+00 0.000000000000000000e+00 0.000000000000000000e+00
-1.109257905099999997e+00 7.651466636199999982e+01 2.481610994501000107e+02 0.000000000000000000e+00 0.000000000000000000e+00 0.000000000000000000e+00
-1.127958474299999958e+00 7.563207283139999504e+01 2.416504870825999944e+02 0.000000000000000000e+00 0.000000000000000000e+00 0.000000000000000000e+00
1.781103382199999974e+00 7.459495139400000596e+01 2.595783276442999750e+02 0.000000000000000000e+00 0.000000000000000000e+00 0.000000000000000000e+00
-1.033359191000000066e-01 7.448633152159999327e+01 2.601719582261000028e+02 0.000000000000000000e+00 0.000000000000000000e+00 0.000000000000000000e+00
-2.990189050300000151e+00 7.536725695389999657e+01 2.521150973302000011e+02 0.000000000000000000e+00 0.000000000000000000e+00 0.000000000000000000e+00
-2.548086845199999839e+00 7.508082155350000164e+01 2.461795792872999868e+02 0.000000000000000000e+00 0.000000000000000000e+00 0.000000000000000000e+00
-7.036306453999999766e-01 7.457246921760000191e+01 2.405321822564999934e+02 0.000000000000000000e+00 0.000000000000000000e+00 0.000000000000000000e+00
2.242909447699999781e+00 7.557155182479999667e+01 2.511682519075000073e+02 0.000000000000000000e+00 0.000000000000000000e+00 0.000000000000000000e+00
-4.670837481599999563e+00 7.332044649979999917e+01 2.431209487627999977e+02 0.000000000000000000e+00 0.000000000000000000e+00 0.000000000000000000e+00
2.827807718099999867e+00 7.519689038260000302e+01 2.527138312101999986e+02 0.000000000000000000e+00 0.000000000000000000e+00 0.000000000000000000e+00
-1.635592884700000083e+00 7.633747730359999650e+01 2.572979371174000107e+02 0.000000000000000000e+00 0.000000000000000000e+00 0.000000000000000000e+00
1.341910347300000028e+00 7.656947362879999730e+01 2.576802656994000245e+02 0.000000000000000000e+00 0.000000000000000000e+00 0.000000000000000000e+00
1.291657424699999890e+00 7.631684697609999546e+01 2.521557790530000034e+02 0.000000000000000000e+00 0.000000000000000000e+00 0.000000000000000000e+00
1.705508616899999996e+00 7.590788539780000121e+01 2.414258096304999981e+02 0.000000000000000000e+00 0.000000000000000000e+00 0.000000000000000000e+00
2.219708063200000137e+00 7.595518213079999725e+01 2.406871300649000034e+02 0.000000000000000000e+00 0.000000000000000000e+00 0.000000000000000000e+00
-4.181319410200000419e+00 7.403018417410000040e+01 2.526740805059999957e+02 0.000000000000000000e+00 0.000000000000000000e+00 0.000000000000000000e+00
-2.622793814200000018e+00 7.341840203360000316e+01 2.622279458543000032e+02 0.000000000000000000e+00 0.000000000000000000e+00 0.000000000000000000e+00
2.226201218699999984e+00 7.561935282320000340e+01 2.456873367654000049e+02 0.000000000000000000e+00 0.000000000000000000e+00 0.000000000000000000e+00
-2.198431066099999942e+00 7.454567274769999585e+01 2.406327064230000019e+02 0.000000000000000000e+00 0.000000000000000000e+00 0.000000000000000000e+00
2.248962075400000149e+00 7.506667160550000517e+01 2.451778999949999900e+02 0.000000000000000000e+00 0.000000000000000000e+00 0.000000000000000000e+00
-2.478686323999999885e+00 7.513625300740000057e+01 2.562081980487000124e+02 0.000000000000000000e+00 0.000000000000000000e+00 0.000000000000000000e+00
-2.397168251800000149e+00 7.497866417240000203e+01 2.565758975606000263e+02 0.000000000000000000e+00 0.000000000000000000e+00 0.000000000000000000e+00
-2.828323447299999849e+00 7.426697319470000025e+01 2.436549173928999892e+02 0.000000000000000000e+00 0.000000000000000000e+00 0.000000000000000000e+00
-4.675236207300000224e+00 7.364402605829999970e+01 2.436881004708999967e+02 0.000000000000000000e+00 0.000000000000000000e+00 0.000000000000000000e+00
-3.672303616599999820e+00 7.372837027939999643e+01 2.431573527244999866e+02 0.000000000000000000e+00 0.000000000000000000e+00 0.000000000000000000e+00
2.875281995499999965e+00 7.424417361540000115e+01 2.451765211846999932e+02 0.000000000000000000e+00 0.000000000000000000e+00 0.000000000000000000e+00
-2.594617416000000176e+00 7.462430896179999706e+01 2.556661458151999966e+02 0.000000000000000000e+00 0.000000000000000000e+00 0.000000000000000000e+00
1.778222820399999904e+00 7.643732448270000646e+01 2.427114122522999935e+02 0.000000000000000000e+00 0.000000000000000000e+00 0.000000000000000000e+00
2.096535782700000183e+00 7.572226980089999415e+01 2.505764145438000128e+02 0.000000000000000000e+00 0.000000000000000000e+00 0.000000000000000000e+00
-4.466175689700000007e+00 7.287471363759999576e+01 2.620916638214999921e+02 0.000000000000000000e+00 0.000000000000000000e+00 0.000000000000000000e+00
-3.098151241200000072e+00 7.340558390500000030e+01 2.611636033827999768e+02 0.000000000000000000e+00 0.000000000000000000e+00 0.000000000000000000e+00
-2.875722785299999806e+00 7.432631525029999864e+01 2.467063349450000089e+02 0.000000000000000000e+00 0.000000000000000000e+00 0.000000000000000000e+00
-2.481479200999999968e+00 7.509561275709999961e+01 2.566749392836999846e+02 0.000000000000000000e+00 0.000000000000000000e+00 0.000000000000000000e+00
-4.189845150600000068e+00 7.383527347970000676e+01 2.515750277758999971e+02 0.000000000000000000e+00 0.000000000000000000e+00 0.000000000000000000e+00
-2.158899135400000002e+00 7.604045575019999603e+01 2.422219815647999894e+02 0.000000000000000000e+00 0.000000000000000000e+00 0.000000000000000000e+00
8.377021246000000421e-01 7.655518636799999399e+01 2.581683790413999873e+02 0.000000000000000000e+00 0.000000000000000000e+00 0.000000000000000000e+00
3.356314815500000215e+00 7.466347540949999484e+01 2.532121128628999998e+02 0.000000000000000000e+00 0.000000000000000000e+00 0.000000000000000000e+00
3.310011260900000085e+00 7.348660290750000001e+01 2.396925851960999978e+02 0.000000000000000000e+00 0.000000000000000000e+00 0.000000000000000000e+00
2.167333321200000107e+00 7.563723424559999842e+01 2.431377641207000124e+02 0.000000000000000000e+00 0.000000000000000000e+00 0.000000000000000000e+00
4.020879607800000421e+00 7.391928199810000422e+01 2.422506037294000123e+02 0.000000000000000000e+00 0.000000000000000000e+00 0.000000000000000000e+00
-1.920075068899999904e+00 7.637351795739999716e+01 2.577317084335999766e+02 0.000000000000000000e+00 0.000000000000000000e+00 0.000000000000000000e+00
-2.050785802000000047e+00 7.636404161350000663e+01 2.481227041477000057e+02 0.000000000000000000e+00 0.000000000000000000e+00 0.000000000000000000e+00
-3.496937295599999995e+00 7.448085658940000542e+01 2.412128262075999885e+02 0.000000000000000000e+00 0.000000000000000000e+00 0.000000000000000000e+00
2.172249143400000193e+00 7.601870684799999367e+01 2.511304068169000061e+02 0.000000000000000000e+00 0.000000000000000000e+00 0.000000000000000000e+00
-2.539071067900000145e+00 7.555491009339999664e+01 2.496410029781000048e+02 0.000000000000000000e+00 0.000000000000000000e+00 0.000000000000000000e+00
-1.430524629999999908e-01 7.398059652669999764e+01 2.606737068832999853e+02 0.000000000000000000e+00 0.000000000000000000e+00 0.000000000000000000e+00
-4.689039029599999964e+00 7.392690415879999932e+01 2.461309363530999974e+02 0.000000000000000000e+00 0.000000000000000000e+00 0.000000000000000000e+00
2.861884846200000165e+00 7.505974368159999699e+01 2.457157149313999867e+02 0.000000000000000000e+00 0.000000000000000000e+00 0.000000000000000000e+00
-2.494246030899999855e+00 7.570436563639999861e+01 2.526762160803999961e+02 0.000000000000000000e+00 0.000000000000000000e+00 0.000000000000000000e+00
2.196410355499999856e+00 7.551611761450000415e+01 2.562054306310000129e+02 0.000000000000000000e+00 0.000000000000000000e+00 0.000000000000000000e+00
2.249596381599999972e+00 7.514826823949999834e+01 2.491885476271000073e+02 0.000000000000000000e+00 0.000000000000000000e+00 0.000000000000000000e+00
-5.168331323800000376e+00 7.359107664489999934e+01 2.521782332658999906e+02 0.000000000000000000e+00 0.000000000000000000e+00 0.000000000000000000e+00
-1.169121502799999934e+00 7.655279425049999986e+01 2.496797568974999990e+02 0.000000000000000000e+00 0.000000000000000000e+00 0.000000000000000000e+00
1.902821217899999917e+00 7.559682829969999318e+01 2.591300244235999912e+02 0.000000000000000000e+00 0.000000000000000000e+00 0.000000000000000000e+00
-2.525538426299999806e+00 7.511861779090000368e+01 2.571563498557999878e+02 0.000000000000000000e+00 0.000000000000000000e+00 0.000000000000000000e+00
-2.764185894400000176e+00 7.458446953240000710e+01 2.517243003067000018e+02 0.000000000000000000e+00 0.000000000000000000e+00 0.000000000000000000e+00
2.264089749600000090e+00 7.608320522760000415e+01 2.551142993116000071e+02 0.000000000000000000e+00 0.000000000000000000e+00 0.000000000000000000e+00
-4.162554493000000022e+00 7.348540110989999619e+01 2.581910039744000187e+02 0.000000000000000000e+00 0.000000000000000000e+00 0.000000000000000000e+00
2.865949342800000021e+00 7.411274178499999721e+01 2.562155141456000251e+02 0.000000000000000000e+00 0.000000000000000000e+00 0.000000000000000000e+00
-6.037825104999999803e-01 7.549937689360000093e+01 2.597261948094999866e+02 0.000000000000000000e+00 0.000000000000000000e+00 0.000000000000000000e+00
-3.649474131899999918e+00 7.397014233299999830e+01 2.456236747551999997e+02 0.000000000000000000e+00 0.000000000000000000e+00 0.000000000000000000e+00
4.327164858899999800e+00 7.293356430260000423e+01 2.382201902159999918e+02 0.000000000000000000e+00 0.000000000000000000e+00 0.000000000000000000e+00
-1.125472369199999934e+00 7.656146720910000170e+01 2.502007589348000067e+02 0.000000000000000000e+00 0.000000000000000000e+00 0.000000000000000000e+00
3.244814812900000067e+00 7.387870074830000533e+01 2.576527075286999775e+02 0.000000000000000000e+00 0.000000000000000000e+00 0.000000000000000000e+00
-3.792759329199999918e+00 7.333989969399999609e+01 2.603936118945999851e+02 0.000000000000000000e+00 0.000000000000000000e+00 0.000000000000000000e+00
4.360820061400000114e+00 7.326532920420000039e+01 2.401585941797999908e+02 0.000000000000000000e+00 0.000000000000000000e+00 0.000000000000000000e+00
-1.627609439800000057e+00 7.349606388799999479e+01 2.627038673517999996e+02 0.000000000000000000e+00 0.000000000000000000e+00 0.000000000000000000e+00
-2.487542016399999945e+00 7.589765518919999465e+01 2.492386032491000094e+02 0.000000000000000000e+00 0.000000000000000000e+00 0.000000000000000000e+00
-6.227956338000000258e-01 7.657701708669999618e+01 2.506773567923999906e+02 0.000000000000000000e+00 0.000000000000000000e+00 0.000000000000000000e+00
2.438319858899999915e+00 7.455098383760000047e+01 2.551407009691999974e+02 0.000000000000000000e+00 0.000000000000000000e+00 0.000000000000000000e+00
-1.216943265999999912e+00 7.609664112820000526e+01 2.413543542529000092e+02 0.000000000000000000e+00 0.000000000000000000e+00 0.000000000000000000e+00
-2.334485697399999893e+00 7.577879364160000364e+01 2.421018482377000112e+02 0.000000000000000000e+00 0.000000000000000000e+00 0.000000000000000000e+00
1.354211013500000060e+00 7.659519146750000118e+01 2.581512021607999827e+02 0.000000000000000000e+00 0.000000000000000000e+00 0.000000000000000000e+00
3.767898241000000037e-01 7.660021793190000494e+01 2.566988674415999867e+02 0.000000000000000000e+00 0.000000000000000000e+00 0.000000000000000000e+00
4.054749789000000049e-01 7.654907687259999705e+01 2.516348045526999897e+02 0.000000000000000000e+00 0.000000000000000000e+00 0.000000000000000000e+00
2.299457446799999971e+00 7.400190243640000176e+01 2.596315010518000008e+02 0.000000000000000000e+00 0.000000000000000000e+00 0.000000000000000000e+00
-2.902307056400000196e+00 7.440344149409999375e+01 2.453114238462999879e+02 0.000000000000000000e+00 0.000000000000000000e+00 0.000000000000000000e+00
-6.417916546999999916e-01 7.644462219359999722e+01 2.591235026154000138e+02 0.000000000000000000e+00 0.000000000000000000e+00 0.000000000000000000e+00
-2.963262480500000073e+00 7.445173052350000376e+01 2.491068109171000060e+02 0.000000000000000000e+00 0.000000000000000000e+00 0.000000000000000000e+00
1.697828452500000029e+00 7.596309226229999467e+01 2.590417802486999790e+02 0.000000000000000000e+00 0.000000000000000000e+00 0.000000000000000000e+00
4.532748231900000313e+00 7.376797760440000218e+01 2.496585258062999912e+02 0.000000000000000000e+00 0.000000000000000000e+00 0.000000000000000000e+00
-9.108074539999999608e-02 7.656486776420000240e+01 2.506748143154999866e+02 0.000000000000000000e+00 0.000000000000000000e+00 0.000000000000000000e+00
3.288738200999999917e-01 7.375262968190000379e+01 2.617073641129999828e+02 0.000000000000000000e+00 0.000000000000000000e+00 0.000000000000000000e+00
-4.806339705000000073e+00 7.279551124660000028e+01 2.616948021927000241e+02 0.000000000000000000e+00 0.000000000000000000e+00 0.000000000000000000e+00
-6.195868639999999594e-01 7.654765709129999607e+01 2.541927860204999945e+02 0.000000000000000000e+00 0.000000000000000000e+00 0.000000000000000000e+00
-2.695954814299999835e+00 7.458162514010000166e+01 2.451993080915999883e+02 0.000000000000000000e+00 0.000000000000000000e+00 0.000000000000000000e+00
4.310579101600000129e+00 7.350036228700000152e+01 2.417050591558000008e+02 0.000000000000000000e+00 0.000000000000000000e+00 0.000000000000000000e+00
-2.970203548999999832e+00 7.538599046960000294e+01 2.516746449670000061e+02 0.000000000000000000e+00 0.000000000000000000e+00 0.000000000000000000e+00
-3.160723901499999933e+00 7.447769622360000596e+01 2.595745264011999893e+02 0.000000000000000000e+00 0.000000000000000000e+00 0.000000000000000000e+00
2.375992736100000169e+00 7.344075163649999638e+01 2.381844272650000107e+02 0.000000000000000000e+00 0.000000000000000000e+00 0.000000000000000000e+00
4.605755075000000254e+00 7.388081317140000692e+01 2.515383567586999902e+02 0.000000000000000000e+00 0.000000000000000000e+00 0.000000000000000000e+00
7.992470401000000280e-01 7.655998018889999912e+01 2.546654521607999868e+02 0.000000000000000000e+00 0.000000000000000000e+00 0.000000000000000000e+00
3.813548270000000073e-01 7.453389037620000579e+01 2.406282928793000053e+02 0.000000000000000000e+00 0.000000000000000000e+00 0.000000000000000000e+00
2.639470382099999846e+00 7.536800992790000464e+01 2.527262130707999859e+02 0.000000000000000000e+00 0.000000000000000000e+00 0.000000000000000000e+00
-4.326995842599999698e+00 7.383738168440000038e+01 2.524085494516000097e+02 0.000000000000000000e+00 0.000000000000000000e+00 0.000000000000000000e+00
4.098005967899999824e+00 7.385355918640000539e+01 2.524728250068000079e+02 0.000000000000000000e+00 0.000000000000000000e+00 0.000000000000000000e+00
3.357397653300000062e+00 7.415019534270000179e+01 2.542102972758000021e+02 0.000000000000000000e+00 0.000000000000000000e+00 0.000000000000000000e+00
2.569040661099999845e+00 7.434539567230000046e+01 2.546474553058999959e+02 0.000000000000000000e+00 0.000000000000000000e+00 0.000000000000000000e+00
-2.376022676199999850e+00 7.504571864589999564e+01 2.547091233859999875e+02 0.000000000000000000e+00 0.000000000000000000e+00 0.000000000000000000e+00
2.285164359899999997e+00 7.456582401800000071e+01 2.426997849148999933e+02 0.000000000000000000e+00 0.000000000000000000e+00 0.000000000000000000e+00
2.712891068199999811e+00 7.519712444820000030e+01 2.541592648815999951e+02 0.000000000000000000e+00 0.000000000000000000e+00 0.000000000000000000e+00
-4.682051532200000032e+00 7.297951981919999298e+01 2.607149509105000220e+02 0.000000000000000000e+00 0.000000000000000000e+00 0.000000000000000000e+00
3.981024292399999887e+00 7.384172266369999704e+01 2.441981596923999973e+02 0.000000000000000000e+00 0.000000000000000000e+00 0.000000000000000000e+00
-5.618617356999999757e-01 7.655961810079999452e+01 2.521862121654000077e+02 0.000000000000000000e+00 0.000000000000000000e+00 0.000000000000000000e+00
4.359714218499999738e+00 7.326680189430000212e+01 2.596510665147999930e+02 0.000000000000000000e+00 0.000000000000000000e+00 0.000000000000000000e+00
3.389064769300000002e+00 7.416881070070000703e+01 2.511680978615999891e+02 0.000000000000000000e+00 0.000000000000000000e+00 0.000000000000000000e+00
1.961011394200000035e+00 7.609195516139999427e+01 2.501838624545999892e+02 0.000000000000000000e+00 0.000000000000000000e+00 0.000000000000000000e+00
-4.133201941400000301e+00 7.367344550619999666e+01 2.571534884825999825e+02 0.000000000000000000e+00 0.000000000000000000e+00 0.000000000000000000e+00
2.820997240700000130e+00 7.443309809030000679e+01 2.506620100364999928e+02 0.000000000000000000e+00 0.000000000000000000e+00 0.000000000000000000e+00
4.624137430300000240e+00 7.387021695410000177e+01 2.496428014313000006e+02 0.000000000000000000e+00 0.000000000000000000e+00 0.000000000000000000e+00
-5.077798039999999874e-02 7.581560936290000541e+01 2.592906114977000129e+02 0.000000000000000000e+00 0.000000000000000000e+00 0.000000000000000000e+00
1.604180346099999932e+00 7.585572498700000210e+01 2.594742803405999894e+02 0.000000000000000000e+00 0.000000000000000000e+00 0.000000000000000000e+00
-4.195922248899999651e+00 7.399886460099999397e+01 2.531816861226000128e+02 0.000000000000000000e+00 0.000000000000000000e+00 0.000000000000000000e+00
2.247723553000000152e+00 7.560335664880000195e+01 2.551361768424999923e+02 0.000000000000000000e+00 0.000000000000000000e+00 0.000000000000000000e+00
2.191693429299999885e+00 7.611039971830000184e+01 2.427192742603000113e+02 0.000000000000000000e+00 0.000000000000000000e+00 0.000000000000000000e+00
2.921412679199999918e+00 7.324008638050000286e+01 2.381888780444000133e+02 0.000000000000000000e+00 0.000000000000000000e+00 0.000000000000000000e+00
-2.730375901599999988e+00 7.330760276869999359e+01 2.386437957827999981e+02 0.000000000000000000e+00 0.000000000000000000e+00 0.000000000000000000e+00
2.394262174400000109e+00 7.466874834719999399e+01 2.526910285479000038e+02 0.000000000000000000e+00 0.000000000000000000e+00 0.000000000000000000e+00
2.262288866800000076e+00 7.504871335209999472e+01 2.566605135552999855e+02 0.000000000000000000e+00 0.000000000000000000e+00 0.000000000000000000e+00
-6.789505686000000262e-01 7.610116026679999379e+01 2.413568485067000040e+02 0.000000000000000000e+00 0.000000000000000000e+00 0.000000000000000000e+00
4.372493457500000069e+00 7.383542244810000454e+01 2.521706171948999895e+02 0.000000000000000000e+00 0.000000000000000000e+00 0.000000000000000000e+00
-2.628093128600000217e+00 7.398085615390000669e+01 2.601402424716999917e+02 0.000000000000000000e+00 0.000000000000000000e+00 0.000000000000000000e+00
2.092615751599999907e+00 7.574542865009999559e+01 2.442719458068999927e+02 0.000000000000000000e+00 0.000000000000000000e+00 0.000000000000000000e+00
2.692368531200000081e+00 7.436330945470000131e+01 2.431376410828999894e+02 0.000000000000000000e+00 0.000000000000000000e+00 0.000000000000000000e+00
-3.603698121299999890e+00 7.482367128609999440e+01 2.501893421638999939e+02 0.000000000000000000e+00 0.000000000000000000e+00 0.000000000000000000e+00
-2.074269593799999978e+00 7.636855887519999442e+01 2.487334903292000092e+02 0.000000000000000000e+00 0.000000000000000000e+00 0.000000000000000000e+00
-2.464181224299999862e+00 7.599458181330000173e+01 2.511816068312000141e+02 0.000000000000000000e+00 0.000000000000000000e+00 0.000000000000000000e+00
3.581804729999999992e-01 7.655097262840000383e+01 2.526743715332000022e+02 0.000000000000000000e+00 0.000000000000000000e+00 0.000000000000000000e+00
-1.180157041299999987e+00 7.503869702619999771e+01 2.600978494586000238e+02 0.000000000000000000e+00 0.000000000000000000e+00 0.000000000000000000e+00
-1.171894486700000071e+00 7.653735001629999601e+01 2.456957266480999920e+02 0.000000000000000000e+00 0.000000000000000000e+00 0.000000000000000000e+00
-4.207990722799999972e+00 7.414992252890000657e+01 2.577119954118999772e+02 0.000000000000000000e+00 0.000000000000000000e+00 0.000000000000000000e+00
2.145129879000000184e+00 7.606323772540000050e+01 2.466708227988999909e+02 0.000000000000000000e+00 0.000000000000000000e+00 0.000000000000000000e+00
2.380911238299999955e+00 7.419579408879999960e+01 2.421741147303999924e+02 0.000000000000000000e+00 0.000000000000000000e+00 0.000000000000000000e+00
-2.550730663099999962e+00 7.559825119120000636e+01 2.591224357370999769e+02 0.000000000000000000e+00 0.000000000000000000e+00 0.000000000000000000e+00
2.285181395099999957e+00 7.505948362319999490e+01 2.586673347697999930e+02 0.000000000000000000e+00 0.000000000000000000e+00 0.000000000000000000e+00
1.299892120400000017e+00 7.596037946459999546e+01 2.594511948231000247e+02 0.000000000000000000e+00 0.000000000000000000e+00 0.000000000000000000e+00
4.077604187000000158e-01 7.597895406039999955e+01 2.413228785530999971e+02 0.000000000000000000e+00 0.000000000000000000e+00 0.000000000000000000e+00
2.346632469399999810e+00 7.469348260280000318e+01 2.531974661723999986e+02 0.000000000000000000e+00 0.000000000000000000e+00 0.000000000000000000e+00
-2.055067661599999873e+00 7.455514203730000133e+01 2.413498211250000054e+02 0.000000000000000000e+00 0.000000000000000000e+00 0.000000000000000000e+00
-2.373656144699999970e+00 7.483610807830000056e+01 2.479892143714999975e+02 0.000000000000000000e+00 0.000000000000000000e+00 0.000000000000000000e+00
-2.481683839700000060e+00 7.509407159449999369e+01 2.556939537160999976e+02 0.000000000000000000e+00 0.000000000000000000e+00 0.000000000000000000e+00
-3.187188985999999780e+00 7.379824956439999539e+01 2.426169250782000120e+02 0.000000000000000000e+00 0.000000000000000000e+00 0.000000000000000000e+00
-3.992885714999999891e+00 7.441063718789999371e+01 2.561555295954000258e+02 0.000000000000000000e+00 0.000000000000000000e+00 0.000000000000000000e+00
2.390509173699999934e+00 7.331629569359999721e+01 2.385908226788000093e+02 0.000000000000000000e+00 0.000000000000000000e+00 0.000000000000000000e+00
2.404286778799999968e+00 7.462718974489999368e+01 2.477189078108000047e+02 0.000000000000000000e+00 0.000000000000000000e+00 0.000000000000000000e+00
4.356932362700000283e+00 7.348811574760000553e+01 2.582258794240000270e+02 0.000000000000000000e+00 0.000000000000000000e+00 0.000000000000000000e+00
2.830671011100000189e+00 7.340143831240000338e+01 2.616544624141999975e+02 0.000000000000000000e+00 0.000000000000000000e+00 0.000000000000000000e+00
2.140426750700000103e+00 7.607346509600000672e+01 2.476503789205999908e+02 0.000000000000000000e+00 0.000000000000000000e+00 0.000000000000000000e+00
-7.080182135999999460e-01 7.655739265809999949e+01 2.491669798872000001e+02 0.000000000000000000e+00 0.000000000000000000e+00 0.000000000000000000e+00
4.400814706300000267e+00 7.361886866669999563e+01 2.562055252806999874e+02 0.000000000000000000e+00 0.000000000000000000e+00 0.000000000000000000e+00
4.353829311700000204e+00 7.357547323810000250e+01 2.566787821424999834e+02 0.000000000000000000e+00 0.000000000000000000e+00 0.000000000000000000e+00
3.883531379199999911e+00 7.366812985200000696e+01 2.576588330673999963e+02 0.000000000000000000e+00 0.000000000000000000e+00 0.000000000000000000e+00
3.470724924100000219e+00 7.381044852029999959e+01 2.567083807385000114e+02 0.000000000000000000e+00 0.000000000000000000e+00 0.000000000000000000e+00
3.837986819400000194e+00 7.361213370640000164e+01 2.586738086415999760e+02 0.000000000000000000e+00 0.000000000000000000e+00 0.000000000000000000e+00
3.386506805899999861e+00 7.372396703079999725e+01 2.416853038826999978e+02 0.000000000000000000e+00 0.000000000000000000e+00 0.000000000000000000e+00
3.845680676999999825e+00 7.372417020529999832e+01 2.426202011361000075e+02 0.000000000000000000e+00 0.000000000000000000e+00 0.000000000000000000e+00
4.340458617900000426e+00 7.373665157760000000e+01 2.441575974252000094e+02 0.000000000000000000e+00 0.000000000000000000e+00 0.000000000000000000e+00
4.480874534399999831e+00 7.377501602680000303e+01 2.461891347574000122e+02 0.000000000000000000e+00 0.000000000000000000e+00 0.000000000000000000e+00
4.513614205899999732e+00 7.377025294339999562e+01 2.476773865899999976e+02 0.000000000000000000e+00 0.000000000000000000e+00 0.000000000000000000e+00
4.537258513500000312e+00 7.379119337980000637e+01 2.486470708086999934e+02 0.000000000000000000e+00 0.000000000000000000e+00 0.000000000000000000e+00
4.386524841399999985e+00 7.379950030320000565e+01 2.512638621073000138e+02 0.000000000000000000e+00 0.000000000000000000e+00 0.000000000000000000e+00
3.881697593100000176e+00 7.398382862709999586e+01 2.536387804796000012e+02 0.000000000000000000e+00 0.000000000000000000e+00 0.000000000000000000e+00
2.777886140000000115e+00 7.398572259899999892e+01 2.417048940001999995e+02 0.000000000000000000e+00 0.000000000000000000e+00 0.000000000000000000e+00
3.177731040599999890e+00 7.393665423490000421e+01 2.427878555304999963e+02 0.000000000000000000e+00 0.000000000000000000e+00 0.000000000000000000e+00
3.841923499399999997e+00 7.403476682340000536e+01 2.462097344301000135e+02 0.000000000000000000e+00 0.000000000000000000e+00 0.000000000000000000e+00
3.842984756899999965e+00 7.406783596399999681e+01 2.466968770718999906e+02 0.000000000000000000e+00 0.000000000000000000e+00 0.000000000000000000e+00
3.809649267799999794e+00 7.410527943830000197e+01 2.476646214376999922e+02 0.000000000000000000e+00 0.000000000000000000e+00 0.000000000000000000e+00
3.833799807700000173e+00 7.407689540929999339e+01 2.486810261422000110e+02 0.000000000000000000e+00 0.000000000000000000e+00 0.000000000000000000e+00
3.823200479500000082e+00 7.409571338950000552e+01 2.491695219112999951e+02 0.000000000000000000e+00 0.000000000000000000e+00 0.000000000000000000e+00
3.381180738799999919e+00 7.422303216070000076e+01 2.502166871308999987e+02 0.000000000000000000e+00 0.000000000000000000e+00 0.000000000000000000e+00
3.367819709199999956e+00 7.414664534210000113e+01 2.526735784066000008e+02 0.000000000000000000e+00 0.000000000000000000e+00 0.000000000000000000e+00
2.703549577600000031e+00 7.449038840219999713e+01 2.556629114380999965e+02 0.000000000000000000e+00 0.000000000000000000e+00 0.000000000000000000e+00
2.322637925300000017e+00 7.456801267090000351e+01 2.576706844079999996e+02 0.000000000000000000e+00 0.000000000000000000e+00 0.000000000000000000e+00
2.327181688900000101e+00 7.454138477690000286e+01 2.581965977081000005e+02 0.000000000000000000e+00 0.000000000000000000e+00 0.000000000000000000e+00
2.781474921300000069e+00 7.449689087900000573e+01 2.451252011347999940e+02 0.000000000000000000e+00 0.000000000000000000e+00 0.000000000000000000e+00
3.274127554100000115e+00 7.455703536320000069e+01 2.466947185553999873e+02 0.000000000000000000e+00 0.000000000000000000e+00 0.000000000000000000e+00
2.829084072000000116e+00 7.443542538500000205e+01 2.502045400307999898e+02 0.000000000000000000e+00 0.000000000000000000e+00 0.000000000000000000e+00
2.379632947400000198e+00 7.462086292120000053e+01 2.546609737688999928e+02 0.000000000000000000e+00 0.000000000000000000e+00 0.000000000000000000e+00
2.419326809399999778e+00 7.455947981799999980e+01 2.557102187508000100e+02 0.000000000000000000e+00 0.000000000000000000e+00 0.000000000000000000e+00
2.347286615399999832e+00 7.459767125250000674e+01 2.562047310189000200e+02 0.000000000000000000e+00 0.000000000000000000e+00 0.000000000000000000e+00
2.323069568899999826e+00 7.460590040089999775e+01 2.566802963622999982e+02 0.000000000000000000e+00 0.000000000000000000e+00 0.000000000000000000e+00
2.316494167800000170e+00 7.458233736760000454e+01 2.441629204536999964e+02 0.000000000000000000e+00 0.000000000000000000e+00 0.000000000000000000e+00
2.755973674599999867e+00 7.447186160459999371e+01 2.462281899211000109e+02 0.000000000000000000e+00 0.000000000000000000e+00 0.000000000000000000e+00
2.412050080000000207e+00 7.464241999649999570e+01 2.486837491763000116e+02 0.000000000000000000e+00 0.000000000000000000e+00 0.000000000000000000e+00
2.438243439399999879e+00 7.467621998020000262e+01 2.491517125905000114e+02 0.000000000000000000e+00 0.000000000000000000e+00 0.000000000000000000e+00
2.427769682400000129e+00 7.468836723210000628e+01 2.502100467010000102e+02 0.000000000000000000e+00 0.000000000000000000e+00 0.000000000000000000e+00
2.425365978999999950e+00 7.466142392380000103e+01 2.511359466209000004e+02 0.000000000000000000e+00 0.000000000000000000e+00 0.000000000000000000e+00
2.480341284600000140e+00 7.467907253309999760e+01 2.516959192673000132e+02 0.000000000000000000e+00 0.000000000000000000e+00 0.000000000000000000e+00
2.468573305600000101e+00 7.467090953439999623e+01 2.522082563408999931e+02 0.000000000000000000e+00 0.000000000000000000e+00 0.000000000000000000e+00
2.277147644799999870e+00 7.505147753079999973e+01 2.551392152043999886e+02 0.000000000000000000e+00 0.000000000000000000e+00 0.000000000000000000e+00
2.258831929399999883e+00 7.511876669570000331e+01 2.526523516398000027e+02 0.000000000000000000e+00 0.000000000000000000e+00 0.000000000000000000e+00
2.271581045200000037e+00 7.512235852359999910e+01 2.417313399665000020e+02 0.000000000000000000e+00 0.000000000000000000e+00 0.000000000000000000e+00
2.204991424700000202e+00 7.509936279119999369e+01 2.427212261392000130e+02 0.000000000000000000e+00 0.000000000000000000e+00 0.000000000000000000e+00
2.214699212799999817e+00 7.506427585859999851e+01 2.442331476941000119e+02 0.000000000000000000e+00 0.000000000000000000e+00 0.000000000000000000e+00
2.289323404500000159e+00 7.510376410579999629e+01 2.462216617658999951e+02 0.000000000000000000e+00 0.000000000000000000e+00 0.000000000000000000e+00
2.228212808999999961e+00 7.509306548230000544e+01 2.477025844560000110e+02 0.000000000000000000e+00 0.000000000000000000e+00 0.000000000000000000e+00
2.235238847200000212e+00 7.512123136169999782e+01 2.486712580662999983e+02 0.000000000000000000e+00 0.000000000000000000e+00 0.000000000000000000e+00
2.225041899899999898e+00 7.515786822729999983e+01 2.502023686002000034e+02 0.000000000000000000e+00 0.000000000000000000e+00 0.000000000000000000e+00
2.260886721699999935e+00 7.510921252250000180e+01 2.511477777304999961e+02 0.000000000000000000e+00 0.000000000000000000e+00 0.000000000000000000e+00
2.271779813299999784e+00 7.509858857790000286e+01 2.547073856840999895e+02 0.000000000000000000e+00 0.000000000000000000e+00 0.000000000000000000e+00
2.199231620399999976e+00 7.556730010820000132e+01 2.571419284370999776e+02 0.000000000000000000e+00 0.000000000000000000e+00 0.000000000000000000e+00
2.217828937500000208e+00 7.559428746010000566e+01 2.576963351470000134e+02 0.000000000000000000e+00 0.000000000000000000e+00 0.000000000000000000e+00
2.093295144299999855e+00 7.526877554220000377e+01 2.423715932917999965e+02 0.000000000000000000e+00 0.000000000000000000e+00 0.000000000000000000e+00
2.183472424600000128e+00 7.565200291749999906e+01 2.461932116826999959e+02 0.000000000000000000e+00 0.000000000000000000e+00 0.000000000000000000e+00
2.158246771099999961e+00 7.565279981499999451e+01 2.466763990766000063e+02 0.000000000000000000e+00 0.000000000000000000e+00 0.000000000000000000e+00
