2.420246908200000213e+00 5.056163765000000154e+01 3.121934909454000149e+02 0.000000000000000000e+00 0.000000000000000000e+00 0.000000000000000000e+00
-3.385809748399999819e+00 6.231959361690000065e+01 2.929057721844999946e+02 0.000000000000000000e+00 0.000000000000000000e+00 0.000000000000000000e+00
2.236792485900000127e+00 6.257663886179999935e+01 2.971735499385000026e+02 0.000000000000000000e+00 0.000000000000000000e+00 0.000000000000000000e+00
4.378184279900000142e+00 5.115060524300000111e+01 3.072099559637999846e+02 0.000000000000000000e+00 0.000000000000000000e+00 0.000000000000000000e+00
3.619693471000000051e-01 6.021869789000000139e+01 3.012615235283000175e+02 0.000000000000000000e+00 0.000000000000000000e+00 0.000000000000000000e+00
-2.477362414499999943e+00 5.410024772010000049e+01 3.081984918251000067e+02 0.000000000000000000e+00 0.000000000000000000e+00 0.000000000000000000e+00
-1.664623801100000078e+00 6.482604002930000320e+01 2.894190048244000195e+02 0.000000000000000000e+00 0.000000000000000000e+00 0.000000000000000000e+00
-1.727246687100000067e+00 6.432155632229999753e+01 2.911006326862000151e+02 0.000000000000000000e+00 0.000000000000000000e+00 0.000000000000000000e+00
1.338718872100000068e+00 6.083968603059999936e+01 3.003560015433000103e+02 0.000000000000000000e+00 0.000000000000000000e+00 0.000000000000000000e+00
-2.345988700699999985e+00 4.915051854189999858e+01 3.108402871970999968e+02 0.000000000000000000e+00 0.000000000000000000e+00 0.000000000000000000e+00
-4.178842035799999799e+00 5.162518522829999768e+01 3.066781768077000265e+02 0.000000000000000000e+00 0.000000000000000000e+00 0.000000000000000000e+00
-2.335192342900000106e+00 6.362482192089999700e+01 2.941747583082000119e+02 0.000000000000000000e+00 0.000000000000000000e+00 0.000000000000000000e+00
-2.457062609799999908e+00 6.256525700390000111e+01 2.971307339899000226e+02 0.000000000000000000e+00 0.000000000000000000e+00 0.000000000000000000e+00
1.750459583100000049e+00 5.749622473659999855e+01 3.045876606858000173e+02 0.000000000000000000e+00 0.000000000000000000e+00 0.000000000000000000e+00
-2.857067627600000215e+00 4.730692577629999818e+01 3.119251448661000268e+02 0.000000000000000000e+00 0.000000000000000000e+00 0.000000000000000000e+00
2.230329691200000131e+00 5.911998682360000146e+01 3.016729957499999841e+02 0.000000000000000000e+00 0.000000000000000000e+00 0.000000000000000000e+00
3.473905928799999820e+00 5.225837758450000337e+01 3.067581284824000250e+02 0.000000000000000000e+00 0.000000000000000000e+00 0.000000000000000000e+00
2.321366163400000016e+00 6.503170524440000122e+01 2.886723683176999771e+02 0.000000000000000000e+00 0.000000000000000000e+00 0.000000000000000000e+00
1.432588714800000051e+00 5.793345808840000188e+01 3.045642250073000241e+02 0.000000000000000000e+00 0.000000000000000000e+00 0.000000000000000000e+00
-1.190040030300000051e+00 5.285905840030000036e+01 3.110415711310999995e+02 0.000000000000000000e+00 0.000000000000000000e+00 0.000000000000000000e+00
-1.180458116799999901e+00 5.952592189300000314e+01 3.021587002515000222e+02 0.000000000000000000e+00 0.000000000000000000e+00 0.000000000000000000e+00
-2.179667677199999876e+00 5.867071939449999718e+01 3.011707389717000183e+02 0.000000000000000000e+00 0.000000000000000000e+00 0.000000000000000000e+00
-1.139180451499999913e+00 6.506168166230000338e+01 2.911429984426000033e+02 0.000000000000000000e+00 0.000000000000000000e+00 0.000000000000000000e+00
-2.139768461100000074e+00 5.160234769390000054e+01 3.116030610602999786e+02 0.000000000000000000e+00 0.000000000000000000e+00 0.000000000000000000e+00
-3.992568716100000081e+00 4.899056525660000005e+01 3.095048553098000070e+02 0.000000000000000000e+00 0.000000000000000000e+00 0.000000000000000000e+00
-2.180537621100000045e+00 5.561657383659999709e+01 3.061956598566999901e+02 0.000000000000000000e+00 0.000000000000000000e+00 0.000000000000000000e+00
-9.223960100000000439e-01 4.641652173410000159e+01 3.141054038385000240e+02 0.000000000000000000e+00 0.000000000000000000e+00 0.000000000000000000e+00
3.884287166900000088e+00 5.012940706799999901e+01 3.087151613670999950e+02 0.000000000000000000e+00 0.000000000000000000e+00 0.000000000000000000e+00
2.406721806799999808e+00 6.068704950960000133e+01 2.976600003310999796e+02 0.000000000000000000e+00 0.000000000000000000e+00 0.000000000000000000e+00
-1.140700192599999996e+00 5.171498503210000308e+01 3.121873500680999882e+02 0.000000000000000000e+00 0.000000000000000000e+00 0.000000000000000000e+00
-2.934643383000000050e+00 4.889581675880000233e+01 3.105645871881000062e+02 0.000000000000000000e+00 0.000000000000000000e+00 0.000000000000000000e+00
-2.056329541599999811e+00 6.548402437039999313e+01 2.922074570978999759e+02 0.000000000000000000e+00 0.000000000000000000e+00 0.000000000000000000e+00
-1.172219202900000035e+00 4.862751944720000097e+01 3.135809220040000014e+02 0.000000000000000000e+00 0.000000000000000000e+00 0.000000000000000000e+00
3.610477425999999990e-01 6.566619327150000629e+01 2.941320211950999806e+02 0.000000000000000000e+00 0.000000000000000000e+00 0.000000000000000000e+00
-1.390146271000000100e-01 5.721015752499999962e+01 3.051637081260000173e+02 0.000000000000000000e+00 0.000000000000000000e+00 0.000000000000000000e+00
3.627418537000000054e-01 6.527461458649999315e+01 2.887989506719999895e+02 0.000000000000000000e+00 0.000000000000000000e+00 0.000000000000000000e+00
-4.301103807299999637e+00 6.381700136090000086e+01 2.893393491890000178e+02 0.000000000000000000e+00 0.000000000000000000e+00 0.000000000000000000e+00
8.813676534000000062e-01 6.131499559390000087e+01 2.998991488881999885e+02 0.000000000000000000e+00 0.000000000000000000e+00 0.000000000000000000e+00
-2.266186206500000022e+00 5.912231886730000241e+01 3.001613013743000238e+02 0.000000000000000000e+00 0.000000000000000000e+00 0.000000000000000000e+00
-4.347743152799999677e+00 4.973340126770000325e+01 3.083981962694999766e+02 0.000000000000000000e+00 0.000000000000000000e+00 0.000000000000000000e+00
2.839811191399999935e+00 6.443700006289999749e+01 2.895765350272999967e+02 0.000000000000000000e+00 0.000000000000000000e+00 0.000000000000000000e+00
-3.640783005999999933e+00 5.353400676769999933e+01 3.050939800898000271e+02 0.000000000000000000e+00 0.000000000000000000e+00 0.000000000000000000e+00
-2.721072690400000216e+00 5.317381409389999902e+01 3.062385104746999787e+02 0.000000000000000000e+00 0.000000000000000000e+00 0.000000000000000000e+00
4.693882225600000346e+00 6.392509244160000037e+01 2.889380115294999882e+02 0.000000000000000000e+00 0.000000000000000000e+00 0.000000000000000000e+00
2.469138719600000087e+00 5.408177373059999837e+01 3.061582296089999886e+02 0.000000000000000000e+00 0.000000000000000000e+00 0.000000000000000000e+00
-3.123685300900000072e+00 5.854679896249999871e+01 2.991338081820999832e+02 0.000000000000000000e+00 0.000000000000000000e+00 0.000000000000000000e+00
2.694159647499999810e+00 4.911598373009999818e+01 3.122397379056000091e+02 0.000000000000000000e+00 0.000000000000000000e+00 0.000000000000000000e+00
3.283541053099999996e+00 6.149835014669999822e+01 2.946209266030999743e+02 0.000000000000000000e+00 0.000000000000000000e+00 0.000000000000000000e+00
8.740813514999999922e-01 5.929288322229999864e+01 3.024130173813999818e+02 0.000000000000000000e+00 0.000000000000000000e+00 0.000000000000000000e+00
2.463170813000000070e+00 5.157958914719999655e+01 3.096748015630000168e+02 0.000000000000000000e+00 0.000000000000000000e+00 0.000000000000000000e+00
2.284720965400000026e+00 6.453609890410000105e+01 2.911393073497000046e+02 0.000000000000000000e+00 0.000000000000000000e+00 0.000000000000000000e+00
3.164902272900000035e+00 5.488378572740000294e+01 3.039501331705999974e+02 0.000000000000000000e+00 0.000000000000000000e+00 0.000000000000000000e+00
1.935248660999999926e+00 6.466334071420000384e+01 2.910607255579000139e+02 0.000000000000000000e+00 0.000000000000000000e+00 0.000000000000000000e+00
2.656345752800000071e+00 6.398197265990000204e+01 2.910417885403999776e+02 0.000000000000000000e+00 0.000000000000000000e+00 0.000000000000000000e+00
-2.616488292400000137e+00 5.057570794349999943e+01 3.091948135654000112e+02 0.000000000000000000e+00 0.000000000000000000e+00 0.000000000000000000e+00
2.559880063900000113e+00 5.018136821699999928e+01 3.096908170150999808e+02 0.000000000000000000e+00 0.000000000000000000e+00 0.000000000000000000e+00
3.381387879900000115e+00 5.320398709149999661e+01 3.057376719679999724e+02 0.000000000000000000e+00 0.000000000000000000e+00 0.000000000000000000e+00
2.349312459700000133e+00 5.765300218769999674e+01 3.031968252162000113e+02 0.000000000000000000e+00 0.000000000000000000e+00 0.000000000000000000e+00
-2.477373728299999911e+00 5.644053975580000326e+01 3.030885972158000072e+02 0.000000000000000000e+00 0.000000000000000000e+00 0.000000000000000000e+00
4.518879157299999783e+00 5.527371897919999810e+01 3.023685481653000124e+02 0.000000000000000000e+00 0.000000000000000000e+00 0.000000000000000000e+00
-2.321339459799999894e+00 6.414441243730000508e+01 2.916447863271000074e+02 0.000000000000000000e+00 0.000000000000000000e+00 0.000000000000000000e+00
2.961100228499999876e+00 5.170067380959999781e+01 3.077994221109000250e+02 0.000000000000000000e+00 0.000000000000000000e+00 0.000000000000000000e+00
2.706027385700000121e+00 4.900592576529999889e+01 3.110979644135999820e+02 0.000000000000000000e+00 0.000000000000000000e+00 0.000000000000000000e+00
4.385604575900000413e+00 5.213412810399999842e+01 3.061695839440000100e+02 0.000000000000000000e+00 0.000000000000000000e+00 0.000000000000000000e+00
3.358938598000000275e-01 4.662906886710000265e+01 3.132395507392000127e+02 0.000000000000000000e+00 0.000000000000000000e+00 0.000000000000000000e+00
3.859227571699999970e+00 5.160053332390000236e+01 3.071804576170999894e+02 0.000000000000000000e+00 0.000000000000000000e+00 0.000000000000000000e+00
1.373979210599999945e+00 5.909128607859999960e+01 3.026877019003999862e+02 0.000000000000000000e+00 0.000000000000000000e+00 0.000000000000000000e+00
-1.498241133000000058e-01 5.370566050589999918e+01 3.097126164426999821e+02 0.000000000000000000e+00 0.000000000000000000e+00 0.000000000000000000e+00
-1.160017303300000080e+00 5.244112908219999980e+01 3.115147438079999915e+02 0.000000000000000000e+00 0.000000000000000000e+00 0.000000000000000000e+00
1.761544967999999933e+00 6.097041280250000028e+01 3.000756039665999992e+02 0.000000000000000000e+00 0.000000000000000000e+00 0.000000000000000000e+00
2.436630007000000209e+00 6.256175974850000188e+01 2.941714309262000029e+02 0.000000000000000000e+00 0.000000000000000000e+00 0.000000000000000000e+00
-3.716862307099999985e+00 5.726785668779999838e+01 3.003737994045999926e+02 0.000000000000000000e+00 0.000000000000000000e+00 0.000000000000000000e+00
2.235875406999999981e+00 5.098942430419999994e+01 3.126484987264000210e+02 0.000000000000000000e+00 0.000000000000000000e+00 0.000000000000000000e+00
-1.697158389199999950e+00 6.474699697890000039e+01 2.952345467097999858e+02 0.000000000000000000e+00 0.000000000000000000e+00 0.000000000000000000e+00
-1.147419351499999962e+00 5.802963688850000068e+01 3.041473049313000274e+02 0.000000000000000000e+00 0.000000000000000000e+00 0.000000000000000000e+00
2.846184620699999890e+00 4.711307662629999982e+01 3.122292853797000021e+02 0.000000000000000000e+00 0.000000000000000000e+00 0.000000000000000000e+00
3.964624673099999885e+00 6.328498803389999949e+01 2.908091685832000053e+02 0.000000000000000000e+00 0.000000000000000000e+00 0.000000000000000000e+00
4.730337903599999727e+00 4.750583571680000006e+01 3.105339754359000040e+02 0.000000000000000000e+00 0.000000000000000000e+00 0.000000000000000000e+00
3.881258426100000047e+00 5.113526461480000052e+01 3.076687004990000105e+02 0.000000000000000000e+00 0.000000000000000000e+00 0.000000000000000000e+00
4.634318848000000379e+00 5.388217926829999982e+01 3.039982209930000181e+02 0.000000000000000000e+00 0.000000000000000000e+00 0.000000000000000000e+00
2.377296126800000131e+00 5.357082231079999701e+01 3.086761485859000231e+02 0.000000000000000000e+00 0.000000000000000000e+00 0.000000000000000000e+00
1.301234645999999939e+00 6.601706903369999679e+01 2.936398390607000124e+02 0.000000000000000000e+00 0.000000000000000000e+00 0.000000000000000000e+00
-3.650624445200000068e+00 4.807076419439999881e+01 3.106393777208999722e+02 0.000000000000000000e+00 0.000000000000000000e+00 0.000000000000000000e+00
-2.054841987900000166e+00 6.503565432749999786e+01 2.945860502778999717e+02 0.000000000000000000e+00 0.000000000000000000e+00 0.000000000000000000e+00
4.394119106099999783e+00 5.016605926799999793e+01 3.082180479730999991e+02 0.000000000000000000e+00 0.000000000000000000e+00 0.000000000000000000e+00
2.483350672799999881e+00 5.609687045910000336e+01 3.037049649396000177e+02 0.000000000000000000e+00 0.000000000000000000e+00 0.000000000000000000e+00
3.628246776999999867e-01 5.110802214129999754e+01 3.131799085609000031e+02 0.000000000000000000e+00 0.000000000000000000e+00 0.000000000000000000e+00
2.219424241000000020e+00 6.011501624720000336e+01 3.001664556141000162e+02 0.000000000000000000e+00 0.000000000000000000e+00 0.000000000000000000e+00
1.844894532000000087e+00 5.814990128739999875e+01 3.037045844428000123e+02 0.000000000000000000e+00 0.000000000000000000e+00 0.000000000000000000e+00
4.461319731000000233e-01 6.042013912360000205e+01 3.010694384720999892e+02 0.000000000000000000e+00 0.000000000000000000e+00 0.000000000000000000e+00
-3.151264709499999928e+00 5.554483171089999871e+01 3.030917643608000276e+02 0.000000000000000000e+00 0.000000000000000000e+00 0.000000000000000000e+00
-2.294801526700000149e+00 5.310162465140000165e+01 3.071963188394000213e+02 0.000000000000000000e+00 0.000000000000000000e+00 0.000000000000000000e+00
3.805316690699999782e+00 5.556783039089999932e+01 3.026640429532999974e+02 0.000000000000000000e+00 0.000000000000000000e+00 0.000000000000000000e+00
-3.158460452799999985e+00 6.014249850849999746e+01 2.967283413450999774e+02 0.000000000000000000e+00 0.000000000000000000e+00 0.000000000000000000e+00
4.505621786299999876e+00 5.415381622719999655e+01 3.037803702031000057e+02 0.000000000000000000e+00 0.000000000000000000e+00 0.000000000000000000e+00
2.807588935800000129e+00 5.252664374399999758e+01 3.071377985776999822e+02 0.000000000000000000e+00 0.000000000000000000e+00 0.000000000000000000e+00
-2.672897607499999939e+00 5.958184280700000102e+01 2.981627303889000018e+02 0.000000000000000000e+00 0.000000000000000000e+00 0.000000000000000000e+00
-2.153012017500000042e+00 4.908643058570000051e+01 3.117364825728000142e+02 0.000000000000000000e+00 0.000000000000000000e+00 0.000000000000000000e+00
2.802770563000000159e+00 5.601315982069999677e+01 3.031394258188000208e+02 0.000000000000000000e+00 0.000000000000000000e+00 0.000000000000000000e+00
2.259248020299999826e+00 5.912090315609999891e+01 3.011938777935999951e+02 0.000000000000000000e+00 0.000000000000000000e+00 0.000000000000000000e+00
8.596980100000000125e-01 6.434203808770000421e+01 2.957603302064999866e+02 0.000000000000000000e+00 0.000000000000000000e+00 0.000000000000000000e+00
2.492165223199999780e+00 5.305568104870000212e+01 3.071640288686999725e+02 0.000000000000000000e+00 0.000000000000000000e+00 0.000000000000000000e+00
2.628383146500000045e+00 5.717900556379999699e+01 3.032063643556999750e+02 0.000000000000000000e+00 0.000000000000000000e+00 0.000000000000000000e+00
-2.781008403099999970e+00 5.333214552249999940e+01 3.058734110382000040e+02 0.000000000000000000e+00 0.000000000000000000e+00 0.000000000000000000e+00
-2.648693814100000044e+00 6.062293609289999807e+01 2.966692215785000144e+02 0.000000000000000000e+00 0.000000000000000000e+00 0.000000000000000000e+00
-3.648378245099999972e+00 5.856343113580000193e+01 2.986417840083000215e+02 0.000000000000000000e+00 0.000000000000000000e+00 0.000000000000000000e+00
-3.860859554800000204e+00 5.482383413050000343e+01 3.033615839949000019e+02 0.000000000000000000e+00 0.000000000000000000e+00 0.000000000000000000e+00
2.520225939499999956e+00 5.108957681609999923e+01 3.091236185323999734e+02 0.000000000000000000e+00 0.000000000000000000e+00 0.000000000000000000e+00
2.336436673400000164e+00 6.264836164249999939e+01 2.956981925178000097e+02 0.000000000000000000e+00 0.000000000000000000e+00 0.000000000000000000e+00
-3.092556895400000005e+00 6.297527051320000169e+01 2.921771994351000217e+02 0.000000000000000000e+00 0.000000000000000000e+00 0.000000000000000000e+00
2.976285760999999863e-01 4.608138789710000083e+01 3.136688503420999723e+02 0.000000000000000000e+00 0.000000000000000000e+00 0.000000000000000000e+00
2.227144085699999998e+00 4.948514012329999900e+01 3.129643701646999716e+02 0.000000000000000000e+00 0.000000000000000000e+00 0.000000000000000000e+00
-4.047864451999999780e+00 5.796458166360000064e+01 2.990846019794000199e+02 0.000000000000000000e+00 0.000000000000000000e+00 0.000000000000000000e+00
-1.654198218000000054e-01 5.257998814420000144e+01 3.111424817911000105e+02 0.000000000000000000e+00 0.000000000000000000e+00 0.000000000000000000e+00
-2.313143934500000221e+00 5.661178834919999758e+01 3.032109752540000045e+02 0.000000000000000000e+00 0.000000000000000000e+00 0.000000000000000000e+00
4.682919122500000420e+00 6.196476382470000033e+01 2.925236380619999750e+02 0.000000000000000000e+00 0.000000000000000000e+00 0.000000000000000000e+00
1.839110746600000068e+00 6.460818002339999566e+01 2.951590937564999990e+02 0.000000000000000000e+00 0.000000000000000000e+00 0.000000000000000000e+00
2.943295248700000144e+00 6.277089512050000053e+01 2.927035681809999801e+02 0.000000000000000000e+00 0.000000000000000000e+00 0.000000000000000000e+00
3.333628544100000202e+00 5.951725468629999938e+01 2.976468951040999968e+02 0.000000000000000000e+00 0.000000000000000000e+00 0.000000000000000000e+00
2.879884504000000067e+00 4.512571469750000119e+01 3.137946127463000039e+02 0.000000000000000000e+00 0.000000000000000000e+00 0.000000000000000000e+00
-1.347833365000000061e+00 5.639335847390000112e+01 3.064464015338999729e+02 0.000000000000000000e+00 0.000000000000000000e+00 0.000000000000000000e+00
3.292243234399999885e+00 4.752362060000000099e+01 3.116087820658000282e+02 0.000000000000000000e+00 0.000000000000000000e+00 0.000000000000000000e+00
2.375592905800000043e+00 6.359927659849999770e+01 2.936812535257000150e+02 0.000000000000000000e+00 0.000000000000000000e+00 0.000000000000000000e+00
3.434246575500000009e+00 5.574935986229999685e+01 3.027546224135999751e+02 0.000000000000000000e+00 0.000000000000000000e+00 0.000000000000000000e+00
-2.777770655599999916e+00 5.569625210409999738e+01 3.032456562221000240e+02 0.000000000000000000e+00 0.000000000000000000e+00 0.000000000000000000e+00
4.294903707499999612e+00 5.754445005320000206e+01 2.996207613386999924e+02 0.000000000000000000e+00 0.000000000000000000e+00 0.000000000000000000e+00
2.083289788100000095e+00 6.173131022089999931e+01 2.982916799367000067e+02 0.000000000000000000e+00 0.000000000000000000e+00 0.000000000000000000e+00
2.800434141100000218e+00 5.558339372039999660e+01 3.036107400481000127e+02 0.000000000000000000e+00 0.000000000000000000e+00 0.000000000000000000e+00
2.309443484400000024e+00 5.915611122850000214e+01 3.006705640004000202e+02 0.000000000000000000e+00 0.000000000000000000e+00 0.000000000000000000e+00
3.907081544199999978e+00 5.915714548289999897e+01 2.976932458425999926e+02 0.000000000000000000e+00 0.000000000000000000e+00 0.000000000000000000e+00
2.347134438299999903e+00 5.209811363370000237e+01 3.106594598724000207e+02 0.000000000000000000e+00 0.000000000000000000e+00 0.000000000000000000e+00
-1.157090155199999915e+00 5.998862323539999863e+01 3.015867219717999888e+02 0.000000000000000000e+00 0.000000000000000000e+00 0.000000000000000000e+00
2.392494175499999987e+00 6.412532160560000705e+01 2.936755593086999738e+02 0.000000000000000000e+00 0.000000000000000000e+00 0.000000000000000000e+00
-6.617984035999999737e-01 5.756105866330000254e+01 3.046922846380999772e+02 0.000000000000000000e+00 0.000000000000000000e+00 0.000000000000000000e+00
2.725812593800000183e+00 5.653189626470000206e+01 3.027064327397999932e+02 0.000000000000000000e+00 0.000000000000000000e+00 0.000000000000000000e+00
2.691847761100000014e+00 5.948650957960000341e+01 2.985974915800999838e+02 0.000000000000000000e+00 0.000000000000000000e+00 0.000000000000000000e+00
2.715616109199999961e+00 5.696082692299999906e+01 3.020695697288999781e+02 0.000000000000000000e+00 0.000000000000000000e+00 0.000000000000000000e+00
1.921549846200000022e+00 6.023353279669999694e+01 3.007528078061999963e+02 0.000000000000000000e+00 0.000000000000000000e+00 0.000000000000000000e+00
2.006303213899999882e+00 5.023453174729999660e+01 3.132742783755999767e+02 0.000000000000000000e+00 0.000000000000000000e+00 0.000000000000000000e+00
4.180676685999999975e-01 4.730993138859999902e+01 3.129284096330000011e+02 0.000000000000000000e+00 0.000000000000000000e+00 0.000000000000000000e+00
-3.119617696300000187e+00 4.854433297469999786e+01 3.106097961685999849e+02 0.000000000000000000e+00 0.000000000000000000e+00 0.000000000000000000e+00
-3.676654076899999790e+00 5.465465119040000275e+01 3.037327825099999927e+02 0.000000000000000000e+00 0.000000000000000000e+00 0.000000000000000000e+00
2.468279326799999840e+00 5.564792590199999722e+01 3.041848615289999884e+02 0.000000000000000000e+00 0.000000000000000000e+00 0.000000000000000000e+00
2.351879198799999848e+00 6.562876858069999741e+01 2.926763003606000098e+02 0.000000000000000000e+00 0.000000000000000000e+00 0.000000000000000000e+00
3.018622584700000111e+00 6.021643185180000302e+01 2.967819403232999775e+02 0.000000000000000000e+00 0.000000000000000000e+00 0.000000000000000000e+00
3.740357678300000099e+00 5.187606033109999970e+01 3.070024495106000018e+02 0.000000000000000000e+00 0.000000000000000000e+00 0.000000000000000000e+00
-2.461681874699999995e+00 6.356021025030000260e+01 2.960804590004000261e+02 0.000000000000000000e+00 0.000000000000000000e+00 0.000000000000000000e+00
2.472583821599999787e+00 6.598384915970000009e+01 2.913914192131999812e+02 0.000000000000000000e+00 0.000000000000000000e+00 0.000000000000000000e+00
4.029423626899999888e+00 4.820623403030000276e+01 3.104128790575999801e+02 0.000000000000000000e+00 0.000000000000000000e+00 0.000000000000000000e+00
-1.672463183000000020e-01 6.510122784140000363e+01 2.891770748519999756e+02 0.000000000000000000e+00 0.000000000000000000e+00 0.000000000000000000e+00
-1.688517760100000098e+00 5.567150782099999873e+01 3.067424313024000071e+02 0.000000000000000000e+00 0.000000000000000000e+00 0.000000000000000000e+00
3.756087427999999839e+00 5.792493303860000253e+01 2.995653891781000198e+02 0.000000000000000000e+00 0.000000000000000000e+00 0.000000000000000000e+00
8.672069811000000517e-01 5.301502358340000143e+01 3.106274703656999918e+02 0.000000000000000000e+00 0.000000000000000000e+00 0.000000000000000000e+00
-2.205527288199999880e+00 5.310308531169999924e+01 3.086662855679999780e+02 0.000000000000000000e+00 0.000000000000000000e+00 0.000000000000000000e+00
-2.804751602200000082e+00 6.026087233209999994e+01 2.968415573212000140e+02 0.000000000000000000e+00 0.000000000000000000e+00 0.000000000000000000e+00
8.814806061000000081e-01 6.611987665380000578e+01 2.927426225088000251e+02 0.000000000000000000e+00 0.000000000000000000e+00 0.000000000000000000e+00
-1.142669008099999939e+00 6.171996766819999891e+01 2.993038667883000130e+02 0.000000000000000000e+00 0.000000000000000000e+00 0.000000000000000000e+00
-1.158045248399999894e+00 6.503905787639999403e+01 2.891795069346999867e+02 0.000000000000000000e+00 0.000000000000000000e+00 0.000000000000000000e+00
3.370994607300000112e+00 5.910388862500000329e+01 2.981992937530999939e+02 0.000000000000000000e+00 0.000000000000000000e+00 0.000000000000000000e+00
3.178033060300000212e+00 4.804945450710000188e+01 3.116071017699999857e+02 0.000000000000000000e+00 0.000000000000000000e+00 0.000000000000000000e+00
4.260017030400000237e+00 5.095160725750000097e+01 3.075511610945000029e+02 0.000000000000000000e+00 0.000000000000000000e+00 0.000000000000000000e+00
-2.314630425399999858e+00 5.958971365920000096e+01 2.992010640885999919e+02 0.000000000000000000e+00 0.000000000000000000e+00 0.000000000000000000e+00
4.021814789599999607e+00 4.927608476399999660e+01 3.094200270128000057e+02 0.000000000000000000e+00 0.000000000000000000e+00 0.000000000000000000e+00
2.712748717399999787e+00 4.956970813200000237e+01 3.106470374754999852e+02 0.000000000000000000e+00 0.000000000000000000e+00 0.000000000000000000e+00
-2.348150108400000047e+00 6.215539916019999822e+01 2.956917369739999799e+02 0.000000000000000000e+00 0.000000000000000000e+00 0.000000000000000000e+00
2.455079974499999818e+00 5.064240801049999874e+01 3.106984071571000072e+02 0.000000000000000000e+00 0.000000000000000000e+00 0.000000000000000000e+00
2.804192217100000217e+00 5.708509348639999814e+01 3.016517120240999930e+02 0.000000000000000000e+00 0.000000000000000000e+00 0.000000000000000000e+00
4.007175271899999558e+00 5.081125106620000054e+01 3.078555350104999775e+02 0.000000000000000000e+00 0.000000000000000000e+00 0.000000000000000000e+00
2.718837305300000118e+00 5.114626291969999983e+01 3.091338289519000000e+02 0.000000000000000000e+00 0.000000000000000000e+00 0.000000000000000000e+00
2.759849228000000210e+00 5.152196917749999727e+01 3.086467874177999988e+02 0.000000000000000000e+00 0.000000000000000000e+00 0.000000000000000000e+00
-2.142489459100000104e+00 5.259513655720000003e+01 3.101421102415999940e+02 0.000000000000000000e+00 0.000000000000000000e+00 0.000000000000000000e+00
3.407144612699999797e+00 5.181298637350000291e+01 3.072945276259999901e+02 0.000000000000000000e+00 0.000000000000000000e+00 0.000000000000000000e+00
2.504325442999999929e+00 5.164548012630000073e+01 3.086873557614999868e+02 0.000000000000000000e+00 0.000000000000000000e+00 0.000000000000000000e+00
2.666417870500000120e+00 5.207304863880000312e+01 3.110905607061999945e+02 0.000000000000000000e+00 0.000000000000000000e+00 0.000000000000000000e+00
-1.542944253000000099e-01 5.951299969109999921e+01 3.021735444766999876e+02 0.000000000000000000e+00 0.000000000000000000e+00 0.000000000000000000e+00
2.310125498500000152e+00 6.447956599089999941e+01 2.945911195817000134e+02 0.000000000000000000e+00 0.000000000000000000e+00 0.000000000000000000e+00
2.834683367699999845e+00 5.307744178469999952e+01 3.065610242682000148e+02 0.000000000000000000e+00 0.000000000000000000e+00 0.000000000000000000e+00
2.688635588599999959e+00 5.304472924000000233e+01 3.070995644133000155e+02 0.000000000000000000e+00 0.000000000000000000e+00 0.000000000000000000e+00
2.312509565900000119e+00 5.309939868219999681e+01 3.096628273671000215e+02 0.000000000000000000e+00 0.000000000000000000e+00 0.000000000000000000e+00
2.748918106000000083e+00 5.362449764290000331e+01 3.061411249764000218e+02 0.000000000000000000e+00 0.000000000000000000e+00 0.000000000000000000e+00
2.473001902100000038e+00 5.961447883409999804e+01 2.987336080538000260e+02 0.000000000000000000e+00 0.000000000000000000e+00 0.000000000000000000e+00
3.866980347400000184e+00 5.373026646099999937e+01 3.048070680100000232e+02 0.000000000000000000e+00 0.000000000000000000e+00 0.000000000000000000e+00
2.423476214199999923e+00 5.414174705880000005e+01 3.071631375589000186e+02 0.000000000000000000e+00 0.000000000000000000e+00 0.000000000000000000e+00
3.772583723299999914e+00 5.397034902320000072e+01 3.046087921943999959e+02 0.000000000000000000e+00 0.000000000000000000e+00 0.000000000000000000e+00
2.860145731499999844e+00 5.407426349850000236e+01 3.052163241091000145e+02 0.000000000000000000e+00 0.000000000000000000e+00 0.000000000000000000e+00
2.746634611899999800e+00 5.407640803059999968e+01 3.056776783057999864e+02 0.000000000000000000e+00 0.000000000000000000e+00 0.000000000000000000e+00
1.249042177900000050e+00 6.244507679790000054e+01 2.987141836847999912e+02 0.000000000000000000e+00 0.000000000000000000e+00 0.000000000000000000e+00
3.144365137899999940e+00 5.544977266829999962e+01 3.034786943120000160e+02 0.000000000000000000e+00 0.000000000000000000e+00 0.000000000000000000e+00
2.806048586999999817e+00 5.858965930829999991e+01 2.996110738447999893e+02 0.000000000000000000e+00 0.000000000000000000e+00 0.000000000000000000e+00
-6.598089853999999921e-01 5.716618407269999835e+01 3.052110443509999982e+02 0.000000000000000000e+00 0.000000000000000000e+00 0.000000000000000000e+00
2.397487779400000019e+00 6.304597437019999973e+01 2.936830403093999848e+02 0.000000000000000000e+00 0.000000000000000000e+00 0.000000000000000000e+00
4.805693831700000196e+00 5.603650813059999791e+01 3.011262983516999725e+02 0.000000000000000000e+00 0.000000000000000000e+00 0.000000000000000000e+00
2.344300259799999786e+00 5.657986508789999647e+01 3.046612547115000211e+02 0.000000000000000000e+00 0.000000000000000000e+00 0.000000000000000000e+00
2.318523196100000128e+00 5.651195598790000219e+01 3.051436476069999912e+02 0.000000000000000000e+00 0.000000000000000000e+00 0.000000000000000000e+00
-3.725636992000000092e+00 5.877071381159999675e+01 2.982925615061000144e+02 0.000000000000000000e+00 0.000000000000000000e+00 0.000000000000000000e+00
3.336293097600000035e+00 5.660072628209999834e+01 3.016905847602000108e+02 0.000000000000000000e+00 0.000000000000000000e+00 0.000000000000000000e+00
4.746146676500000439e+00 5.647985823700000196e+01 3.006127132217000053e+02 0.000000000000000000e+00 0.000000000000000000e+00 0.000000000000000000e+00
3.337047184899999852e+00 5.706896160960000230e+01 3.011053467812000122e+02 0.000000000000000000e+00 0.000000000000000000e+00 0.000000000000000000e+00
2.762447551600000217e+00 5.754445752310000017e+01 3.011137762742000064e+02 0.000000000000000000e+00 0.000000000000000000e+00 0.000000000000000000e+00
2.706385523099999801e+00 5.798780919509999876e+01 3.006696683495999878e+02 0.000000000000000000e+00 0.000000000000000000e+00 0.000000000000000000e+00
2.385390775699999910e+00 5.862701750810000334e+01 3.007053333764999934e+02 0.000000000000000000e+00 0.000000000000000000e+00 0.000000000000000000e+00
-3.146458603100000140e+00 6.372278161189999679e+01 2.906669101828999828e+02 0.000000000000000000e+00 0.000000000000000000e+00 0.000000000000000000e+00
2.423025161500000024e+00 5.913723524750000138e+01 2.996818906250999817e+02 0.000000000000000000e+00 0.000000000000000000e+00 0.000000000000000000e+00
2.649069035700000185e+00 5.992283258549999658e+01 2.980557100313999968e+02 0.000000000000000000e+00 0.000000000000000000e+00 0.000000000000000000e+00
3.874226604800000029e+00 6.017671591279999888e+01 2.961971006510000279e+02 0.000000000000000000e+00 0.000000000000000000e+00 0.000000000000000000e+00
2.442905899599999930e+00 6.063103329980000211e+01 2.971788205404999985e+02 0.000000000000000000e+00 0.000000000000000000e+00 0.000000000000000000e+00
2.239335974299999865e+00 6.113323874280000325e+01 2.991990171338999858e+02 0.000000000000000000e+00 0.000000000000000000e+00 0.000000000000000000e+00
-1.193535766899999961e+00 6.023988080099999820e+01 3.012261235021999823e+02 0.000000000000000000e+00 0.000000000000000000e+00 0.000000000000000000e+00
3.445436473800000066e+00 6.124978644019999763e+01 2.948182603870999969e+02 0.000000000000000000e+00 0.000000000000000000e+00 0.000000000000000000e+00
3.337260790799999821e+00 6.108092454500000201e+01 2.951951226188999726e+02 0.000000000000000000e+00 0.000000000000000000e+00 0.000000000000000000e+00
2.298146982300000030e+00 6.157769296080000032e+01 2.976365118305999999e+02 0.000000000000000000e+00 0.000000000000000000e+00 0.000000000000000000e+00
3.178559718499999853e+00 6.095661594549999762e+01 2.955330747992999818e+02 0.000000000000000000e+00 0.000000000000000000e+00 0.000000000000000000e+00
-3.225005637799999825e+00 5.480496132089999861e+01 3.038798356109999759e+02 0.000000000000000000e+00 0.000000000000000000e+00 0.000000000000000000e+00
2.451499143599999986e+00 6.166552127300000308e+01 2.956813586357999952e+02 0.000000000000000000e+00 0.000000000000000000e+00 0.000000000000000000e+00
3.732409248100000188e+00 4.944522893999999980e+01 3.095058544720000100e+02 0.000000000000000000e+00 0.000000000000000000e+00 0.000000000000000000e+00
3.894520143299999848e+00 6.224984764919999947e+01 2.927978099073000067e+02 0.000000000000000000e+00 0.000000000000000000e+00 0.000000000000000000e+00
2.366983579999999865e+00 6.262718104609999870e+01 2.951624123127999724e+02 0.000000000000000000e+00 0.000000000000000000e+00 0.000000000000000000e+00
3.320586742500000188e+00 6.258874862510000270e+01 2.926781101590000276e+02 0.000000000000000000e+00 0.000000000000000000e+00 0.000000000000000000e+00
2.391133787799999855e+00 5.260809120820000118e+01 3.086709730530000115e+02 0.000000000000000000e+00 0.000000000000000000e+00 0.000000000000000000e+00
-2.578643527100000110e+00 6.112311363149999721e+01 2.961839468033999765e+02 0.000000000000000000e+00 0.000000000000000000e+00 0.000000000000000000e+00
3.365805645800000079e+00 6.366285635490000061e+01 2.907099301660999799e+02 0.000000000000000000e+00 0.000000000000000000e+00 0.000000000000000000e+00
2.464348845499999996e+00 6.363774635469999907e+01 2.922070313836999844e+02 0.000000000000000000e+00 0.000000000000000000e+00 0.000000000000000000e+00
-2.332491234599999963e+00 6.409092120709999563e+01 2.931535159495999778e+02 0.000000000000000000e+00 0.000000000000000000e+00 0.000000000000000000e+00
2.365397857000000048e+00 6.363153745510000192e+01 2.926447454862999962e+02 0.000000000000000000e+00 0.000000000000000000e+00 0.000000000000000000e+00
2.353356810599999793e+00 6.363597675609999982e+01 2.951504545826999788e+02 0.000000000000000000e+00 0.000000000000000000e+00 0.000000000000000000e+00
3.871420672500000215e+00 6.366445748440000330e+01 2.902101053581999963e+02 0.000000000000000000e+00 0.000000000000000000e+00 0.000000000000000000e+00
1.919567160800000005e+00 4.856365289720000078e+01 3.132293475816999830e+02 0.000000000000000000e+00 0.000000000000000000e+00 0.000000000000000000e+00
2.265976421099999971e+00 6.509580070709999688e+01 2.916860644665999871e+02 0.000000000000000000e+00 0.000000000000000000e+00 0.000000000000000000e+00
2.225886052599999942e+00 6.503391089640000189e+01 2.940925145169999837e+02 0.000000000000000000e+00 0.000000000000000000e+00 0.000000000000000000e+00
2.501345822299999799e+00 6.609677217629999291e+01 2.917182648081000025e+02 0.000000000000000000e+00 0.000000000000000000e+00 0.000000000000000000e+00
2.405147568499999888e+00 6.602362072969999929e+01 2.921496418662999872e+02 0.000000000000000000e+00 0.000000000000000000e+00 0.000000000000000000e+00
4.726704984500000428e+00 5.341426517629999893e+01 3.044700416942000061e+02 0.000000000000000000e+00 0.000000000000000000e+00 0.000000000000000000e+00
-2.332631992600000093e+00 4.976504156280000046e+01 3.102829145383000196e+02 0.000000000000000000e+00 0.000000000000000000e+00 0.000000000000000000e+00
2.195655574599999937e+00 4.806580132029999675e+01 3.126886229145999891e+02 0.000000000000000000e+00 0.000000000000000000e+00 0.000000000000000000e+00
3.285006677000000264e-01 6.191724303419999842e+01 2.990755507553000143e+02 0.000000000000000000e+00 0.000000000000000000e+00 0.000000000000000000e+00
-4.205917552899999912e+00 6.229586335070000302e+01 2.922696267242000090e+02 0.000000000000000000e+00 0.000000000000000000e+00 0.000000000000000000e+00
-1.106911380899999964e+00 6.390732471089999933e+01 2.964800922626999977e+02 0.000000000000000000e+00 0.000000000000000000e+00 0.000000000000000000e+00
-1.647530784800000037e+00 6.609741072769999448e+01 2.932165988162000190e+02 0.000000000000000000e+00 0.000000000000000000e+00 0.000000000000000000e+00
3.857268800499999983e+00 5.813761179480000152e+01 2.991724334104999912e+02 0.000000000000000000e+00 0.000000000000000000e+00 0.000000000000000000e+00
-2.989479299500000131e+00 6.193080207999999942e+01 2.941007352785999842e+02 0.000000000000000000e+00 0.000000000000000000e+00 0.000000000000000000e+00
3.750352188299999945e+00 5.941510466329999929e+01 2.974728673198000024e+02 0.000000000000000000e+00 0.000000000000000000e+00 0.000000000000000000e+00
3.692747960400000196e+00 6.038473251140000286e+01 2.960433238746999791e+02 0.000000000000000000e+00 0.000000000000000000e+00 0.000000000000000000e+00
-1.122422284999999992e-01 5.888233188569999754e+01 3.030214078682000149e+02 0.000000000000000000e+00 0.000000000000000000e+00 0.000000000000000000e+00
2.941809136899999899e+00 6.233079016500000336e+01 2.933646110011000019e+02 0.000000000000000000e+00 0.000000000000000000e+00 0.000000000000000000e+00
4.312765898900000394e+00 5.710353062059999729e+01 3.002061987403000103e+02 0.000000000000000000e+00 0.000000000000000000e+00 0.000000000000000000e+00
-4.084486489999999748e+00 6.038506763339999850e+01 2.955361251737999737e+02 0.000000000000000000e+00 0.000000000000000000e+00 0.000000000000000000e+00
3.370161742700000129e+00 4.559226288079999989e+01 3.131883630916000243e+02 0.000000000000000000e+00 0.000000000000000000e+00 0.000000000000000000e+00
4.426492323999999812e-01 6.133102079870000267e+01 2.998427580869000053e+02 0.000000000000000000e+00 0.000000000000000000e+00 0.000000000000000000e+00
2.658628693999999903e+00 6.090914708399999711e+01 2.966233750504000000e+02 0.000000000000000000e+00 0.000000000000000000e+00 0.000000000000000000e+00
-1.370435091999999966e-01 6.477694322150000517e+01 2.952749654263000139e+02 0.000000000000000000e+00 0.000000000000000000e+00 0.000000000000000000e+00
1.274378940300000096e+00 4.496291833560000129e+01 3.144794809378000195e+02 0.000000000000000000e+00 0.000000000000000000e+00 0.000000000000000000e+00
-2.297514819399999908e+00 5.826189899709999764e+01 3.007719563196999957e+02 0.000000000000000000e+00 0.000000000000000000e+00 0.000000000000000000e+00
-2.422710888700000176e+00 5.001797192010000259e+01 3.105894185802999914e+02 0.000000000000000000e+00 0.000000000000000000e+00 0.000000000000000000e+00
-4.109235968500000169e+00 5.997441138559999985e+01 2.960922229884999979e+02 0.000000000000000000e+00 0.000000000000000000e+00 0.000000000000000000e+00
-2.476811218299999950e+00 4.949181500659999955e+01 3.106653866940000057e+02 0.000000000000000000e+00 0.000000000000000000e+00 0.000000000000000000e+00
-2.443780940999999984e+00 6.413682315120000510e+01 2.947165968104999934e+02 0.000000000000000000e+00 0.000000000000000000e+00 0.000000000000000000e+00
-3.146473108699999965e+00 5.770997852090000180e+01 3.002289253405999716e+02 0.000000000000000000e+00 0.000000000000000000e+00 0.000000000000000000e+00
5.110131567000000263e-01 4.749978731230000051e+01 3.129301370535999922e+02 0.000000000000000000e+00 0.000000000000000000e+00 0.000000000000000000e+00
3.759719317900000135e+00 5.039991526650000253e+01 3.085561209717000111e+02 0.000000000000000000e+00 0.000000000000000000e+00 0.000000000000000000e+00
-3.305239223500000101e+00 6.031174663609999698e+01 2.963324846576999789e+02 0.000000000000000000e+00 0.000000000000000000e+00 0.000000000000000000e+00
-3.615212805800000151e+00 4.756269525630000317e+01 3.110944282675000068e+02 0.000000000000000000e+00 0.000000000000000000e+00 0.000000000000000000e+00
2.601781974000000108e+00 5.166749219529999948e+01 3.114322405431000220e+02 0.000000000000000000e+00 0.000000000000000000e+00 0.000000000000000000e+00
-2.041338864400000119e+00 6.461427148330000136e+01 2.952075562667999975e+02 0.000000000000000000e+00 0.000000000000000000e+00 0.000000000000000000e+00
1.321553205100000072e+00 5.476107067030000053e+01 3.083220084647999784e+02 0.000000000000000000e+00 0.000000000000000000e+00 0.000000000000000000e+00
4.378021196699999784e+00 4.762228229440000149e+01 3.107173556253999891e+02 0.000000000000000000e+00 0.000000000000000000e+00 0.000000000000000000e+00
-1.778277406800000016e+00 6.067544580330000059e+01 3.002666770015999873e+02 0.000000000000000000e+00 0.000000000000000000e+00 0.000000000000000000e+00
4.201727072499999771e+00 6.042573502030000299e+01 2.955237424535000059e+02 0.000000000000000000e+00 0.000000000000000000e+00 0.000000000000000000e+00
2.509641707100000119e+00 4.763918408810000216e+01 3.122543420139999739e+02 0.000000000000000000e+00 0.000000000000000000e+00 0.000000000000000000e+00
4.363920382699999934e+00 4.713010868719999991e+01 3.112182828026000152e+02 0.000000000000000000e+00 0.000000000000000000e+00 0.000000000000000000e+00
4.337194672999999945e+00 5.353601934619999980e+01 3.046634226263000187e+02 0.000000000000000000e+00 0.000000000000000000e+00 0.000000000000000000e+00
-2.167381358000000091e+00 4.801148173499999672e+01 3.131022076855999785e+02 0.000000000000000000e+00 0.000000000000000000e+00 0.000000000000000000e+00
2.859536292400000068e+00 6.412013185310000551e+01 2.901887558554000179e+02 0.000000000000000000e+00 0.000000000000000000e+00 0.000000000000000000e+00
-2.449771287199999925e+00 6.365704552599999744e+01 2.952264125399000250e+02 0.000000000000000000e+00 0.000000000000000000e+00 0.000000000000000000e+00
2.268732298699999816e+00 5.449207992609999707e+01 3.081194947106999962e+02 0.000000000000000000e+00 0.000000000000000000e+00 0.000000000000000000e+00
-3.669612100899999785e+00 6.203831335510000144e+01 2.931894836780999754e+02 0.000000000000000000e+00 0.000000000000000000e+00 0.000000000000000000e+00
8.296704301999999753e-01 6.618232961399999681e+01 2.921551478106999866e+02 0.000000000000000000e+00 0.000000000000000000e+00 0.000000000000000000e+00
-4.088938073799999628e+00 5.903476676350000218e+01 2.975869843798000147e+02 0.000000000000000000e+00 0.000000000000000000e+00 0.000000000000000000e+00
2.321768450900000058e+00 5.857741675980000196e+01 3.016586241402999917e+02 0.000000000000000000e+00 0.000000000000000000e+00 0.000000000000000000e+00
-2.782724025399999856e+00 5.216849610759999933e+01 3.072197049833000051e+02 0.000000000000000000e+00 0.000000000000000000e+00 0.000000000000000000e+00
-3.790487409299999833e+00 5.832551541019999775e+01 2.988406866176999870e+02 0.000000000000000000e+00 0.000000000000000000e+00 0.000000000000000000e+00
-2.174162080499999927e+00 4.861542200000000236e+01 3.121213759198000162e+02 0.000000000000000000e+00 0.000000000000000000e+00 0.000000000000000000e+00
-1.125717458300000029e+00 5.975119216169999703e+01 3.018541877560999751e+02 0.000000000000000000e+00 0.000000000000000000e+00 0.000000000000000000e+00
8.557962153000000516e-01 6.151605356609999831e+01 2.996092456015999801e+02 0.000000000000000000e+00 0.000000000000000000e+00 0.000000000000000000e+00
-9.584271369999999846e-02 5.975795431689999759e+01 3.018415491351000242e+02 0.000000000000000000e+00 0.000000000000000000e+00 0.000000000000000000e+00
2.288649123899999971e+00 5.692332440509999714e+01 3.049417211603999931e+02 0.000000000000000000e+00 0.000000000000000000e+00 0.000000000000000000e+00
2.740824920900000183e+00 6.458780189750000034e+01 2.902656641048999973e+02 0.000000000000000000e+00 0.000000000000000000e+00 0.000000000000000000e+00
3.777543663999999857e-01 5.953698288740000066e+01 3.021342260989999886e+02 0.000000000000000000e+00 0.000000000000000000e+00 0.000000000000000000e+00
4.355216201100000184e+00 6.312129674439999860e+01 2.907025419412000247e+02 0.000000000000000000e+00 0.000000000000000000e+00 0.000000000000000000e+00
-2.617135597199999886e+00 6.403398720990000470e+01 2.906609018785999865e+02 0.000000000000000000e+00 0.000000000000000000e+00 0.000000000000000000e+00
-6.342558981000000484e-01 5.367179016330000252e+01 3.097438467631000094e+02 0.000000000000000000e+00 0.000000000000000000e+00 0.000000000000000000e+00
3.896644338999999957e-01 5.323860358670000181e+01 3.103219768443000248e+02 0.000000000000000000e+00 0.000000000000000000e+00 0.000000000000000000e+00
2.984047480500000127e+00 5.070296313410000266e+01 3.088119910322999999e+02 0.000000000000000000e+00 0.000000000000000000e+00 0.000000000000000000e+00
3.331501421999999990e-01 6.477133375590000242e+01 2.898260654434000116e+02 0.000000000000000000e+00 0.000000000000000000e+00 0.000000000000000000e+00
-2.225084674200000112e+00 6.115075612100000058e+01 2.992015000619999796e+02 0.000000000000000000e+00 0.000000000000000000e+00 0.000000000000000000e+00
-2.708527416399999943e+00 5.771046011100000328e+01 3.007003120470000113e+02 0.000000000000000000e+00 0.000000000000000000e+00 0.000000000000000000e+00
2.480233030599999999e+00 5.718112074399999756e+01 3.021674371253000118e+02 0.000000000000000000e+00 0.000000000000000000e+00 0.000000000000000000e+00
-1.088880192999999996e-01 5.799777313639999932e+01 3.041492866098000150e+02 0.000000000000000000e+00 0.000000000000000000e+00 0.000000000000000000e+00
2.523490653100000092e+00 6.120454300490000321e+01 2.958402307330999861e+02 0.000000000000000000e+00 0.000000000000000000e+00 0.000000000000000000e+00
3.291322837800000123e+00 5.594023288159999652e+01 3.026032698665999874e+02 0.000000000000000000e+00 0.000000000000000000e+00 0.000000000000000000e+00
4.402042449299999660e+00 5.873899564020000241e+01 2.978150923334999902e+02 0.000000000000000000e+00 0.000000000000000000e+00 0.000000000000000000e+00
-2.778046340599999997e+00 5.522622279939999856e+01 3.037908541031999903e+02 0.000000000000000000e+00 0.000000000000000000e+00 0.000000000000000000e+00
2.324329331800000009e+00 6.359883431859999803e+01 2.931675839935999761e+02 0.000000000000000000e+00 0.000000000000000000e+00 0.000000000000000000e+00
3.849379794599999904e+00 5.211317991069999778e+01 3.066488156556999911e+02 0.000000000000000000e+00 0.000000000000000000e+00 0.000000000000000000e+00
2.356527571600000037e+00 6.306503284770000306e+01 2.946724615127999982e+02 0.000000000000000000e+00 0.000000000000000000e+00 0.000000000000000000e+00
2.828887345100000061e+00 5.204377732630000253e+01 3.076355533584999762e+02 0.000000000000000000e+00 0.000000000000000000e+00 0.000000000000000000e+00
4.397293739800000267e+00 4.968261954860000174e+01 3.087246527612999785e+02 0.000000000000000000e+00 0.000000000000000000e+00 0.000000000000000000e+00
2.461188308700000160e+00 5.111734157859999783e+01 3.096853199797999991e+02 0.000000000000000000e+00 0.000000000000000000e+00 0.000000000000000000e+00
2.330559801999999792e+00 6.460657606239999495e+01 2.931145881384999825e+02 0.000000000000000000e+00 0.000000000000000000e+00 0.000000000000000000e+00
2.797883137899999983e+00 4.811491691730000042e+01 3.116625650953000104e+02 0.000000000000000000e+00 0.000000000000000000e+00 0.000000000000000000e+00
2.896260662200000002e+00 5.866798116740000069e+01 2.992251590070999896e+02 0.000000000000000000e+00 0.000000000000000000e+00 0.000000000000000000e+00
-2.287469584900000186e+00 5.157866515130000096e+01 3.086846904015000064e+02 0.000000000000000000e+00 0.000000000000000000e+00 0.000000000000000000e+00
-2.156158459999999888e+00 5.511559085169999861e+01 3.056984060004999719e+02 0.000000000000000000e+00 0.000000000000000000e+00 0.000000000000000000e+00
3.072685504000000067e-01 5.029745208709999815e+01 3.138136959991999788e+02 0.000000000000000000e+00 0.000000000000000000e+00 0.000000000000000000e+00
-4.302194450900000078e+00 4.780196007290000182e+01 3.102814256231999934e+02 0.000000000000000000e+00 0.000000000000000000e+00 0.000000000000000000e+00
1.770807697600000008e+00 6.505777086359999828e+01 2.947583495543000254e+02 0.000000000000000000e+00 0.000000000000000000e+00 0.000000000000000000e+00
8.231988136000000233e-01 4.603847654230000330e+01 3.136616702691000000e+02 0.000000000000000000e+00 0.000000000000000000e+00 0.000000000000000000e+00
1.944608522400000039e+00 5.970263053730000280e+01 3.012520141842999806e+02 0.000000000000000000e+00 0.000000000000000000e+00 0.000000000000000000e+00
-1.863774008500000079e+00 5.200673840040000329e+01 3.109127776542999868e+02 0.000000000000000000e+00 0.000000000000000000e+00 0.000000000000000000e+00
-2.537740260300000106e+00 4.765808549230000324e+01 3.126321130015999756e+02 0.000000000000000000e+00 0.000000000000000000e+00 0.000000000000000000e+00
