-1.441706021099999901e+00 7.435705872099999780e+00 3.281961790894000046e+02 -2.015522454793504392e-01 3.804345597923284444e-02 9.787386718626108761e-01
-1.440742763000000037e+00 7.845998912999999853e+00 3.281791277159999822e+02 -2.003266509474802837e-01 4.359224232292319839e-02 9.787588821203238032e-01
-1.439765286599999916e+00 8.256667284100000614e+00 3.281597735355999816e+02 -1.991004340972382103e-01 4.904661979416362338e-02 9.787509623132221170e-01
-1.438773806199999949e+00 8.667705333100000686e+00 3.281381512264999856e+02 -1.978739467123490359e-01 5.440669500639497974e-02 9.787164107906638488e-01
-1.437768535700000072e+00 9.079107408000000490e+00 3.281142954667000140e+02 -1.966475265937800143e-01 5.967261186672278422e-02 9.786566965374283722e-01
-1.436749689400000030e+00 9.490867856699999550e+00 3.280882409344000052e+02 -1.954214977466500192e-01 6.484454930486255320e-02 9.785732587005968597e-01
-1.435717481399999995e+00 9.902981026999999159e+00 3.280600223078000113e+02 -1.927481427182513307e-01 6.877133837893205370e-02 9.788353571955984433e-01
-1.434672125699999912e+00 1.031544126680000062e+01 3.280296742651000272e+02 -1.900662756223961414e-01 7.273927786933172268e-02 9.790729330984895284e-01
-1.433613836499999961e+00 1.072824292399999990e+01 3.279972314843000163e+02 -1.865761911323759459e-01 7.600059497017852550e-02 9.794964188126027427e-01
-1.432542827800000085e+00 1.114138034640000008e+01 3.279627286437000180e+02 -1.827581191360302115e-01 8.026955759367224164e-02 9.798756390550673601e-01
-1.431459313900000030e+00 1.155484788200000068e+01 3.279262004212999955e+02 -1.788821137125357619e-01 8.520621492890287363e-02 9.801740102304411506e-01
-1.430363508799999961e+00 1.196863987849999944e+01 3.278876814954999759e+02 -1.752123710442738402e-01 9.049041640378659157e-02 9.803632538871053237e-01
-1.429255626600000051e+00 1.238275068389999944e+01 3.278472065441999916e+02 -1.720978931459633543e-01 9.582501364389099663e-02 9.804080180898504526e-01
-1.428135881400000029e+00 1.279717464600000021e+01 3.278048102455999810e+02 -1.698705885777450908e-01 9.951027926947547675e-02 9.804293383288575914e-01
-1.427004487400000077e+00 1.321190611279999949e+01 3.277605272779999837e+02 -1.678880027664724495e-01 1.050690907782445283e-01 9.801908511560990522e-01
-1.425861658699999923e+00 1.362693943200000035e+01 3.277143923194000195e+02 -1.685354357052947782e-01 1.086388312150292079e-01 9.796904670679708049e-01
-1.424707609299999955e+00 1.404226895160000055e+01 3.276664400480000268e+02 -1.695408237520381611e-01 1.124744710731762076e-01 9.790839608727589516e-01
-1.423542553399999910e+00 1.445788901939999960e+01 3.276167051420000007e+02 -1.710556788846148146e-01 1.166241657895098205e-01 9.783346864316037061e-01
-1.871054099400000004e+00 -1.850065982930000175e+01 3.223118398360999777e+02 -2.678661606774520587e-01 -4.480775969092870570e-01 8.529209735443957774e-01
-1.871505138599999896e+00 -1.812770120589999934e+01 3.225238506901000051e+02 -2.658874071483487422e-01 -4.446758665948861156e-01 8.553170525530374713e-01
-1.871927828200000032e+00 -1.775399421190000027e+01 3.227312699792000217e+02 -2.641874439837060828e-01 -4.397669845960782142e-01 8.583763706560362250e-01
-1.872322382299999921e+00 -1.737954449969999970e+01 3.229341323813000031e+02 -2.590499876234390597e-01 -4.335782882638417046e-01 8.630776163581657112e-01
-1.872689014899999949e+00 -1.700435772120000166e+01 3.231324725746999889e+02 -2.608182662824719000e-01 -4.268214673108295387e-01 8.659083479306779463e-01
-1.873027940200000074e+00 -1.662843952860000130e+01 3.233263252375999741e+02 -2.623924285483675845e-01 -4.208012285288392218e-01 8.683758054604638899e-01
-1.873339372200000019e+00 -1.625179557399999908e+01 3.235157250478999913e+02 -2.650926610507248760e-01 -4.140455006940924609e-01 8.707997498920310164e-01
-1.873623525099999965e+00 -1.587443150970000083e+01 3.237007066840999983e+02 -2.682625427106610227e-01 -4.071650736822893801e-01 8.730703356269221560e-01
-1.873880613100000092e+00 -1.549635298759999991e+01 3.238813048239999830e+02 -2.715904976729052733e-01 -4.004484797575682542e-01 8.751454831247408306e-01
-1.874110850199999900e+00 -1.511756565990000034e+01 3.240575541459999727e+02 -2.736453462016759097e-01 -3.934809005906507173e-01 8.776622387755641519e-01
-1.874314450500000007e+00 -1.473807517880000084e+01 3.242294893281999748e+02 -2.765022844180886064e-01 -3.864890087500105764e-01 8.798708614490040603e-01
-1.874491628099999918e+00 -1.435788719640000011e+01 3.243971450487999846e+02 -2.787438708356248518e-01 -3.790560568567613031e-01 8.823935404522045278e-01
-1.874642597300000046e+00 -1.397700736470000038e+01 3.245605559858000220e+02 -2.800767482292619293e-01 -3.712140930979402897e-01 8.853005773107778253e-01
-1.874767571900000096e+00 -1.359544133600000038e+01 3.247197568174000253e+02 -2.822850118978817990e-01 -3.641528175647512633e-01 8.875290967159701339e-01
-1.874866766300000043e+00 -1.321319476230000056e+01 3.248747822218999772e+02 -2.819752234996601992e-01 -3.551844923530721454e-01 8.912541442956700699e-01
-1.874940394500000052e+00 -1.283027329579999964e+01 3.250256668773000115e+02 -2.815971432166838317e-01 -3.462990540023737629e-01 8.948631259188544185e-01
-1.874988670600000074e+00 -1.244668258859999987e+01 3.251724454617000220e+02 -2.811863842916000333e-01 -3.374178511076438847e-01 8.983782115806886459e-01
-1.875011808700000060e+00 -1.206242829279999995e+01 3.253151526534999789e+02 -2.807433521794861497e-01 -3.285443895446728546e-01 9.017991762614019358e-01
-1.875010022999999970e+00 -1.167751606060000036e+01 3.254538231305999716e+02 -2.802684826131114915e-01 -3.196821486218016650e-01 9.051259036765505472e-01
-1.874983527499999969e+00 -1.129195154399999979e+01 3.255884915712999828e+02 -2.797622404092288129e-01 -3.108345754375022585e-01 9.083583849746732497e-01
-1.874932536400000016e+00 -1.090574039530000050e+01 3.257191926537000199e+02 -2.792251181936944993e-01 -3.020050794084094270e-01 9.114967171532971646e-01
-1.874857263700000054e+00 -1.051888826649999942e+01 3.258459610560000215e+02 -2.786576349797517671e-01 -2.931970269465425938e-01 9.145411012399605744e-01
-1.874757923600000042e+00 -1.013140080970000056e+01 3.259688314562999949e+02 -2.780603347675428827e-01 -2.844137364150421954e-01 9.174918401639312604e-01
-1.874634730299999941e+00 -9.743283677200000881e+00 3.260878385327999922e+02 -2.774337851096401186e-01 -2.756584733037666934e-01 9.203493363802542904e-01
-1.874487897799999914e+00 -9.354542520900000824e+00 3.262030169636000210e+02 -2.767785755885868726e-01 -2.669344456376847585e-01 9.231140892800060449e-01
-1.874317640199999913e+00 -8.965182993100000886e+00 3.263144014269000195e+02 -2.760953162562946872e-01 -2.582447996504234622e-01 9.257866923837525519e-01
-1.874124171600000111e+00 -8.575210745899999765e+00 3.264220266007999953e+02 -2.753846361272562770e-01 -2.495926157581518368e-01 9.283678303043801927e-01
-1.873907706200000023e+00 -8.184631431299999704e+00 3.265259271635000005e+02 -2.746471816163835733e-01 -2.409809048014665833e-01 9.308582755453399527e-01
-1.873668458100000045e+00 -7.793450701600000308e+00 3.266261377930999856e+02 -2.756298991656316311e-01 -2.337304396421512609e-01 9.324152724353190758e-01
-1.873406641299999897e+00 -7.401674208800000265e+00 3.267226931678000028e+02 -2.748439925839357145e-01 -2.252150081634203826e-01 9.347400600372662849e-01
-1.873122470099999992e+00 -7.009307605100000060e+00 3.268156279657999903e+02 -2.740331418107641026e-01 -2.167482221813862853e-01 9.369770783591935270e-01
-1.872816158400000042e+00 -6.616356542600000168e+00 3.269049768651000250e+02 -2.731980465689783921e-01 -2.083327852125868018e-01 9.391274024095243034e-01
-1.872487920500000014e+00 -6.222826673400000175e+00 3.269907745439999758e+02 -2.723394164491034775e-01 -1.999713174225108414e-01 9.411921772180573686e-01
-1.872137970400000073e+00 -5.828723649599999668e+00 3.270730556806000209e+02 -2.714579692378122910e-01 -1.916663535633127968e-01 9.431726140262056690e-01
-1.871766522299999957e+00 -5.434053123400000018e+00 3.271518549530999849e+02 -2.705978705043970423e-01 -1.835321356650072844e-01 9.450358446412108204e-01
-1.871373790200000053e+00 -5.038820746999999933e+00 3.272272070395999890e+02 -2.696751047699381121e-01 -1.753524239786483918e-01 9.468510259128070095e-01
-1.870959988300000099e+00 -4.643032172299999871e+00 3.272991466181999840e+02 -2.687317275834113506e-01 -1.672362872535217426e-01 9.485859385504786800e-01
-1.870525330700000044e+00 -4.246693051600000324e+00 3.273677083672000094e+02 -2.677684738040306822e-01 -1.591859010607125091e-01 9.502420182985747976e-01
-1.870070031500000063e+00 -3.849809036999999989e+00 3.274329269645999716e+02 -2.667860793705697509e-01 -1.512033499272120163e-01 9.518207472128715763e-01
-1.869594304800000106e+00 -3.452385780599999787e+00 3.274948370887000237e+02 -2.657852798989519538e-01 -1.432906269781722697e-01 9.533236497691842670e-01
-1.869098364799999912e+00 -3.054428934500000192e+00 3.275534734175000153e+02 -2.647668095517273223e-01 -1.354496338735539651e-01 9.547522889437446425e-01
-1.868582425400000080e+00 -2.655944150899999912e+00 3.276088706291999983e+02 -2.637313997770819873e-01 -1.276821809427525489e-01 9.561082624061582047e-01
-1.868046700999999921e+00 -2.256937081899999864e+00 3.276610634021000124e+02 -2.626015312452946171e-01 -1.201999882927053537e-01 9.573883217389169697e-01
-1.867491405500000035e+00 -1.857413379600000081e+00 3.277100864140999761e+02 -2.615334899119259870e-01 -1.125881027547185609e-01 9.586053164741896726e-01
-1.866916752999999929e+00 -1.457378696099999926e+00 3.277559743435999735e+02 -2.604506799110850590e-01 -1.050546179788658663e-01 9.597546408198128765e-01
-1.866322957800000015e+00 -1.056838683600000106e+00 3.277987618686000246e+02 -2.593538104025358004e-01 -9.760098452646438771e-02 9.608379930296003790e-01
-1.865710233900000015e+00 -6.557989941999999850e-01 3.278384836673000109e+02 -2.582435827242972604e-01 -9.022856561497499817e-02 9.618570881002973527e-01
-1.865078795400000100e+00 -2.542652799999999824e-01 3.278751744177999967e+02 -2.571206893958543627e-01 -8.293863842173659906e-02 9.628136545258116907e-01
-1.864428856400000001e+00 1.477568068000000012e-01 3.279088687984000217e+02 -2.559858134439202959e-01 -7.573239558665878501e-02 9.637094310912186490e-01
-1.863760631099999898e+00 5.502616141999999710e-01 3.279396014870999920e+02 -2.548396276145076800e-01 -6.861094682152052426e-02 9.645461638374563940e-01
-1.863074333499999957e+00 9.532434899999999711e-01 3.279674071621000166e+02 -2.536827936612049972e-01 -6.157532064858878273e-02 9.653256031450061503e-01
-1.862370177799999915e+00 1.356696782099999998e+00 3.279923205015999770e+02 -2.525159617478195950e-01 -5.462646627342962469e-02 9.660495009289387092e-01
-1.861648378099999945e+00 1.760615838299999902e+00 3.280143761836000067e+02 -2.513397699296184840e-01 -4.776525554600882101e-02 9.667196079600077763e-01
-1.860909148399999991e+00 2.164995006499999874e+00 3.280336088865000193e+02 -2.501548435426613204e-01 -4.099248500465958039e-02 9.673376713564345586e-01
-1.860152703000000018e+00 2.569828634599999884e+00 3.280500532882999778e+02 -2.474909307620276055e-01 -3.557683010689661335e-02 9.682368141886003032e-01
-1.859379255999999980e+00 2.975111070500000121e+00 3.280637440671000036e+02 -2.462968874461086699e-01 -2.897581841726120863e-02 9.687611909967330792e-01
-1.858589021300000033e+00 3.380836662100000112e+00 3.280747159012000225e+02 -2.450958785401300688e-01 -2.246514770681294279e-02 9.692385297031649305e-01
-1.857782213199999921e+00 3.786999757199999816e+00 3.280830034685999976e+02 -2.438884725417879151e-01 -1.604534304085287327e-02 9.696705419512005042e-01
-1.856959045800000041e+00 4.193594703599999640e+00 3.280886414476000255e+02 -2.426752235800549440e-01 -9.716865177276814633e-03 9.700589252161422316e-01
-1.856119733099999891e+00 4.600615849299999560e+00 3.280916645162999998e+02 -2.414566713106071627e-01 -3.480112943904363574e-03 9.704053610185277012e-01
-1.855264489400000105e+00 5.008057542200000434e+00 3.280921073527999852e+02 -2.402333406174679553e-01 2.664574382504077306e-03 9.707115133236710047e-01
-1.854393528599999952e+00 5.415914130100000001e+00 3.280900046352999766e+02 -2.390057416073022578e-01 8.716914676670415099e-03 9.709790270017489844e-01
-1.853507064900000056e+00 5.824179960899999564e+00 3.280853910418999817e+02 -2.377743694128511553e-01 1.467668056479434074e-02 9.712095264657982785e-01
-1.852605312499999934e+00 6.232849382400000415e+00 3.280783012508999832e+02 -2.365397041588182814e-01 2.054369702530585082e-02 9.714046143955623602e-01
-1.851688485399999973e+00 6.641916742500000304e+00 3.280687699402000135e+02 -2.353022110060937477e-01 2.631783899834101020e-02 9.715658705646785798e-01
-1.850756797799999909e+00 7.051376389199999650e+00 3.280568317881999860e+02 -2.340623400266784726e-01 3.199902901821875117e-02 9.716948508267020390e-01
-1.849810463799999916e+00 7.461222670299999749e+00 3.280425214730000221e+02 -2.328205264094442284e-01 3.758723486142236114e-02 9.717930861340298154e-01
-1.848849697399999936e+00 7.871449933600000115e+00 3.280258736727000155e+02 -2.315771903867409887e-01 4.308246722485929020e-02 9.718620817330009265e-01
-1.847874712799999930e+00 8.282052526999999387e+00 3.280069230653999739e+02 -2.303327373840058645e-01 4.848477742258911621e-02 9.719033164093395794e-01
-1.846885724100000070e+00 8.693024798499999761e+00 3.279857043293999936e+02 -2.290875581526514715e-01 5.379425514683042892e-02 9.719182418356252517e-01
-1.845882945500000094e+00 9.104361095799999859e+00 3.279622521426999811e+02 -2.277331221694382790e-01 5.926994362665220090e-02 9.719180515092066264e-01
-1.844866590899999936e+00 9.516055766799999205e+00 3.279366011834999881e+02 -2.264855165123651204e-01 6.439807474869486958e-02 9.718833257026221473e-01
-1.843836874700000017e+00 9.928103159500000885e+00 3.279087861300999975e+02 -2.238778332642374358e-01 6.840234113642727765e-02 9.722138836181910548e-01
-1.842794010800000049e+00 1.034049762170000086e+01 3.278788416603999849e+02 -2.205447077319908633e-01 7.169496189263993569e-02 9.727383329193026729e-01
-1.841738213299999982e+00 1.075323350130000044e+01 3.278468024527999773e+02 -2.171324230524693810e-01 7.504680207922606594e-02 9.732530443605327264e-01
-1.840669696500000008e+00 1.116630514609999913e+01 3.278127031852000073e+02 -2.130866268564402810e-01 7.806852539673955760e-02 9.739093360253421316e-01
-1.839588674300000060e+00 1.157970690400000002e+01 3.277765785359999882e+02 -2.092463131631452922e-01 8.250029443353591729e-02 9.743765605996538293e-01
-1.838495360900000097e+00 1.199343312290000085e+01 3.277384631831999968e+02 -2.055585960779559018e-01 8.723211463487021144e-02 9.747493122617675310e-01
-1.837389970500000080e+00 1.240747815069999938e+01 3.276983918050000284e+02 -2.023514367720908036e-01 9.197130398687400343e-02 9.749847051514318741e-01
-1.836272717099999952e+00 1.282183633520000043e+01 3.276563990796000212e+02 -2.002713659471426766e-01 9.605952232650567801e-02 9.750199732067386105e-01
-1.835143814899999892e+00 1.323650202430000000e+01 3.276125196850999828e+02 -1.981390919097336667e-01 1.010044729504623456e-01 9.749558947466215875e-01
-1.834003477900000068e+00 1.365146956599999939e+01 3.275667882995999776e+02 -1.985802973920745007e-01 1.040038710225415775e-01 9.745506966289654294e-01
-1.832851920400000001e+00 1.406673330789999987e+01 3.275192396013000007e+02 -1.993463347151562537e-01 1.071419375370704224e-01 9.740542305520958344e-01
-1.831689356300000071e+00 1.448228759819999922e+01 3.274699082683999904e+02 -2.005836457233541315e-01 1.104367428320199851e-01 9.734320350702364566e-01
-2.279273538099999996e+00 -1.809331358940000101e+01 3.223157669025000018e+02 -2.930768202145661583e-01 -4.377373200480808024e-01 8.499953035694038928e-01
-2.279698719499999804e+00 -1.771967237309999987e+01 3.225235897645999898e+02 -2.918634006237583733e-01 -4.341855807426719949e-01 8.522315629284589189e-01
-2.280095765300000021e+00 -1.734528843840000079e+01 3.227268557398999747e+02 -2.908712238059296129e-01 -4.297425705442094457e-01 8.548188429273747557e-01
-2.280464889700000164e+00 -1.697016743749999890e+01 3.229255995063999762e+02 -2.925572575811070108e-01 -4.232979698417576042e-01 8.574550015974414796e-01
-2.280806306700000174e+00 -1.659431502260000002e+01 3.231198557422999897e+02 -2.941486346606532187e-01 -4.175809265466459697e-01 8.597108528521192339e-01
-2.281120230600000021e+00 -1.621773684560000106e+01 3.233096591258000103e+02 -2.968486483829199662e-01 -4.110724347752360286e-01 8.619166626311344226e-01
-2.281406875300000081e+00 -1.584043855890000074e+01 3.234950443349999887e+02 -3.000092214998483220e-01 -4.044104263393425991e-01 8.639714544376366767e-01
-2.281666454999999871e+00 -1.546242581439999952e+01 3.236760460480999768e+02 -3.033221852245147621e-01 -3.978699372777268484e-01 8.658493893058095692e-01
-2.281899183899999795e+00 -1.508370426439999967e+01 3.238526989431999823e+02 -3.066542970001569501e-01 -3.914206385585689008e-01 8.676134080578408181e-01
-2.282105275899999786e+00 -1.470427956089999988e+01 3.240250376985000003e+02 -3.087327915974156234e-01 -3.839417518797400009e-01 8.702142233703049623e-01
-2.282284945399999820e+00 -1.432415735600000062e+01 3.241930969922000259e+02 -3.109762931539217234e-01 -3.764983735211657190e-01 8.726641506514193347e-01
-2.282438406299999833e+00 -1.394334330200000061e+01 3.243569115023000222e+02 -3.132940458259972916e-01 -3.692785581095321401e-01 8.749172460127433437e-01
-2.282565872700000220e+00 -1.356184305090000031e+01 3.245165159070999721e+02 -3.146600945215343170e-01 -3.614060746240891353e-01 8.777099031801489648e-01
-2.282667558900000060e+00 -1.317966225480000020e+01 3.246719448846000091e+02 -3.160991180842483983e-01 -3.538066389870895834e-01 8.802853002038716346e-01
-2.282743678900000184e+00 -1.279680656590000076e+01 3.248232331131000024e+02 -3.157977207429099598e-01 -3.450421559607883548e-01 8.838652104158832845e-01
-2.282794446700000091e+00 -1.241328163630000070e+01 3.249704152707000162e+02 -3.154611330992669882e-01 -3.362822726504253179e-01 8.873547805724559812e-01
-2.282820076600000192e+00 -1.202909311810000048e+01 3.251135260355000014e+02 -3.150436595788672633e-01 -3.274640774089628836e-01 8.907944603363067149e-01
-2.282820782699999995e+00 -1.164424666350000059e+01 3.252526000857999975e+02 -3.123060758208652254e-01 -3.184847911073875326e-01 8.950041077216658314e-01
-2.282796778999999887e+00 -1.125874792459999973e+01 3.253876720996000245e+02 -3.106117318452082943e-01 -3.093505880088721072e-01 8.987895002383403664e-01
-2.282748279599999819e+00 -1.087260255350000016e+01 3.255187767551000206e+02 -3.101311947316627293e-01 -3.006267407058895724e-01 9.019103086376524248e-01
-2.282675498700000194e+00 -1.048581620230000055e+01 3.256459487304999811e+02 -3.096180842821166235e-01 -2.919243618939669771e-01 9.049402238923146546e-01
-2.282578650500000084e+00 -1.009839452319999964e+01 3.257692227039000272e+02 -3.090729551052560642e-01 -2.832466607022151028e-01 9.078795281443174936e-01
-2.282457948899999867e+00 -9.710343168199999653e+00 3.258886333534999835e+02 -3.084963870654624518e-01 -2.745967952779184706e-01 9.107285979866086567e-01
-2.282313608099999946e+00 -9.321667789599999310e+00 3.260042153574000281e+02 -3.078889837427796206e-01 -2.659778684741720967e-01 9.134879020390878068e-01
-2.282145842299999838e+00 -8.932374039400000854e+00 3.261160033937999856e+02 -3.072513708411662714e-01 -2.573929237857696117e-01 9.161579983284743323e-01
-2.281954865499999929e+00 -8.542467569799999438e+00 3.262240321407999772e+02 -3.065841946230035697e-01 -2.488449415540001930e-01 9.187395314616380038e-01
-2.281740891900000179e+00 -8.151954032800000860e+00 3.263283362765999982e+02 -3.058881203290191308e-01 -2.403368354395093165e-01 9.212332296289045264e-01
-2.281504135600000094e+00 -7.760839080700000281e+00 3.264289504792999992e+02 -3.051638305116941563e-01 -2.318714491417389889e-01 9.236399014877713087e-01
-2.281244810600000061e+00 -7.369128365499999944e+00 3.265259094272000198e+02 -3.044120235052962808e-01 -2.234515534348505417e-01 9.259604328549699837e-01
-2.280963131100000041e+00 -6.976827539400000333e+00 3.266192477981999787e+02 -3.036334117020881851e-01 -2.150798434197246367e-01 9.281957833629160826e-01
-2.280659311299999992e+00 -6.583942254500000146e+00 3.267090002707000167e+02 -3.028287199952233166e-01 -2.067589361111935309e-01 9.303469829500294885e-01
-2.280333565099999849e+00 -6.190478162899999859e+00 3.267952015226999833e+02 -3.019986841778938835e-01 -1.984913682786947908e-01 9.324151282951563813e-01
-2.279986106800000023e+00 -5.796440916799999954e+00 3.268778862323999874e+02 -3.011440493700759946e-01 -1.902795945727338567e-01 9.344013791825381832e-01
-2.279617150500000022e+00 -5.401836168200000010e+00 3.269570890780000241e+02 -3.002655684656339585e-01 -1.821259859172517925e-01 9.363069548218031501e-01
-2.279226910199999789e+00 -5.006669569399999631e+00 3.270328447375999872e+02 -2.993640005756054712e-01 -1.740328281770721908e-01 9.381331301452147109e-01
-2.278815600000000163e+00 -4.610946772300000163e+00 3.271051878893999856e+02 -2.984401095704562468e-01 -1.660023210910704372e-01 9.398812320670901777e-01
-2.278383434199999780e+00 -4.214673429300000329e+00 3.271741532113999824e+02 -2.974946627057631354e-01 -1.580365774836919868e-01 9.415526357240074917e-01
-2.277930626799999914e+00 -3.817855192300000144e+00 3.272397753820000048e+02 -2.965137416979687357e-01 -1.504408699140090122e-01 9.431050554650771689e-01
-2.277457391900000072e+00 -3.420497713500000092e+00 3.273020890791000284e+02 -2.955285739410664081e-01 -1.426198997504644628e-01 9.446281946774229832e-01
-2.276963943600000206e+00 -3.022606645000000203e+00 3.273611289809999789e+02 -2.945241857923259210e-01 -1.348694700114758116e-01 9.460791351901762791e-01
-2.276450495999999823e+00 -2.624187639000000072e+00 3.274169297659000222e+02 -2.935013425245722729e-01 -1.271913388627153862e-01 9.474594055971917728e-01
-2.275917263300000215e+00 -2.225246347600000174e+00 3.274695261118000076e+02 -2.924608061555366012e-01 -1.195871773119814990e-01 9.487705644071204869e-01
-2.275364459600000000e+00 -1.825788422900000096e+00 3.275189526969999747e+02 -2.914033343556545197e-01 -1.120585697773964495e-01 9.500141965601623939e-01
-2.274792299000000018e+00 -1.425819517100000100e+00 3.275652441995999880e+02 -2.903296793608986515e-01 -1.046070148428678986e-01 9.511919100412186134e-01
-2.274200995500000211e+00 -1.025345282199999986e+00 3.276084352976999980e+02 -2.892405869716930811e-01 -9.723392619472580323e-02 9.523053325719803563e-01
-2.273590763400000103e+00 -6.243713704000000142e-01 3.276485606695000001e+02 -2.881367954638023865e-01 -8.994063369626556503e-02 9.533561084454043044e-01
-2.272961816600000073e+00 -2.229034337999999948e-01 3.276856549931999893e+02 -2.870190348386777446e-01 -8.272838467077854585e-02 9.543458953702464997e-01
-2.272314369400000089e+00 1.790528754000000056e-01 3.277197529467999857e+02 -2.858880258464226443e-01 -7.559834528077023774e-02 9.552763615145325460e-01
-2.271648635900000102e+00 5.814919052000000477e-01 3.277508892085999719e+02 -2.847444793221852732e-01 -6.855160207229105129e-02 9.561491825802393985e-01
-2.270964830100000054e+00 9.844080034000000090e-01 3.277790984567000123e+02 -2.835890953119201141e-01 -6.158916360585355021e-02 9.569660390768830460e-01
-2.270263166199999905e+00 1.387795517800000100e+00 3.278044153692999885e+02 -2.824225625936768735e-01 -5.471196224113453882e-02 9.577286136091711644e-01
-2.269543858200000042e+00 1.791648796400000077e+00 3.278268746245000216e+02 -2.812455578144174573e-01 -4.792085596176876017e-02 9.584385884205348649e-01
-2.268807120399999988e+00 2.195962187000000121e+00 3.278465109004000055e+02 -2.800587452009385414e-01 -4.121663034200406805e-02 9.590976429017676885e-01
-2.268053166800000131e+00 2.600730037499999980e+00 3.278633588752999799e+02 -2.788627758226354114e-01 -3.460000054758666233e-02 9.597074513739077828e-01
-2.267282211499999978e+00 3.005946695800000068e+00 3.278774532273000091e+02 -2.776582873499463533e-01 -2.807161343015192323e-02 9.602696808633098824e-01
-2.266494468599999923e+00 3.411606509799999909e+00 3.278888286343999994e+02 -2.764459034717485775e-01 -2.163204965225602044e-02 9.607859891159583610e-01
-2.265690152299999927e+00 3.817703827199999900e+00 3.278975197749999779e+02 -2.752262336992268299e-01 -1.528182587546014597e-02 9.612580226357806401e-01
-2.264869476599999931e+00 4.224232996099999582e+00 3.279035613271000216e+02 -2.739998729518583476e-01 -9.021396978918246046e-03 9.616874149217687906e-01
-2.264032655699999896e+00 4.631188364199999796e+00 3.279069879689000118e+02 -2.727674014201214026e-01 -2.851158304125829025e-03 9.620757847585809097e-01
-2.263179903799999781e+00 5.038564279400000068e+00 3.279078343785000129e+02 -2.715293842382291434e-01 3.228552077749320855e-03 9.624247346918560764e-01
-2.262311434799999965e+00 5.446355089699999930e+00 3.279061352341000202e+02 -2.702863714829182307e-01 9.217451090989866452e-03 9.627358495381704850e-01
-2.261427462899999963e+00 5.854555142899999787e+00 3.279019252137999842e+02 -2.690388978340645387e-01 1.511530837120139692e-02 9.630106951145843697e-01
-2.260528202300000178e+00 6.263158786800000044e+00 3.278952389959000016e+02 -2.677874826709512601e-01 2.092194398966087943e-02 9.632508169653674068e-01
-2.259613867000000109e+00 6.672160369300000227e+00 3.278861112583999784e+02 -2.665326299534862553e-01 2.663722617566029877e-02 9.634577392661000106e-01
-2.258684671100000152e+00 7.081554238399999868e+00 3.278745766795000236e+02 -2.652748281648206752e-01 3.226106906689964193e-02 9.636329638222146388e-01
-2.257740828799999822e+00 7.491334741800000252e+00 3.278606699374000186e+02 -2.640145504291137035e-01 3.779343046645826376e-02 9.637779691273764548e-01
-2.256782554199999957e+00 7.901496227500000025e+00 3.278444257102000279e+02 -2.626402652386842229e-01 4.304638041352101124e-02 9.639331409432132514e-01
-2.255810061400000066e+00 8.312033043299999591e+00 3.278258786760000021e+02 -2.613749663747867436e-01 4.839362337017944632e-02 9.640234354877915690e-01
-2.254823564500000099e+00 8.722939537100000251e+00 3.278050635130999808e+02 -2.601085160938189089e-01 5.364951219507899105e-02 9.640878018607544897e-01
-2.253823277700000016e+00 9.134210056800000643e+00 3.277820148994999840e+02 -2.588331820161088870e-01 5.844394409452090267e-02 9.641523164345413566e-01
-2.252809414900000196e+00 9.545838950300000292e+00 3.277567675134000069e+02 -2.562068675011411889e-01 6.239846918151461391e-02 9.646058635987325713e-01
-2.251782190400000161e+00 9.957820565400000490e+00 3.277293560330999753e+02 -2.535869152762815215e-01 6.639694482831516587e-02 9.650311508537565697e-01
-2.250741818299999863e+00 1.037014924990000075e+01 3.276998151366000229e+02 -2.502707410046551839e-01 6.972370481327591629e-02 9.656620325890894474e-01
-2.249688512600000134e+00 1.078281935190000063e+01 3.276681795019999868e+02 -2.479624713299271865e-01 7.360343836592450617e-02 9.659695371349287241e-01
-2.248622487500000044e+00 1.119582521909999961e+01 3.276344838076000201e+02 -2.442711587183665212e-01 7.736546966779714318e-02 9.666158415427854589e-01
-2.247543957199999998e+00 1.160916119940000080e+01 3.275987627315000168e+02 -2.405594438943185198e-01 8.150304185902110254e-02 9.672064971457662308e-01
-2.246453135599999928e+00 1.202282164070000015e+01 3.275610509517999844e+02 -2.369684013738040940e-01 8.592244624734365899e-02 9.677103440499208453e-01
-2.245350236999999805e+00 1.243680089090000074e+01 3.275213831466999750e+02 -2.338083845777819414e-01 9.034971015012507878e-02 9.680757042591847661e-01
-2.244235475300000004e+00 1.285109329780000031e+01 3.274797939943999836e+02 -2.317314184036996239e-01 9.415727087462567868e-02 9.682122484590099942e-01
-2.243109064900000060e+00 1.326569320930000018e+01 3.274363181728999734e+02 -2.296129692166371250e-01 9.873315260942200355e-02 9.682611470793012209e-01
-2.241971219699999907e+00 1.368059497329999985e+01 3.273909903605999716e+02 -2.301109968398180328e-01 1.014669531200796809e-01 9.678602102359166182e-01
-2.240822153899999947e+00 1.409579293760000063e+01 3.273438452354000106e+02 -2.309752338905902980e-01 1.042739737655337118e-01 9.673558702588886948e-01
-2.239662081600000132e+00 1.451128145020000026e+01 3.272949174756000161e+02 -2.323813641522026463e-01 1.071454161911060826e-01 9.667051056987318036e-01
-2.687694296600000143e+00 -1.730641666780000065e+01 3.224912597957999765e+02 -3.207911915111789636e-01 -4.242391836755140533e-01 8.468259127371878803e-01
-2.688065912799999957e+00 -1.693136144449999847e+01 3.226904071353999939e+02 -3.228579193893085231e-01 -4.189823893847071101e-01 8.486557142169539603e-01
-2.688409821600000082e+00 -1.655557480719999930e+01 3.228850669444000232e+02 -3.217878820054103084e-01 -4.131667383085501077e-01 8.519071577055482569e-01
-2.688726237200000035e+00 -1.617906240789999828e+01 3.230752739010000028e+02 -3.245904053265845635e-01 -4.069416730372088509e-01 8.538381248899586939e-01
-2.689015373700000211e+00 -1.580182989869999943e+01 3.232610626833999845e+02 -3.277889167886570698e-01 -4.005288022619424848e-01 8.556466002907581192e-01
-2.689277445200000116e+00 -1.542388293189999970e+01 3.234424679695999885e+02 -3.311043400141918114e-01 -3.941821862232297580e-01 8.573157645162259310e-01
-2.689512665900000155e+00 -1.504522715939999955e+01 3.236195244378000098e+02 -3.344075787161234770e-01 -3.879584545197871659e-01 8.588712411437693373e-01
-2.689721249699999817e+00 -1.466586823349999946e+01 3.237922667661999867e+02 -3.372462799694151414e-01 -3.808753345438906646e-01 8.609291063629279650e-01
-2.689903410899999958e+00 -1.428581180629999992e+01 3.239607296328999837e+02 -3.395405531294301005e-01 -3.733942873659701900e-01 8.633011751080965634e-01
-2.690059363600000086e+00 -1.390506352989999961e+01 3.241249477161999835e+02 -3.419263579023452126e-01 -3.662091871342989524e-01 8.654346867500015694e-01
-2.690189321900000152e+00 -1.352362905640000079e+01 3.242849556940000184e+02 -3.433714872996562195e-01 -3.583915299539602306e-01 8.681310574831899718e-01
-2.690293499800000099e+00 -1.314151403790000039e+01 3.244407882447000020e+02 -3.449087499988611749e-01 -3.507967687168009885e-01 8.706202279019681356e-01
-2.690372111499999885e+00 -1.275872412670000067e+01 3.245924800463000111e+02 -3.446638811912683398e-01 -3.421248642023244080e-01 8.741609613204606166e-01
-2.690425371199999915e+00 -1.237526497470000031e+01 3.247400657769999839e+02 -3.441936278672044769e-01 -3.332539588763272498e-01 8.777656551887111913e-01
-2.690453492900000132e+00 -1.199114223409999980e+01 3.248835801148999849e+02 -3.433138519580793968e-01 -3.243214972133977025e-01 8.814483339929606309e-01
-2.690456690700000042e+00 -1.160636155709999962e+01 3.250230577382999968e+02 -3.429596469973289485e-01 -3.156776622456500259e-01 8.847182003839350051e-01
-2.690435178700000041e+00 -1.122092859580000024e+01 3.251585333251999828e+02 -3.425697412599653102e-01 -3.070491181780592993e-01 8.879002260384647460e-01
-2.690389171200000096e+00 -1.083484900230000036e+01 3.252900415538999823e+02 -3.421446430119703397e-01 -2.984390430152542573e-01 8.909944898047074124e-01
-2.690318882100000142e+00 -1.044812842870000047e+01 3.254176171024000155e+02 -3.416848901651934334e-01 -2.898505743494556031e-01 8.940011635239020205e-01
-2.690224525600000138e+00 -1.006077252719999926e+01 3.255412946489000205e+02 -3.411688827830391957e-01 -2.812502086459494066e-01 8.969404180642006619e-01
-2.690106315800000036e+00 -9.672786949900000764e+00 3.256611088715999927e+02 -3.406434995809689004e-01 -2.727174193447319261e-01 8.997706459866204876e-01
-2.689964466799999787e+00 -9.284177348900000126e+00 3.257770944485999962e+02 -3.400852738284501631e-01 -2.642154257521797667e-01 9.025143851039839626e-01
-2.689799192799999794e+00 -8.894949376299999599e+00 3.258892860581000264e+02 -3.394948461603426448e-01 -2.557471584481592619e-01 9.051721606281631916e-01
-2.689610707800000000e+00 -8.505108684299999666e+00 3.259977183781999770e+02 -3.388728789879695280e-01 -2.473154874983059526e-01 9.077445794549697800e-01
-2.689399225899999912e+00 -8.114660925000000802e+00 3.261024260871000138e+02 -3.382200549903026654e-01 -2.389232191959291263e-01 9.102323273381421886e-01
-2.689164961399999942e+00 -7.723611750499999928e+00 3.262034438628999737e+02 -3.375370754290342168e-01 -2.305730930120981903e-01 9.126361659991613084e-01
-2.688908128200000025e+00 -7.331966812900000185e+00 3.263008063839000101e+02 -3.355541136482094178e-01 -2.218402349682923880e-01 9.155273600297137992e-01
-2.688628940500000120e+00 -6.939731764400000280e+00 3.263945483279999848e+02 -3.348111945020524338e-01 -2.135766419631651147e-01 9.177616695220210952e-01
-2.688327612400000177e+00 -6.546912257099999799e+00 3.264847043735999819e+02 -3.340404090911456292e-01 -2.053631438477921956e-01 9.199146613915720749e-01
-2.688004358000000149e+00 -6.153513943100000105e+00 3.265713091987000212e+02 -3.332425164744143298e-01 -1.972021891057237908e-01 9.219873761748097474e-01
-2.687659391499999995e+00 -5.759542474599999906e+00 3.266543974815999718e+02 -3.324182859332879270e-01 -1.890961477158095150e-01 9.239809143571177108e-01
-2.687292926900000101e+00 -5.365003503699999676e+00 3.267340039003000243e+02 -3.315458847339363690e-01 -1.811559358045708168e-01 9.258832827299353641e-01
-2.686905178399999983e+00 -4.969902682399999883e+00 3.268101631330000032e+02 -3.283717725163916579e-01 -1.728261584905574910e-01 9.286027665023617317e-01
-2.686496360100000036e+00 -4.574245663000000128e+00 3.268829098577999730e+02 -3.274685435407272416e-01 -1.648941150897026975e-01 9.303624475440197550e-01
-2.686066686000000203e+00 -4.178038097600000000e+00 3.269522787529999732e+02 -3.265422661389392744e-01 -1.570258217341313767e-01 9.320477668733332388e-01
-2.685616370400000008e+00 -3.781285638199999966e+00 3.270183044966000239e+02 -3.255937365430456865e-01 -1.492232398959810746e-01 9.336600791502677188e-01
-2.685145627199999829e+00 -3.383993937000000063e+00 3.270810217668999940e+02 -3.246237522283928478e-01 -1.414882469885262728e-01 9.352007781504854123e-01
-2.684654670700000079e+00 -2.986168646199999888e+00 3.271404652419000172e+02 -3.236331105273980713e-01 -1.338226362857894980e-01 9.366712933510252803e-01
-2.684143714999999819e+00 -2.587815417799999906e+00 3.271966695999000194e+02 -3.226226074382192999e-01 -1.262281170858616242e-01 9.380730865059088153e-01
-2.683612973999999873e+00 -2.188939904000000158e+00 3.272496695190000082e+02 -3.238010195864279295e-01 -1.182505886810003015e-01 9.387063960533058582e-01
-2.683062662100000217e+00 -1.789547756900000008e+00 3.272994996772000036e+02 -3.227557677000267300e-01 -1.108149273870172036e-01 9.399727476286618977e-01
-2.682492993199999898e+00 -1.389644628699999940e+00 3.273461947528999758e+02 -3.216929731408376125e-01 -1.034549612156674958e-01 9.411751707475464190e-01
-2.681904181600000214e+00 -9.892361713999999751e-01 3.273897894241000017e+02 -3.206134158025548686e-01 -9.617206047408352609e-02 9.423152192295245477e-01
-2.681296441200000213e+00 -5.883280372000000424e-01 3.274303183690000196e+02 -3.195178686185655703e-01 -8.896751535712814352e-02 9.433944630135522313e-01
-2.680669986199999855e+00 -1.869258782000000063e-01 3.274678162658000247e+02 -3.184070964700833062e-01 -8.184253712567091110e-02 9.444144852946315671e-01
-2.680025030799999985e+00 2.149646534000000109e-01 3.275023177926000244e+02 -3.172818555077145386e-01 -7.479825945189338965e-02 9.453768796350741077e-01
-2.679361789000000105e+00 6.173379055000000060e-01 3.275338576275000264e+02 -3.161428921137093839e-01 -6.783573983861808376e-02 9.462832473242493991e-01
-2.678680475000000172e+00 1.020188226099999929e+00 3.275624704487000258e+02 -3.149909422320362751e-01 -6.095596119213390895e-02 9.471351947356394518e-01
-2.677981302900000138e+00 1.423509962900000092e+00 3.275881909344000178e+02 -3.149325297375649702e-01 -5.366850201728765035e-02 9.475954799408438101e-01
-2.677264486699999946e+00 1.827297463899999919e+00 3.276110537627000099e+02 -3.137551909432441666e-01 -4.696064349187008963e-02 9.483419099243681760e-01
-2.676530240700000007e+00 2.231545076899999813e+00 3.276310936117000097e+02 -3.125669864891842953e-01 -4.033804005798691250e-02 9.490388408707783885e-01
-2.675778778799999813e+00 2.636247149799999967e+00 3.276483451596999998e+02 -3.113686053366177542e-01 -3.380139043982516994e-02 9.496878737854157482e-01
-2.675010315300000219e+00 3.041398030499999905e+00 3.276628430847999880e+02 -3.101607230579473962e-01 -2.735132800620614438e-02 9.502906033043094780e-01
-2.674225064199999835e+00 3.446992066800000032e+00 3.276746220650999817e+02 -3.089440012437769112e-01 -2.098842278904541891e-02 9.508486158186874038e-01
-2.673423239699999954e+00 3.853023606599999873e+00 3.276837167786999885e+02 -3.077190872931744869e-01 -1.471318354624489080e-02 9.513634876036554111e-01
-2.672605055800000073e+00 4.259486997899999849e+00 3.276901619038999911e+02 -3.064866139551718494e-01 -8.526059856143347951e-03 9.518367831564522596e-01
-2.671770726700000154e+00 4.666376588400000358e+00 3.276939921187999971e+02 -3.051567286065747786e-01 -2.587753791856640950e-03 9.522986267534183646e-01
-2.670920466500000146e+00 5.073686726000000036e+00 3.276952421015000141e+02 -3.039093369339436190e-01 3.419150363712295231e-03 9.526948222464317606e-01
-2.670054489300000000e+00 5.481411758700000192e+00 3.276939465303000247e+02 -3.026561950604444995e-01 9.336944895321644747e-03 9.530540640758823345e-01
-2.669173009200000113e+00 5.889546034200000335e+00 3.276901400831000046e+02 -3.013978746681925669e-01 1.516539532076781674e-02 9.533778537024351074e-01
-2.668276240299999991e+00 6.298083900499999999e+00 3.276838574382999809e+02 -3.001349317863425403e-01 2.090431556114961606e-02 9.536676739370621991e-01
-2.667364396800000037e+00 6.707019705399999587e+00 3.276751332738999736e+02 -2.988679068758569035e-01 2.655356579723446367e-02 9.539249878177510356e-01
-2.666437692700000195e+00 7.116347796900000411e+00 3.276640022680999778e+02 -2.975973246102126546e-01 3.211305033341979587e-02 9.541512376888304781e-01
-2.665496342199999980e+00 7.526062522700000201e+00 3.276504990990999886e+02 -2.963432325670123380e-01 3.734848941299962616e-02 9.543509725726172510e-01
-2.664540559399999786e+00 7.936158230800000268e+00 3.276346584450000137e+02 -2.950677335705258475e-01 4.272390968489016977e-02 9.545206651229669603e-01
-2.663570558400000010e+00 8.346629268999999240e+00 3.276165149839000037e+02 -2.937901585090684775e-01 4.800954458409117942e-02 9.546635147485443840e-01
-2.662586553300000158e+00 8.757469985200000195e+00 3.275961033940999982e+02 -2.925109689980807115e-01 5.320545365045276781e-02 9.547808715708824279e-01
-2.661588758200000182e+00 9.168674727300000882e+00 3.275734583536000173e+02 -2.912306112356750076e-01 5.831173015204318966e-02 9.548740614374079394e-01
-2.660577387200000032e+00 9.580237843100000816e+00 3.275486145406999867e+02 -2.886134001594598542e-01 6.229413564467679160e-02 9.554170533922229369e-01
-2.659552654500000113e+00 9.992153680599999532e+00 3.275216066333999834e+02 -2.859465061717265111e-01 6.625294009364832148e-02 9.559524797484079128e-01
-2.658514774099999922e+00 1.040441658750000009e+01 3.274924693099999899e+02 -2.829749161369612964e-01 6.983844256418236807e-02 9.565813027534506574e-01
-2.657463960199999864e+00 1.081702091190000026e+01 3.274612372486000140e+02 -2.796437469954737853e-01 7.328274091519904054e-02 9.573029899933912512e-01
-2.656400426899999889e+00 1.122996100139999953e+01 3.274279451273000063e+02 -2.760480000780491383e-01 7.680279195900330258e-02 9.580703694406853543e-01
-2.655324388299999949e+00 1.164323120409999923e+01 3.273926276241999744e+02 -2.724399633987770741e-01 8.065066476569571208e-02 9.587867002707770592e-01
-2.654236058600000003e+00 1.205682586780000065e+01 3.273553194177000023e+02 -2.689375869811697073e-01 8.475116188625300695e-02 9.594216043365273450e-01
-2.653135651699999986e+00 1.247073934039999976e+01 3.273160551857000087e+02 -2.658362243393945223e-01 8.884563302581370559e-02 9.599153896678696007e-01
-2.652023381899999865e+00 1.288496596969999963e+01 3.272748696064999763e+02 -2.638150682852063444e-01 9.233045063033140654e-02 9.601441025346513225e-01
-2.650899463200000028e+00 1.329950010359999979e+01 3.272317973582000263e+02 -2.617821243384095276e-01 9.649432409784916564e-02 9.602910833667929191e-01
-2.649764109799999989e+00 1.371433608999999976e+01 3.271868731188999959e+02 -2.625791659676680045e-01 9.890650231019480765e-02 9.598279457280285420e-01
-3.095837710600000126e+00 -1.651219844639999934e+01 3.226218334604000120e+02 -3.522449550362340975e-01 -4.092338242770322543e-01 8.416954132696203850e-01
-3.096156618000000194e+00 -1.613575182470000158e+01 3.228124439901000073e+02 -3.550726835423283489e-01 -4.032359287699361916e-01 8.434003646851813141e-01
-3.096448246300000040e+00 -1.575858509320000067e+01 3.229986363456000049e+02 -3.583631710846928997e-01 -3.971656246930717060e-01 8.448877464919730684e-01
-3.096712809600000060e+00 -1.538070390400000065e+01 3.231804452049000247e+02 -3.616600613661620778e-01 -3.908470145045455646e-01 8.464281489089946486e-01
-3.096950522000000205e+00 -1.500211390920000021e+01 3.233579052462000050e+02 -3.649453268421452568e-01 -3.845419128204167203e-01 8.479047267827294343e-01
-3.097161597699999991e+00 -1.462282076089999983e+01 3.235310511476999977e+02 -3.703103654908667663e-01 -3.768014953798046740e-01 8.490529231382242248e-01
-3.097346250699999803e+00 -1.424283011129999998e+01 3.236999175875999981e+02 -3.726302516189193836e-01 -3.693106067276431537e-01 8.513262425985004267e-01
-3.097504695100000038e+00 -1.386214761249999938e+01 3.238645392439000261e+02 -3.737948711264073576e-01 -3.618855686589363962e-01 8.540001343770332598e-01
-3.097637145100000211e+00 -1.348077891660000027e+01 3.240249507949000076e+02 -3.753166428438063917e-01 -3.541021313955891592e-01 8.565915585304091362e-01
-3.097743814899999837e+00 -1.309872967569999958e+01 3.241811869186000195e+02 -3.769585704780591406e-01 -3.465472121633069169e-01 8.589570803509212205e-01
-3.097824918400000183e+00 -1.271600554209999956e+01 3.243332822933999751e+02 -3.767788190579178242e-01 -3.379904595373767195e-01 8.624385026023788647e-01
-3.097880669799999875e+00 -1.233261216770000068e+01 3.244812715972000206e+02 -3.765600072268285303e-01 -3.294400713553576887e-01 8.658358968896519015e-01
-3.097911283200000199e+00 -1.194855520479999988e+01 3.246251895081999805e+02 -3.763025513074312323e-01 -3.208991952588737262e-01 8.691490645232989865e-01
-3.097916972799999780e+00 -1.156384030539999941e+01 3.247650707047000083e+02 -3.760069024635031565e-01 -3.123709531727741351e-01 8.723778979970397973e-01
-3.097897952699999902e+00 -1.117847312169999974e+01 3.249009498647000100e+02 -3.757198277309826140e-01 -3.036560506362558365e-01 8.755727348209241256e-01
-3.097854436900000064e+00 -1.079245930579999957e+01 3.250328616665000254e+02 -3.753471531278544382e-01 -2.951676578531049477e-01 8.786299382540568859e-01
-3.097786639599999781e+00 -1.040580450979999938e+01 3.251608407881000176e+02 -3.749378755237996463e-01 -2.867011781161052930e-01 8.816030988855112493e-01
-3.097694774899999892e+00 -1.001851438589999965e+01 3.252849219076999816e+02 -3.743087715383782155e-01 -2.781027774203050362e-01 8.846195728902580546e-01
-3.097579056899999905e+00 -9.630594586200000862e+00 3.254051397035000264e+02 -3.738300632057195427e-01 -2.696899560987541244e-01 8.874223410659998201e-01
-3.097439699700000215e+00 -9.242050762799999930e+00 3.255215288535999889e+02 -3.733166122842018764e-01 -2.613079055033350473e-01 8.901420591760098588e-01
-3.097276917399999885e+00 -8.852888567800000885e+00 3.256341240361999780e+02 -3.721962096751673110e-01 -2.526772071185202639e-01 8.930980967991277719e-01
-3.097090924200000206e+00 -8.463113653400000658e+00 3.257429599294999889e+02 -3.715866130263331124e-01 -2.443082675989328711e-01 8.956767605573040525e-01
-3.096881934099999789e+00 -8.072731671699999723e+00 3.258480712114999847e+02 -3.684944209925655190e-01 -2.359563728507266256e-01 8.991865500598205108e-01
-3.096650161299999926e+00 -7.681748274800000331e+00 3.259494925604000173e+02 -3.678456531932934315e-01 -2.277158150943412174e-01 9.015736703024989085e-01
-3.096395819900000124e+00 -7.290169114900000302e+00 3.260472586545000127e+02 -3.671658498605434584e-01 -2.195197619574661418e-01 9.038806961133327711e-01
-3.096119123999999889e+00 -6.897999844000000103e+00 3.261414041717000032e+02 -3.664557639760037677e-01 -2.113707142470956091e-01 9.061084892039342753e-01
-3.095820287700000062e+00 -6.505246114300000215e+00 3.262319637904000160e+02 -3.657172134833939769e-01 -2.032591812982129098e-01 9.082602187588764142e-01
-3.095499525100000149e+00 -6.111913578000000236e+00 3.263189721887000019e+02 -3.649484054311858960e-01 -1.952164845476009047e-01 9.103313602936633497e-01
-3.095157050400000109e+00 -5.718007887099999742e+00 3.264024640445999808e+02 -3.641516814354907039e-01 -1.872278919271095909e-01 9.123262954624490328e-01
-3.094793077599999886e+00 -5.323534693700000098e+00 3.264824740363999922e+02 -3.644590065490700970e-01 -1.787743713242495869e-01 9.138978918363276360e-01
-3.094407820799999875e+00 -4.928499650100000018e+00 3.265590368421999869e+02 -3.636073941062691328e-01 -1.709043418755218924e-01 9.157408852286454959e-01
-3.094001494300000044e+00 -4.532908408299999969e+00 3.266321871402000170e+02 -3.627302500280578657e-01 -1.630948422654598107e-01 9.175112196267616316e-01
-3.093574311999999882e+00 -4.136766620500000435e+00 3.267019596083999886e+02 -3.618283956747589958e-01 -1.553478349729078833e-01 9.192101295420216367e-01
-3.093126488099999793e+00 -3.740079938700000106e+00 3.267683889251999858e+02 -3.609026557999346352e-01 -1.476652031497048545e-01 9.208388897170398657e-01
-3.092658236800000182e+00 -3.342854015099999909e+00 3.268315097685999717e+02 -3.599538572034871597e-01 -1.400487503799485722e-01 9.223988119036941047e-01
-3.092169772000000094e+00 -2.945094501899999884e+00 3.268913568167000108e+02 -3.576846393530633827e-01 -1.320691101473500384e-01 9.244562990838212091e-01
-3.091661307999999941e+00 -2.546807051200000060e+00 3.269479647477999720e+02 -3.566916488033122223e-01 -1.245860002324832849e-01 9.258776356625354476e-01
-3.091133058900000119e+00 -2.147997315000000018e+00 3.270013682398999890e+02 -3.556781577795679050e-01 -1.171741619065176376e-01 9.272342011919306737e-01
-3.090585238700000126e+00 -1.748670945500000018e+00 3.270516019712999878e+02 -3.546449869404239008e-01 -1.098350807425406833e-01 9.285274300074857212e-01
-3.090018061599999921e+00 -1.348833594900000099e+00 3.270987006200999758e+02 -3.535929525812288032e-01 -1.025701641144422804e-01 9.297587780270888391e-01
-3.089431741699999900e+00 -9.484909151999999510e-01 3.271426988645000051e+02 -3.525228654027025010e-01 -9.538074201699875410e-02 9.309297199147497093e-01
-3.088826493200000023e+00 -5.476485585999999461e-01 3.271836313824999820e+02 -3.514403266919774449e-01 -8.831830559864159436e-02 9.320351783440480320e-01
-3.088202529999999779e+00 -1.463121773000000125e-01 3.272215328523000153e+02 -3.503372572738568391e-01 -8.128945691480278513e-02 9.330894010545444095e-01
-3.087560066300000017e+00 2.555125766999999937e-01 3.272564379521999740e+02 -3.492185530273629879e-01 -7.433962672224825319e-02 9.340878021472455162e-01
-3.086899316399999815e+00 6.578200511999999778e-01 3.272883813601999918e+02 -3.480849918133759324e-01 -6.746984426557864345e-02 9.350319024445422622e-01
-3.086220494099999989e+00 1.060604594199999973e+00 3.273173977545999946e+02 -3.469373413407187967e-01 -6.068106769435621661e-02 9.359232282654951218e-01
-3.085523813800000070e+00 1.463860553399999986e+00 3.273435218134000024e+02 -3.457763585246719784e-01 -5.397418562616756316e-02 9.367633090441842558e-01
-3.084809489399999993e+00 1.867582276800000107e+00 3.273667882148000103e+02 -3.446027886689917996e-01 -4.735001877819353805e-02 9.375536751371936761e-01
-3.084077735100000162e+00 2.271764112200000074e+00 3.273872316369000259e+02 -3.433533128722375261e-01 -4.094499950845979092e-02 9.383133855780335653e-01
