1.746431000000000111e+01 5.757827999999999946e+00 7.754675299999999538e+01
1.778100200000000086e+01 5.756761000000000017e+00 7.762652599999999836e+01
1.809899700000000067e+01 5.755745000000000111e+00 7.769876100000000463e+01
1.842441699999999827e+01 5.754990000000000272e+00 7.773227699999999629e+01
1.875352699999999828e+01 5.754362999999999673e+00 7.774665099999999995e+01
1.907916600000000074e+01 5.753618999999999595e+00 7.777842699999999354e+01
1.924094799999999950e+01 5.753212000000000437e+00 7.779943799999999499e+01
1.940298299999999898e+01 5.752816000000000152e+00 7.781906100000000492e+01
1.956563799999999986e+01 5.752439999999999998e+00 7.783546400000000176e+01
1.989233799999999874e+01 5.751737999999999573e+00 7.786105299999999829e+01
2.021756399999999942e+01 5.750988000000000433e+00 7.789371500000000026e+01
2.053927600000000098e+01 5.750124999999999709e+00 7.794344300000000203e+01
2.086195599999999928e+01 5.749297000000000324e+00 7.798789999999999623e+01
2.119160499999999914e+01 5.748700999999999617e+00 7.799769600000000480e+01
2.152671799999999891e+01 5.748283999999999949e+00 7.798068200000000161e+01
2.169333599999999862e+01 5.748045000000000293e+00 7.797680699999999376e+01
2.201929900000000018e+01 5.747330999999999968e+00 7.800436399999999537e+01
2.233835399999999893e+01 5.746394999999999698e+00 7.806497199999999737e+01
2.265576400000000135e+01 5.745409999999999684e+00 7.813290399999999636e+01
2.296934100000000001e+01 5.744308000000000192e+00 7.821849799999999675e+01
2.328663399999999939e+01 5.743329000000000129e+00 7.828559099999999660e+01
2.361565399999999926e+01 5.742726000000000219e+00 7.829647799999999336e+01
2.394845600000000019e+01 5.742244000000000348e+00 7.828940599999999961e+01
2.411455499999999930e+01 5.741992999999999903e+00 7.828730000000000189e+01
2.444758200000000059e+01 5.741516999999999982e+00 7.827922800000000336e+01
2.477832599999999985e+01 5.740969999999999906e+00 7.828184500000000412e+01
-1.784998500000000021e+01 5.730425000000000324e+00 6.490831799999999419e+01
-1.768517299999999892e+01 5.729580000000000339e+00 6.499748999999999910e+01
-1.735638000000000147e+01 5.727847999999999828e+00 6.518231199999999603e+01
-1.702850199999999958e+01 5.726077000000000083e+00 6.537332899999999825e+01
-1.670061899999999966e+01 5.724332999999999672e+00 6.556008099999999672e+01
-1.653633699999999962e+01 5.723495999999999917e+00 6.564812499999999318e+01
-1.637191999999999936e+01 5.722673999999999594e+00 6.573368800000000078e+01
-1.604283099999999962e+01 5.721066999999999680e+00 6.589926900000000387e+01
-1.571271100000000054e+01 5.719554999999999723e+00 6.605008700000000488e+01
-1.554738399999999920e+01 5.718825999999999965e+00 6.612140700000000493e+01
-1.521810499999999955e+01 5.717287999999999926e+00 6.627645099999999445e+01
-1.489173699999999911e+01 5.715574000000000154e+00 6.645900699999999972e+01
-1.456599499999999914e+01 5.713842999999999783e+00 6.664433300000000315e+01
-1.423953599999999931e+01 5.712184999999999846e+00 6.681843600000000549e+01
-1.407637800000000006e+01 5.711359999999999992e+00 6.690488399999999558e+01
-1.391312899999999964e+01 5.710545999999999900e+00 6.698952500000000043e+01
-1.341866599999999998e+01 5.708442999999999934e+00 6.719075800000000243e+01
-1.308824700000000085e+01 5.707112000000000407e+00 6.731380500000000211e+01
-1.276328900000000033e+01 5.705452000000000190e+00 6.748850299999999436e+01
-1.243992500000000057e+01 5.703713999999999729e+00 6.767544599999999377e+01
-1.211453799999999958e+01 5.702125999999999806e+00 6.783913400000000138e+01
-1.178825299999999920e+01 5.700612999999999708e+00 6.799105799999999533e+01
-1.162515800000000077e+01 5.699860000000000149e+00 6.806639900000000409e+01
-1.146204299999999954e+01 5.699113999999999791e+00 6.814082299999999748e+01
-1.113579299999999961e+01 5.697636000000000145e+00 6.828739899999999352e+01
-1.097284299999999924e+01 5.696893000000000207e+00 6.836131299999999555e+01
-1.064773800000000037e+01 5.695373000000000019e+00 6.851448100000000352e+01
-1.032499900000000004e+01 5.693732999999999933e+00 6.868669900000000439e+01
-1.000293899999999958e+01 5.692073999999999856e+00 6.886200700000000552e+01
-9.677979000000000553e+00 5.690602000000000160e+00 6.900786600000000703e+01
-9.355893000000000015e+00 5.688983999999999597e+00 6.917694899999999336e+01
-9.196433999999999997e+00 5.688092000000000148e+00 6.927455100000000243e+01
-9.036094999999999544e+00 5.687255000000000393e+00 6.936344900000000280e+01
-8.709452999999999889e+00 5.685932000000000208e+00 6.948620599999999570e+01
-8.380972999999999118e+00 5.684725000000000250e+00 6.959071400000000551e+01
-8.218083000000000027e+00 5.684051000000000187e+00 6.965406799999999521e+01
-7.892851000000000283e+00 5.682684000000000069e+00 6.978387499999999477e+01
-7.567095000000000127e+00 5.681359999999999744e+00 6.990695999999999799e+01
-7.244362999999999886e+00 5.679886999999999908e+00 7.005369600000000219e+01
-6.924509999999999721e+00 5.678275000000000183e+00 7.022226000000000568e+01
-6.601332000000000200e+00 5.676858000000000182e+00 7.036019899999999438e+01
-6.276462000000000430e+00 5.675544999999999618e+00 7.048182699999999556e+01
-6.115285000000000082e+00 5.674827999999999761e+00 7.055229199999999423e+01
-5.955013000000000112e+00 5.674066999999999972e+00 7.062962299999999516e+01
-5.794959999999999667e+00 5.673297999999999952e+00 7.070812999999999704e+01
-5.473505000000000287e+00 5.671844000000000108e+00 7.085226400000000524e+01
-5.149648000000000003e+00 5.670526999999999873e+00 7.097469300000000203e+01
-4.824723999999999791e+00 5.669278000000000262e+00 7.108662400000000048e+01
-4.662785999999999653e+00 5.668631000000000419e+00 7.114610299999999654e+01
-4.501631999999999856e+00 5.667946999999999846e+00 7.121133399999999369e+01
-4.180913000000000324e+00 5.666511999999999993e+00 7.135280600000000106e+01
-4.020389999999999908e+00 5.665807000000000038e+00 7.142143199999999581e+01
-3.859510000000000218e+00 5.665123000000000353e+00 7.148672500000000696e+01
-3.537523999999999891e+00 5.663777999999999757e+00 7.161404400000000692e+01
-3.216393000000000058e+00 5.662404000000000437e+00 7.174600999999999829e+01
-2.898219999999999796e+00 5.660898999999999681e+00 7.189858999999999867e+01
-2.739059000000000133e+00 5.660155999999999743e+00 7.197344999999999970e+01
-2.415099000000000107e+00 5.658951000000000064e+00 7.207881899999999575e+01
-2.089428999999999981e+00 5.657836999999999783e+00 7.216976900000000228e+01
-1.770799000000000012e+00 5.656399999999999650e+00 7.231184399999999357e+01
-1.612406000000000006e+00 5.655643999999999672e+00 7.238894700000000171e+01
-1.453559000000000045e+00 5.654912000000000383e+00 7.246212800000000698e+01
-1.136061999999999905e+00 5.653450000000000308e+00 7.260832999999999515e+01
-9.777069999999999927e-01 5.652707000000000370e+00 7.268350999999999829e+01
-8.186400000000000343e-01 5.651998999999999995e+00 7.275295300000000509e+01
-4.956510000000000082e-01 5.650815999999999839e+00 7.285517099999999857e+01
-1.693530000000000035e-01 5.649792999999999843e+00 7.293209799999999632e+01
1.549030000000000129e-01 5.648685000000000400e+00 7.302251400000000103e+01
3.158839999999999981e-01 5.648081999999999603e+00 7.307540099999999939e+01
6.352010000000000156e-01 5.646766999999999648e+00 7.319876899999999864e+01
7.937939999999999996e-01 5.646066000000000251e+00 7.326730299999999829e+01
9.523880000000000123e-01 5.645368999999999637e+00 7.333535799999999938e+01
1.272628000000000092e+00 5.644116000000000355e+00 7.344876899999999864e+01
1.596681999999999935e+00 5.643042000000000336e+00 7.353418000000000632e+01
1.757824000000000053e+00 5.642468000000000039e+00 7.358255800000000590e+01
1.917583999999999955e+00 5.641837999999999909e+00 7.364010600000000295e+01
2.235942000000000096e+00 5.640532999999999575e+00 7.376197799999999916e+01
2.556712000000000096e+00 5.639343000000000217e+00 7.386582199999999432e+01
2.876011999999999791e+00 5.638099999999999667e+00 7.397817999999999472e+01
3.193620000000000125e+00 5.636795000000000222e+00 7.410037199999999302e+01
3.353393000000000068e+00 5.636186999999999614e+00 7.415438799999999731e+01
3.513590999999999909e+00 5.635599000000000025e+00 7.420521499999999548e+01
3.673651000000000000e+00 5.635008000000000017e+00 7.425662199999999302e+01
3.992666999999999966e+00 5.633785999999999738e+00 7.436569199999999569e+01
4.309568999999999761e+00 5.632487000000000243e+00 7.448718999999999824e+01
4.626246000000000080e+00 5.631187999999999860e+00 7.460858199999999840e+01
4.947481999999999935e+00 5.630085000000000228e+00 7.469891400000000203e+01
5.269922000000000217e+00 5.629038999999999682e+00 7.478033399999999631e+01
7.512425999999999604e+00 5.621336000000000332e+00 7.541183499999999640e+01
8.637765999999999167e+00 5.617770000000000152e+00 7.568286899999999662e+01
9.749031999999999698e+00 5.613756000000000412e+00 7.602578699999999401e+01
1.103400300000000023e+01 5.609821000000000168e+00 7.631432300000000168e+01
1.135903099999999988e+01 5.608986999999999945e+00 7.636261700000000019e+01
1.215157999999999916e+01 5.606208999999999776e+00 7.659432999999999936e+01
1.375949800000000067e+01 5.601562999999999626e+00 7.691273499999999785e+01
1.408452300000000079e+01 5.600766000000000133e+00 7.695541400000000465e+01
1.440315299999999965e+01 5.599753999999999898e+00 7.703250099999999634e+01
1.503538999999999959e+01 5.597577000000000247e+00 7.721127300000000560e+01
1.713020699999999863e+01 5.591973999999999556e+00 7.755741100000000188e+01
1.857441299999999984e+01 5.587991999999999848e+00 7.781417799999999829e+01
1.873865299999999934e+01 5.587673999999999808e+00 7.782276899999999387e+01
1.906214500000000100e+01 5.586882000000000126e+00 7.786505900000000224e+01
2.231793400000000105e+01 5.579735000000000333e+00 7.816401700000000119e+01
-1.588516399999999962e+01 5.547741000000000255e+00 6.605466499999999996e+01
-1.538956899999999983e+01 5.545639999999999681e+00 6.627159899999999482e+01
-1.489806699999999928e+01 5.543326999999999671e+00 6.652493300000000431e+01
-1.342548200000000058e+01 5.536546999999999663e+00 6.725875100000000373e+01
-1.293313599999999930e+01 5.534461000000000297e+00 6.747410600000000613e+01
-1.244828700000000055e+01 5.531981000000000037e+00 6.775670599999999411e+01
-1.049451799999999935e+01 5.523314000000000057e+00 6.867596399999999335e+01
-7.737643000000000271e+00 5.511459000000000330e+00 6.991130099999999459e+01
-7.091537999999999897e+00 5.508696999999999733e+00 7.019807400000000541e+01
-6.447189999999999976e+00 5.505906999999999663e+00 7.049000499999999647e+01
-4.995962999999999710e+00 5.499901999999999624e+00 7.110114299999999332e+01
-3.387872000000000217e+00 5.493332999999999799e+00 7.176448800000000006e+01
-2.587571000000000065e+00 5.489995999999999654e+00 7.210581200000000024e+01
-2.261665999999999954e+00 5.488936999999999955e+00 7.219516000000000133e+01
-2.100147000000000208e+00 5.488348000000000226e+00 7.225009199999999510e+01
-1.623793000000000042e+00 5.486239999999999561e+00 7.247338899999999740e+01
-1.465141000000000027e+00 5.485538000000000025e+00 7.254771399999999915e+01
-9.887329999999999730e-01 5.483470999999999762e+00 7.276412200000000041e+01
-8.288459999999999717e-01 5.482834999999999681e+00 7.282730899999999963e+01
-3.429300000000000126e-01 5.481205000000000105e+00 7.296896399999999971e+01
-1.804179999999999950e-01 5.480688999999999922e+00 7.301161199999999951e+01
3.048969999999999736e-01 5.479059000000000346e+00 7.315354899999999816e+01
4.655630000000000046e-01 5.478473000000000148e+00 7.320803800000000194e+01
7.846929999999999739e-01 5.477219999999999978e+00 7.333137499999999420e+01
9.435599999999999543e-01 5.476568999999999576e+00 7.339729300000000478e+01
1.424973999999999963e+00 5.474825000000000053e+00 7.355887599999999793e+01
1.587053000000000047e+00 5.474313999999999680e+00 7.360085300000000075e+01
2.067649999999999988e+00 5.472564000000000206e+00 7.376373300000000199e+01
2.226795000000000080e+00 5.471943999999999697e+00 7.382448599999999317e+01
2.706440000000000179e+00 5.470183999999999713e+00 7.398934199999999350e+01
2.865266000000000091e+00 5.469560000000000421e+00 7.405067400000000077e+01
3.342649999999999899e+00 5.467740000000000045e+00 7.422617300000000284e+01
3.502920000000000034e+00 5.467181000000000068e+00 7.427629899999999452e+01
3.822680000000000078e+00 5.466041999999999845e+00 7.438069900000000700e+01
3.982006999999999852e+00 5.465453000000000117e+00 7.443603500000000395e+01
4.457582000000000377e+00 5.463611000000000217e+00 7.461558499999999583e+01
4.617020000000000124e+00 5.463035999999999781e+00 7.466871600000000342e+01
5.100887000000000171e+00 5.461530999999999914e+00 7.479023700000000474e+01
5.261337000000000153e+00 5.461001999999999690e+00 7.483561699999999917e+01
5.742371999999999588e+00 5.459412000000000376e+00 7.497201499999999896e+01
5.903999999999999915e+00 5.458931999999999896e+00 7.500875899999999774e+01
6.391652999999999807e+00 5.457602999999999760e+00 7.510016600000000153e+01
6.552324999999999733e+00 5.457094999999999807e+00 7.514202899999999374e+01
7.024776000000000131e+00 5.455233999999999916e+00 7.532550000000000523e+01
7.181962999999999653e+00 5.454607000000000205e+00 7.538774100000000544e+01
7.499676000000000009e+00 5.453479999999999883e+00 7.549050900000000297e+01
7.660111999999999810e+00 5.452975999999999601e+00 7.553172299999999950e+01
8.142979000000000411e+00 5.451526000000000316e+00 7.564437100000000669e+01
8.783855000000000857e+00 5.449511000000000216e+00 7.580908999999999764e+01
8.942489999999999384e+00 5.448955999999999911e+00 7.585915400000000375e+01
9.419204000000000576e+00 5.447328999999999866e+00 7.600273900000000538e+01
9.577680000000000859e+00 5.446774999999999700e+00 7.605257400000000700e+01
1.005177199999999971e+01 5.445079999999999920e+00 7.620816800000000057e+01
1.020994400000000013e+01 5.444524000000000363e+00 7.625859800000000632e+01
1.069202899999999978e+01 5.443118000000000123e+00 7.636415100000000677e+01
1.118273399999999995e+01 5.442010999999999932e+00 7.641819800000000384e+01
1.134502499999999969e+01 5.441600000000000215e+00 7.644333600000000217e+01
1.182422099999999965e+01 5.440122999999999820e+00 7.656161500000000331e+01
1.198090700000000020e+01 5.439532999999999952e+00 7.661788900000000524e+01
1.245309499999999936e+01 5.437845000000000262e+00 7.677282700000000659e+01
1.261331700000000033e+01 5.437376999999999683e+00 7.680802199999999402e+01
1.341598600000000019e+01 5.435106000000000215e+00 7.697235100000000330e+01
1.374395799999999923e+01 5.434425000000000061e+00 7.699872600000000489e+01
1.422699000000000069e+01 5.433125000000000426e+00 7.708653999999999940e+01
1.438544699999999921e+01 5.432614000000000054e+00 7.712941700000000367e+01
1.486145100000000063e+01 5.431108000000000047e+00 7.725321999999999889e+01
1.501995900000000006e+01 5.430603999999999765e+00 7.729490699999999492e+01
1.549680099999999960e+01 5.429140000000000299e+00 7.741155200000000036e+01
1.565601000000000020e+01 5.428662000000000099e+00 7.744862399999999525e+01
1.614342299999999852e+01 5.427534999999999776e+00 7.750676699999999641e+01
1.631008900000000139e+01 5.427287999999999890e+00 7.750375400000000070e+01
1.679729299999999981e+01 5.426160999999999568e+00 7.756189700000000187e+01
1.727563900000000174e+01 5.424775999999999598e+00 7.766521500000000344e+01
1.743613600000000119e+01 5.424347000000000030e+00 7.769383999999999446e+01
1.791183900000000051e+01 5.422895999999999717e+00 7.780867800000000045e+01
1.807136200000000059e+01 5.422442000000000206e+00 7.784164400000000228e+01
1.856125300000000067e+01 5.421420999999999601e+00 7.788174399999999764e+01
1.872456899999999891e+01 5.421082000000000178e+00 7.789486700000000496e+01
1.920494100000000159e+01 5.419788999999999746e+00 7.798220799999999997e+01
1.936472699999999847e+01 5.419349999999999667e+00 7.801272600000000068e+01
1.985253300000000110e+01 5.418281999999999599e+00 7.806108100000000150e+01
2.115002600000000044e+01 5.415360999999999869e+00 7.820266700000000526e+01
2.165350499999999911e+01 5.414746000000000059e+00 7.817182900000000245e+01
2.181679000000000102e+01 5.414413999999999838e+00 7.818371600000000399e+01
2.213685999999999865e+01 5.413572000000000273e+00 7.823873899999999537e+01
2.229625300000000010e+01 5.413134999999999586e+00 7.826914999999999623e+01
2.277440800000000110e+01 5.411826999999999721e+00 7.835960400000000448e+01
2.293332499999999996e+01 5.411380000000000301e+00 7.839170799999999417e+01
2.341756399999999871e+01 5.410248000000000168e+00 7.845150800000000402e+01
2.358128699999999967e+01 5.409933999999999799e+00 7.846030399999999361e+01
2.407342900000000085e+01 5.409021000000000079e+00 7.848182699999999556e+01
2.423931299999999922e+01 5.408765999999999963e+00 7.848030099999999720e+01
2.473784099999999953e+01 5.408025000000000304e+00 7.847165699999999333e+01
-1.785792400000000058e+01 5.384681999999999746e+00 6.499832899999999825e+01
-1.752761699999999934e+01 5.383220999999999812e+00 6.516681699999999466e+01
-1.736320900000000123e+01 5.382451999999999792e+00 6.525814800000000560e+01
-1.687262899999999988e+01 5.380018999999999885e+00 6.555585499999999399e+01
-1.670987500000000026e+01 5.379172999999999760e+00 6.566155200000000036e+01
-1.605657799999999824e+01 5.375988999999999685e+00 6.604786699999999655e+01
-1.556139199999999967e+01 5.373966000000000243e+00 6.627052299999999718e+01
-1.506800999999999924e+01 5.371877999999999709e+00 6.650530999999999437e+01
-1.474081400000000031e+01 5.370409999999999684e+00 6.667588000000000648e+01
-1.441400199999999998e+01 5.368941000000000408e+00 6.684693900000000610e+01
-1.425065700000000035e+01 5.368210000000000370e+00 6.693177799999999422e+01
-1.359619700000000009e+01 5.365393000000000079e+00 6.725166299999999353e+01
-1.310304499999999983e+01 5.363451999999999664e+00 6.746017500000000666e+01
-1.261753299999999989e+01 5.361138000000000403e+00 6.773785399999999868e+01
-1.229316700000000040e+01 5.359656000000000198e+00 6.791175800000000606e+01
-1.196722699999999939e+01 5.358274999999999899e+00 6.806711599999999862e+01
-1.180462200000000017e+01 5.357573000000000363e+00 6.814718600000000492e+01
-1.115344600000000064e+01 5.354840000000000266e+00 6.845284999999999798e+01
-1.066472199999999937e+01 5.352848999999999968e+00 6.867149399999999559e+01
-1.017644499999999930e+01 5.350869000000000320e+00 6.888824499999999773e+01
-1.001398299999999963e+01 5.350202000000000346e+00 6.896190599999999904e+01
-9.528600000000000847e+00 5.348124999999999574e+00 6.919700600000000179e+01
-9.368786999999999310e+00 5.347343999999999653e+00 6.929179399999999589e+01
-8.887852999999999781e+00 5.345101999999999798e+00 6.955789199999999539e+01
-8.560394999999999754e+00 5.343951999999999813e+00 6.967128800000000410e+01
-8.233601999999999421e+00 5.342781999999999698e+00 6.978848999999999592e+01
-7.745443999999999996e+00 5.340953999999999979e+00 6.997804999999999609e+01
-7.582848000000000255e+00 5.340343999999999980e+00 7.004120600000000252e+01
-6.939045000000000130e+00 5.337639000000000244e+00 7.034407799999999611e+01
-6.455161999999999622e+00 5.335693000000000019e+00 7.055606099999999969e+01
-6.292887000000000342e+00 5.335093999999999781e+00 7.061741600000000574e+01
-5.648573999999999984e+00 5.332518000000000313e+00 7.089695000000000391e+01
-5.326990000000000336e+00 5.331223999999999741e+00 7.103797900000000709e+01
-5.165613999999999706e+00 5.330606999999999651e+00 7.110293599999999969e+01
-4.678893999999999664e+00 5.328883000000000258e+00 7.127401700000000062e+01
-4.517703000000000024e+00 5.328268999999999700e+00 7.133847799999999495e+01
-4.037598000000000020e+00 5.326298000000000421e+00 7.155608399999999847e+01
-3.877505000000000202e+00 5.325649000000000299e+00 7.162703700000000140e+01
-3.398044000000000064e+00 5.323687999999999754e+00 7.184295699999999840e+01
-3.238233999999999835e+00 5.323039999999999772e+00 7.191391000000000133e+01
-2.918877000000000166e+00 5.321742000000000417e+00 7.205620600000000309e+01
-2.111193999999999793e+00 5.318922999999999845e+00 7.233288600000000201e+01
-6.762439999999999563e-01 5.313253999999999699e+00 7.294287900000000491e+01
4.546009999999999773e-01 5.309554000000000329e+00 7.328573599999999999e+01
2.217629000000000072e+00 5.303412999999999933e+00 7.388713099999999656e+01
3.013148999999999855e+00 5.300493999999999595e+00 7.418518799999999658e+01
3.971262999999999987e+00 5.297183999999999671e+00 7.450692700000000457e+01
4.769871000000000194e+00 5.294487000000000165e+00 7.476431999999999789e+01
6.053944000000000436e+00 5.290474999999999817e+00 7.511933100000000252e+01
6.857326999999999728e+00 5.288045000000000329e+00 7.532698100000000352e+01
7.013823000000000363e+00 5.287425999999999959e+00 7.539370700000000625e+01
7.969190000000000218e+00 5.284288000000000096e+00 7.568555499999999370e+01
8.291626000000000829e+00 5.283381999999999579e+00 7.575631699999999569e+01
9.087201999999999558e+00 5.280808000000000391e+00 7.599236299999999744e+01
1.019870099999999979e+01 5.277195999999999998e+00 7.632470700000000363e+01
1.051778299999999966e+01 5.276225000000000165e+00 7.640836299999999426e+01
1.165133699999999983e+01 5.273373000000000310e+00 7.659781599999999457e+01
1.291927500000000073e+01 5.269351999999999592e+00 7.695904500000000326e+01
1.356579699999999988e+01 5.267741000000000007e+00 7.706425500000000284e+01
1.436910699999999963e+01 5.265606000000000009e+00 7.721887999999999863e+01
1.580392499999999956e+01 5.261510999999999605e+00 7.754602099999999609e+01
1.612937499999999957e+01 5.260797000000000168e+00 7.758158899999999392e+01
1.629495400000000060e+01 5.260519999999999641e+00 7.758413699999999835e+01
1.662188300000000041e+01 5.259848999999999997e+00 7.761141200000000140e+01
1.774095200000000006e+01 5.256832000000000171e+00 7.783464100000000485e+01
1.983455700000000022e+01 5.251748000000000083e+00 7.815145900000000267e+01
2.015995600000000110e+01 5.251062000000000118e+00 7.818187000000000353e+01
2.047973800000000111e+01 5.250231999999999566e+00 7.823979900000000498e+01
2.080115899999999840e+01 5.249448000000000114e+00 7.828905500000000472e+01
2.275619500000000173e+01 5.245465000000000266e+00 7.844738800000000367e+01
2.291637800000000169e+01 5.245066999999999702e+00 7.847323599999999999e+01
2.455187799999999854e+01 5.241946999999999690e+00 7.856751300000000526e+01
-1.736728499999999897e+01 5.209769999999999790e+00 6.530366499999999519e+01
-1.638888199999999884e+01 5.205104000000000397e+00 6.591841100000000608e+01
-1.573252899999999954e+01 5.202322999999999809e+00 6.626197100000000262e+01
-1.507449800000000018e+01 5.199703999999999660e+00 6.657325699999999813e+01
-1.458261700000000083e+01 5.197696999999999790e+00 6.681541400000000408e+01
-1.392834599999999945e+01 5.195001000000000424e+00 6.714289100000000587e+01
-1.327264000000000088e+01 5.192440999999999640e+00 6.744291699999999423e+01
-1.262410999999999994e+01 5.189594999999999736e+00 6.780191800000000057e+01
-1.181181400000000004e+01 5.186211000000000126e+00 6.821570599999999729e+01
-1.148727099999999979e+01 5.184866999999999670e+00 6.837932600000000605e+01
-1.116082399999999986e+01 5.183627999999999680e+00 6.852188900000000160e+01
-1.083426799999999979e+01 5.182407000000000430e+00 6.866078199999999754e+01
-1.067105800000000038e+01 5.181797999999999682e+00 6.872989699999999402e+01
-1.034420700000000082e+01 5.180608999999999575e+00 6.886224400000000401e+01
-1.001817400000000013e+01 5.179396999999999807e+00 6.899967200000000389e+01
-5.977189000000000085e+00 5.163814999999999600e+00 7.081114999999999782e+01
-5.655681000000000402e+00 5.162577999999999889e+00 7.095465900000000659e+01
-5.333776000000000295e+00 5.161368999999999652e+00 7.109265100000000359e+01
-5.172270000000000145e+00 5.160790000000000433e+00 7.115634199999999510e+01
-4.847774000000000250e+00 5.159697999999999674e+00 7.127032499999999970e+01
-4.524703999999999837e+00 5.158560999999999730e+00 7.139382899999999665e+01
-4.364645999999999582e+00 5.157937999999999690e+00 7.146655300000000466e+01
-4.205092999999999748e+00 5.157300000000000217e+00 7.154267900000000679e+01
-3.886146999999999796e+00 5.156025999999999776e+00 7.169441199999999981e+01
-3.726697999999999844e+00 5.155391999999999975e+00 7.176959200000000294e+01
-3.567127999999999854e+00 5.154766000000000403e+00 7.184324599999999350e+01
-3.247180999999999873e+00 5.153552999999999606e+00 7.198265100000000416e+01
-2.927182000000000173e+00 5.152351999999999599e+00 7.211953699999999401e+01
-2.605536999999999992e+00 5.151222999999999885e+00 7.224185199999999440e+01
-2.282229000000000063e+00 5.150164000000000186e+00 7.234980000000000189e+01
-2.121777999999999942e+00 5.149593000000000309e+00 7.241220099999999604e+01
-1.802843999999999891e+00 5.148387999999999742e+00 7.255028500000000236e+01
-1.483146999999999993e+00 5.147221000000000046e+00 7.268069500000000005e+01
-1.163470999999999922e+00 5.146061999999999692e+00 7.280934899999999743e+01
-8.436059999999999670e-01 5.144919999999999938e+00 7.293476099999999462e+01
-5.238450000000000051e-01 5.143782999999999994e+00 7.305911299999999642e+01
-2.031380000000000130e-01 5.142688999999999844e+00 7.317488099999999918e+01
1.200409999999999949e-01 5.141688000000000258e+00 7.327133200000000102e+01
4.439029999999999920e-01 5.140717999999999677e+00 7.336157199999999534e+01
7.666560000000000041e-01 5.139715999999999951e+00 7.345834399999999675e+01
9.267830000000000235e-01 5.139174999999999827e+00 7.351499900000000309e+01
1.086411000000000016e+00 5.138619000000000270e+00 7.357474499999999296e+01
1.246339000000000086e+00 5.138075999999999866e+00 7.363198900000000435e+01
1.568594000000000044e+00 5.137075000000000280e+00 7.372866799999999898e+01
1.890241999999999978e+00 5.136061999999999905e+00 7.382818600000000231e+01
2.049376000000000086e+00 5.135500999999999650e+00 7.388902299999999457e+01
2.207660000000000178e+00 5.134915000000000340e+00 7.395526099999999303e+01
2.524700000000000166e+00 5.133764000000000216e+00 7.408318300000000534e+01
2.843421000000000198e+00 5.132678000000000296e+00 7.419805100000000664e+01
3.162929000000000102e+00 5.131624000000000407e+00 7.430611399999999378e+01
3.482670000000000154e+00 5.130584999999999951e+00 7.441118600000000072e+01
3.801433999999999980e+00 5.129521000000000441e+00 7.452133200000000102e+01
4.119725999999999999e+00 5.128451000000000093e+00 7.463313300000000083e+01
4.278711000000000375e+00 5.127913000000000388e+00 7.468954499999999541e+01
4.598931999999999576e+00 5.126914000000000193e+00 7.478660600000000613e+01
4.923615999999999993e+00 5.126059999999999839e+00 7.485353899999999783e+01
5.244599000000000011e+00 5.125097000000000236e+00 7.494339800000000196e+01
5.560513000000000261e+00 5.123981999999999815e+00 7.506448399999999310e+01
5.719002999999999837e+00 5.123445000000000249e+00 7.512105599999999583e+01
5.878987000000000407e+00 5.122954000000000008e+00 7.516778600000000665e+01
6.203598000000000390e+00 5.122119999999999784e+00 7.523105599999999527e+01
6.528088999999999587e+00 5.121285000000000309e+00 7.529428099999999802e+01
6.845470999999999862e+00 5.120242000000000182e+00 7.540101599999999848e+01
7.158199999999999896e+00 5.119066000000000116e+00 7.553526300000000049e+01
7.473328000000000415e+00 5.117969999999999686e+00 7.565309100000000342e+01
7.794743999999999673e+00 5.117066000000000336e+00 7.573098799999999642e+01
7.956349999999999589e+00 5.116641999999999690e+00 7.576409099999999341e+01
8.278688999999999965e+00 5.115771999999999764e+00 7.583499100000000226e+01
8.598326999999999387e+00 5.114829000000000292e+00 7.592132599999999343e+01
8.914808000000000732e+00 5.113799000000000206e+00 7.602554299999999898e+01
9.231486000000000303e+00 5.112782000000000160e+00 7.612735000000000696e+01
9.548870000000000857e+00 5.111790000000000056e+00 7.622376300000000526e+01
9.868012000000000228e+00 5.110853999999999786e+00 7.630867800000000045e+01
1.018817199999999978e+01 5.109951999999999828e+00 7.638662700000000427e+01
1.050763800000000003e+01 5.109035000000000437e+00 7.646771200000000590e+01
1.083041899999999913e+01 5.108215000000000394e+00 7.652864099999999326e+01
1.099358400000000024e+01 5.107855999999999952e+00 7.654858400000000529e+01
1.131831299999999985e+01 5.107094000000000023e+00 7.659731299999999976e+01
1.163772699999999993e+01 5.106190999999999924e+00 7.667583500000000640e+01
1.195265500000000003e+01 5.105169000000000068e+00 7.677894600000000480e+01
1.226533000000000051e+01 5.104092999999999769e+00 7.689362300000000516e+01
1.242305499999999974e+01 5.103594000000000186e+00 7.694266500000000519e+01
1.258245499999999950e+01 5.103142000000000067e+00 7.698201799999999650e+01
1.290463199999999944e+01 5.102331999999999645e+00 7.704117599999999300e+01
1.322773100000000035e+01 5.101549999999999585e+00 7.709454300000000160e+01
1.355273799999999973e+01 5.100820999999999827e+00 7.713675700000000290e+01
1.387667000000000073e+01 5.100067000000000128e+00 7.718440999999999974e+01
1.403650799999999954e+01 5.099635000000000140e+00 7.721970399999999302e+01
1.419525100000000073e+01 5.099174999999999791e+00 7.726078800000000513e+01
1.435381199999999957e+01 5.098711999999999911e+00 7.730264300000000333e+01
1.467174699999999987e+01 5.097809999999999953e+00 7.738125599999999338e+01
1.499158199999999930e+01 5.096961000000000297e+00 7.744876100000000463e+01
1.531321499999999958e+01 5.096161999999999637e+00 7.750587500000000318e+01
1.547368999999999950e+01 5.095755999999999730e+00 7.753602600000000677e+01
1.563338199999999922e+01 5.095329000000000441e+00 7.757019800000000487e+01
1.595338500000000082e+01 5.094496000000000357e+00 7.763469700000000273e+01
1.627996100000000013e+01 5.093830999999999776e+00 7.766376499999999794e+01
1.660554300000000083e+01 5.093143000000000420e+00 7.769772299999999632e+01
1.692487900000000067e+01 5.092300999999999966e+00 7.776400800000000402e+01
1.724631099999999861e+01 5.091516000000000375e+00 7.781867200000000651e+01
1.740770300000000148e+01 5.091140000000000221e+00 7.784227799999999320e+01
1.772789399999999915e+01 5.090328000000000408e+00 7.790251200000000154e+01
1.804788800000000037e+01 5.089514000000000316e+00 7.796312000000000353e+01
1.837226899999999929e+01 5.088809999999999611e+00 7.800067099999999698e+01
1.869571499999999986e+01 5.088085000000000413e+00 7.804257200000000694e+01
1.901421200000000056e+01 5.087244000000000099e+00 7.810910800000000620e+01
1.965606299999999962e+01 5.085685999999999929e+00 7.821578200000000436e+01
1.998284900000000164e+01 5.085050999999999988e+00 7.823905200000000093e+01
2.014484600000000114e+01 5.084700999999999915e+00 7.825754499999999325e+01
2.046494699999999867e+01 5.083910000000000373e+00 7.831353000000000009e+01
2.078602400000000117e+01 5.083145000000000024e+00 7.836414299999999855e+01
2.111582599999999843e+01 5.082586000000000048e+00 7.837142900000000623e+01
2.145046800000000076e+01 5.082138999999999740e+00 7.835497999999999763e+01
2.177573999999999899e+01 5.081476000000000326e+00 7.838420899999999847e+01
2.209431100000000114e+01 5.080659999999999954e+00 7.844556400000000451e+01
2.241661500000000018e+01 5.079932999999999588e+00 7.848833500000000640e+01
2.273941999999999908e+01 5.079219000000000150e+00 7.852828200000000436e+01
2.290057799999999943e+01 5.078858000000000317e+00 7.854928599999999506e+01
2.322452399999999884e+01 5.078172999999999604e+00 7.858320600000000411e+01
2.354867600000000039e+01 5.077493999999999730e+00 7.861581400000000031e+01
2.387229500000000115e+01 5.076805000000000234e+00 7.865060400000000129e+01
2.420001200000000097e+01 5.076209000000000415e+00 7.866582499999999811e+01
2.453256400000000070e+01 5.075720999999999705e+00 7.865828700000000140e+01
2.486420400000000086e+01 5.075211999999999612e+00 7.865503699999999299e+01
-1.786540000000000106e+01 5.039131000000000249e+00 6.508297000000000310e+01
-1.753612100000000140e+01 5.037789000000000073e+00 6.526236000000000104e+01
-1.737209500000000162e+01 5.037093999999999738e+00 6.535757399999999961e+01
-1.704506699999999952e+01 5.035665999999999976e+00 6.555636599999999703e+01
-1.688192599999999999e+01 5.034942000000000029e+00 6.565831000000000017e+01
-1.671880499999999969e+01 5.034220999999999613e+00 6.575935400000000186e+01
-1.639233799999999874e+01 5.032805999999999891e+00 6.595563500000000090e+01
-1.606533999999999907e+01 5.031436000000000242e+00 6.614181499999999403e+01
-1.590138199999999991e+01 5.030781000000000169e+00 6.622840899999999920e+01
-1.573710799999999921e+01 5.030145000000000088e+00 6.631063100000000077e+01
-1.540849099999999972e+01 5.028888000000000247e+00 6.647171000000000163e+01
-1.524443400000000004e+01 5.028253000000000306e+00 6.655365799999999865e+01
-1.491634299999999946e+01 5.026995000000000324e+00 6.671521799999999303e+01
-1.458746799999999944e+01 5.025788000000000366e+00 6.686522700000000441e+01
-1.425888999999999918e+01 5.024581999999999660e+00 6.701523600000000158e+01
-1.393177799999999955e+01 5.023323000000000427e+00 6.717720799999999315e+01
-1.360497299999999932e+01 5.022065999999999697e+00 6.733903499999999553e+01
-1.327747100000000025e+01 5.020853999999999928e+00 6.749063900000000160e+01
-1.311429799999999979e+01 5.020227000000000217e+00 6.757109099999999557e+01
-1.279090099999999985e+01 5.018856999999999680e+00 6.775884200000000135e+01
-1.246860399999999913e+01 5.017454999999999998e+00 6.795372799999999813e+01
-1.214349299999999943e+01 5.016191000000000066e+00 6.811753099999999961e+01
-1.018519900000000078e+01 5.009203000000000294e+00 6.896752200000000244e+01
2.513723000000000152e+00 4.965366999999999642e+00 7.415772200000000680e+01
3.632115999999999900e+00 4.961884000000000405e+00 7.453241699999999526e+01
4.428644000000000247e+00 4.959378000000000064e+00 7.480476400000000581e+01
6.515235999999999805e+00 4.953470000000000262e+00 7.537501500000000476e+01
7.461386000000000074e+00 4.950364000000000431e+00 7.572679100000000574e+01
8.584967999999999932e+00 4.947327999999999726e+00 7.600208999999999548e+01
9.695297999999999305e+00 4.944005999999999901e+00 7.634424599999999828e+01
1.098280199999999951e+01 4.940750000000000419e+00 7.661112199999999461e+01
1.114562100000000022e+01 4.940393000000000256e+00 7.663276700000000119e+01
1.353973300000000002e+01 4.933971999999999802e+00 7.720896899999999619e+01
1.513984499999999933e+01 4.929903999999999620e+00 7.754531900000000633e+01
1.691052200000000028e+01 4.925758000000000081e+00 7.783950799999999504e+01
1.915946999999999889e+01 4.920493999999999701e+00 7.821322600000000591e+01
1.931981700000000046e+01 4.920116000000000156e+00 7.824036399999999958e+01
2.077271500000000160e+01 4.916951000000000072e+00 7.843022899999999709e+01
2.110073699999999874e+01 4.916361000000000203e+00 7.844593799999999817e+01
2.143281199999999842e+01 4.915855999999999781e+00 7.844168100000000265e+01
2.175620500000000135e+01 4.915170999999999957e+00 7.847964500000000498e+01
2.418453799999999987e+01 4.910147000000000261e+00 7.873898300000000461e+01
2.468191300000000155e+01 4.909384000000000192e+00 7.873397799999999336e+01
2.484760700000000000e+01 4.909127999999999936e+00 7.873276500000000055e+01
-1.787037499999999923e+01 4.866357999999999961e+00 6.513967100000000698e+01
-1.737742000000000075e+01 4.864443999999999768e+00 6.541737399999999525e+01
-1.655886800000000036e+01 4.861204999999999998e+00 6.589367699999999672e+01
-1.590396499999999946e+01 4.858691999999999567e+00 6.625553100000000484e+01
-1.541264199999999995e+01 4.856855000000000366e+00 6.651526599999999689e+01
-1.508568900000000035e+01 4.855623999999999718e+00 6.669020100000000184e+01
-1.492180800000000040e+01 4.855031000000000319e+00 6.677202599999999677e+01
-1.475728999999999935e+01 4.854467999999999783e+00 6.684628299999999967e+01
-1.360818800000000017e+01 4.850509999999999877e+00 6.737081899999999735e+01
-1.344483699999999970e+01 4.849924999999999820e+00 6.745089000000000112e+01
-1.295678000000000019e+01 4.848111000000000281e+00 6.770624499999999557e+01
-1.263532700000000020e+01 4.846765999999999686e+00 6.791093399999999747e+01
-1.247440600000000011e+01 4.846108000000000082e+00 6.800988800000000367e+01
-1.231259099999999940e+01 4.845487999999999573e+00 6.809915200000000368e+01
-1.100715499999999913e+01 4.841051000000000215e+00 6.868072499999999536e+01
-1.051721399999999917e+01 4.839446999999999832e+00 6.888401799999999753e+01
-1.002758299999999991e+01 4.837854000000000099e+00 6.908460999999999785e+01
5.700184000000000140e+00 4.787874000000000407e+00 7.524111899999999764e+01
5.859208999999999889e+00 4.787408000000000108e+00 7.529357899999999404e+01
6.503313000000000343e+00 4.785753999999999841e+00 7.544992100000000335e+01
6.979505999999999766e+00 4.784359000000000250e+00 7.560739900000000091e+01
7.136271999999999949e+00 4.783850000000000158e+00 7.567141700000000526e+01
7.931315999999999811e+00 4.781590999999999703e+00 7.591722900000000607e+01
8.253040999999999627e+00 4.780782000000000309e+00 7.599096699999999771e+01
8.889340000000000686e+00 4.779010999999999676e+00 7.617865799999999865e+01
9.524960999999999345e+00 4.777243000000000350e+00 7.636590599999999540e+01
1.064785900000000041e+01 4.774427000000000199e+00 7.662174199999999757e+01
1.080991399999999913e+01 4.774064000000000085e+00 7.664792599999999823e+01
1.145783600000000035e+01 4.772613999999999912e+00 7.675283799999999701e+01
1.177393799999999935e+01 4.771721000000000323e+00 7.684915200000000368e+01
1.271849699999999928e+01 4.768990999999999758e+00 7.715261800000000392e+01
1.304257300000000086e+01 4.768285999999999802e+00 7.720011100000000681e+01
1.320445300000000088e+01 4.767930999999999919e+00 7.722453299999999388e+01
1.384641799999999989e+01 4.766399999999999970e+00 7.735138700000000256e+01
1.432438699999999976e+01 4.765187000000000062e+00 7.746381399999999928e+01
1.448339900000000036e+01 4.764777999999999736e+00 7.750256299999999499e+01
1.545304100000000069e+01 4.762656999999999918e+00 7.764730799999999533e+01
1.561337900000000012e+01 4.762279999999999625e+00 7.767775000000000318e+01
1.625245299999999915e+01 4.760731999999999964e+00 7.780992100000000278e+01
1.641349800000000059e+01 4.760373000000000410e+00 7.783578500000000133e+01
1.673587200000000053e+01 4.759660000000000224e+00 7.788562000000000296e+01
1.689765699999999882e+01 4.759317000000000242e+00 7.790721100000000376e+01
1.785949499999999901e+01 4.757094000000000378e+00 7.808003999999999678e+01
1.801946399999999926e+01 4.756719000000000364e+00 7.811005400000000520e+01
1.882795499999999933e+01 4.755020000000000024e+00 7.821389000000000635e+01
1.914816100000000176e+01 4.754283000000000037e+00 7.827078199999999697e+01
1.930936099999999911e+01 4.753936000000000384e+00 7.829348799999999642e+01
2.044037199999999999e+01 4.751568999999999932e+00 7.843618800000000135e+01
2.059999099999999927e+01 4.751197000000000337e+00 7.846581999999999368e+01
2.108689100000000138e+01 4.750231000000000314e+00 7.851435100000000489e+01
2.157787499999999881e+01 4.749342999999999648e+00 7.854222099999999784e+01
2.173760199999999898e+01 4.748974999999999724e+00 7.857054100000000574e+01
2.254632199999999997e+01 4.747328000000000436e+00 7.866160600000000613e+01
2.287134400000000056e+01 4.746699999999999697e+00 7.869005599999999845e+01
2.303397800000000117e+01 4.746387999999999607e+00 7.870358299999999474e+01
2.352080199999999977e+01 4.745434999999999626e+00 7.874887800000000482e+01
2.400780100000000061e+01 4.744488999999999734e+00 7.879266400000000203e+01
2.417103600000000085e+01 4.744189999999999685e+00 7.880287900000000434e+01
-1.754692500000000166e+01 4.692444000000000059e+00 6.538439200000000540e+01
-1.705456399999999917e+01 4.690671000000000035e+00 6.566163600000000145e+01
-1.639725299999999919e+01 4.688390000000000057e+00 6.600792699999999513e+01
-1.606951300000000060e+01 4.687235000000000262e+00 6.618546299999999860e+01
-1.574240400000000051e+01 4.686069999999999958e+00 6.636602000000000601e+01
-1.459725899999999932e+01 4.682108000000000381e+00 6.696578999999999837e+01
-1.426561500000000038e+01 4.681163999999999881e+00 6.708306899999999473e+01
-1.393705600000000011e+01 4.680119999999999614e+00 6.722956800000000044e+01
-1.328512100000000018e+01 4.677882999999999569e+00 6.756588000000000704e+01
-1.215591700000000053e+01 4.673689000000000426e+00 6.823678599999999506e+01
-1.166525700000000043e+01 4.672163000000000288e+00 6.844635800000000359e+01
-1.150162500000000065e+01 4.671661000000000286e+00 6.851413700000000517e+01
-1.117438399999999987e+01 4.670664000000000371e+00 6.864800300000000277e+01
-1.084850899999999996e+01 4.669632000000000005e+00 6.879216800000000376e+01
-1.035889099999999985e+01 4.668128000000000277e+00 6.899602500000000305e+01
1.015399000000000029e+01 4.608520999999999646e+00 7.658761599999999703e+01
1.031442499999999995e+01 4.608139000000000429e+00 7.662361099999999681e+01
1.112615699999999919e+01 4.606423999999999630e+00 7.674540700000000015e+01
1.192216600000000071e+01 4.604423999999999850e+00 7.695297999999999661e+01
1.223375000000000057e+01 4.603502999999999901e+00 7.707289099999999848e+01
1.270901199999999953e+01 4.602274999999999672e+00 7.720606200000000285e+01
1.287060499999999941e+01 4.601926999999999879e+00 7.723222400000000221e+01
1.351326099999999997e+01 4.600470999999999755e+00 7.735593400000000486e+01
1.431096699999999977e+01 4.598563000000000400e+00 7.753733800000000542e+01
1.447011600000000087e+01 4.598176999999999737e+00 7.757516499999999837e+01
1.495557799999999915e+01 4.597165000000000390e+00 7.764411900000000344e+01
1.592141200000000012e+01 4.595064999999999955e+00 7.780567899999999781e+01
1.608061400000000063e+01 4.594685000000000130e+00 7.784148399999999413e+01
1.721144500000000122e+01 4.592330999999999719e+00 7.800134300000000565e+01
1.752968800000000016e+01 4.591580000000000439e+00 7.807106000000000279e+01
1.816465600000000080e+01 4.590059000000000111e+00 7.821609499999999571e+01
1.832759100000000174e+01 4.589750999999999692e+00 7.823043800000000658e+01
1.962563499999999905e+01 4.587208999999999648e+00 7.836968199999999740e+01
1.994933899999999838e+01 4.586562999999999946e+00 7.840761600000000442e+01
2.010941299999999998e+01 4.586211999999999733e+00 7.843528700000000242e+01
2.091095200000000176e+01 4.584481000000000250e+00 7.856581099999999651e+01
2.204081499999999849e+01 4.582201000000000413e+00 7.870581099999999708e+01
2.285747299999999882e+01 4.580733000000000388e+00 7.875687399999999627e+01
2.302053099999999830e+01 4.580435999999999730e+00 7.876822699999999600e+01
2.334562899999999885e+01 4.579825999999999731e+00 7.879560100000000489e+01
2.448697500000000105e+01 4.577753000000000405e+00 7.887287899999999752e+01
2.481849700000000070e+01 4.577244999999999564e+00 7.886922500000000014e+01
-1.788218900000000033e+01 4.520908000000000371e+00 6.527481799999999623e+01
-1.755221699999999885e+01 4.519862999999999964e+00 6.544416800000000478e+01
-1.738744900000000015e+01 4.519338000000000299e+00 6.552989200000000380e+01
-1.722273099999999957e+01 4.518813999999999886e+00 6.561519599999999741e+01
-1.705818400000000068e+01 4.518286999999999942e+00 6.570149200000000178e+01
-1.672907999999999973e+01 4.517242000000000424e+00 6.587112399999999468e+01
-1.656438800000000100e+01 4.516727999999999632e+00 6.595296500000000606e+01
-1.639987800000000107e+01 4.516212000000000337e+00 6.603592700000000093e+01
-1.607216100000000125e+01 4.515145000000000408e+00 6.621343199999999740e+01
-1.590869999999999962e+01 4.514603000000000144e+00 6.630508399999999369e+01
-1.574528100000000030e+01 4.514063000000000159e+00 6.639620999999999640e+01
-1.541941300000000048e+01 4.512960999999999778e+00 6.658595300000000350e+01
-1.509518500000000074e+01 4.511819000000000024e+00 6.678913900000000581e+01
-1.493247399999999914e+01 4.511271999999999949e+00 6.688283500000000004e+01
-1.460285499999999992e+01 4.510316999999999688e+00 6.702339899999999773e+01
-1.426988799999999991e+01 4.509473999999999982e+00 6.712641100000000449e+01
-1.410439799999999977e+01 4.509025000000000283e+00 6.718735499999999661e+01
-1.394016099999999980e+01 4.508538999999999852e+00 6.726052900000000534e+01
-1.361407600000000073e+01 4.507503999999999955e+00 6.742888600000000565e+01
-1.345136399999999988e+01 4.506979000000000291e+00 6.751514400000000649e+01
-1.328884599999999949e+01 4.506452999999999598e+00 6.760250100000000373e+01
-1.296565200000000040e+01 4.505352000000000245e+00 6.779294600000000059e+01
-1.280509900000000023e+01 4.504775999999999669e+00 6.789711800000000608e+01
-1.248445399999999950e+01 4.503619999999999735e+00 6.810693399999999542e+01
-1.216099499999999978e+01 4.502556000000000225e+00 6.828538500000000511e+01
-1.199749199999999938e+01 4.502079000000000164e+00 6.835617799999999988e+01
-1.183332700000000060e+01 4.501623000000000374e+00 6.841992999999999370e+01
-1.150521400000000050e+01 4.500709999999999766e+00 6.854766800000000160e+01
-1.117830799999999947e+01 4.499772000000000105e+00 6.868441799999999375e+01
-1.085310600000000036e+01 4.498794000000000182e+00 6.883455700000000377e+01
-1.036479199999999956e+01 4.497357000000000049e+00 6.904990399999999795e+01
-1.004085099999999997e+01 4.496367000000000225e+00 6.920486499999999808e+01
1.511069799999999930e+01 4.430447000000000024e+00 7.770326199999999517e+01
1.527277899999999988e+01 4.430126999999999704e+00 7.772437999999999647e+01
1.559226100000000059e+01 4.429416999999999938e+00 7.779125999999999408e+01
1.575109800000000071e+01 4.429050000000000153e+00 7.782924699999999518e+01
1.590996999999999950e+01 4.428683999999999621e+00 7.786684400000000039e+01
1.622895799999999866e+01 4.427971000000000323e+00 7.793486000000000047e+01
1.655051999999999879e+01 4.427299999999999791e+00 7.798861700000000496e+01
1.687564499999999867e+01 4.426681999999999562e+00 7.802314800000000616e+01
1.720092599999999905e+01 4.426067999999999891e+00 7.805649599999999566e+01
1.767292199999999980e+01 4.424917999999999907e+00 7.818811800000000289e+01
1.782899300000000054e+01 4.424517999999999951e+00 7.823804499999999962e+01
1.814858600000000166e+01 4.423827000000000176e+00 7.829891200000000140e+01
1.831237000000000137e+01 4.423540000000000028e+00 7.830870099999999923e+01
1.864181500000000113e+01 4.422991999999999813e+00 7.831858099999999467e+01
1.896742100000000164e+01 4.422390000000000043e+00 7.834777800000000525e+01
1.929103100000000026e+01 4.421762000000000192e+00 7.838671899999999937e+01
1.961466599999999971e+01 4.421134999999999593e+00 7.842513300000000243e+01
1.993607499999999888e+01 4.420478000000000129e+00 7.847425800000000606e+01
2.025519200000000097e+01 4.419789999999999885e+00 7.853426399999999319e+01
2.057582999999999984e+01 4.419126000000000332e+00 7.858615100000000098e+01
2.089948100000000153e+01 4.418504000000000431e+00 7.862269600000000480e+01
2.106229400000000140e+01 4.418207999999999913e+00 7.863597099999999784e+01
2.138657800000000009e+01 4.417596999999999774e+00 7.866889199999999960e+01
2.170553800000000066e+01 4.416914000000000229e+00 7.872735600000000034e+01
2.202590599999999910e+01 4.416253000000000206e+00 7.877842699999999354e+01
2.235278699999999930e+01 4.415680000000000049e+00 7.879762300000000153e+01
2.268032499999999985e+01 4.415117000000000402e+00 7.881347700000000600e+01
2.300721199999999911e+01 4.414545999999999637e+00 7.883226000000000511e+01
2.333249700000000004e+01 4.413954999999999629e+00 7.885845899999999631e+01
2.365756400000000070e+01 4.413361000000000089e+00 7.888541399999999726e+01
2.382036000000000087e+01 4.413067999999999991e+00 7.889755200000000457e+01
2.414511900000000111e+01 4.412471000000000032e+00 7.892556799999999839e+01
2.447291200000000089e+01 4.411914999999999587e+00 7.893910999999999945e+01
2.480374099999999871e+01 4.411398000000000152e+00 7.893838499999999669e+01
-1.788778900000000149e+01 4.348289000000000293e+00 6.533882099999999582e+01
-1.558651700000000062e+01 4.341543999999999848e+00 6.653557600000000605e+01
-1.510017999999999994e+01 4.339980999999999867e+00 6.684122499999999434e+01
-1.444214700000000029e+01 4.338180999999999621e+00 6.713436900000000662e+01
-1.053255700000000061e+01 4.327098999999999585e+00 6.902449000000000012e+01
1.862847899999999868e+01 4.256884999999999586e+00 7.838687099999999930e+01
1.911908100000000132e+01 4.256033000000000399e+00 7.841897600000000068e+01
1.928102499999999964e+01 4.255730999999999931e+00 7.843757600000000707e+01
