-7.307826	6.239669	40.823673	108	104	122
-6.944206	6.238760	40.867203	112	108	125
-6.576401	6.238134	40.871933	111	103	117
-6.391092	6.237915	40.861553	112	103	118
-6.018896	6.237579	40.826889	113	105	122
-5.646839	6.237229	40.794006	109	105	121
-5.461946	6.236980	40.787796	111	104	122
-5.091271	6.236537	40.767700	109	103	118
-4.717567	6.236284	40.721581	109	103	116
-4.532096	6.236068	40.710743	108	104	121
-4.163082	6.235513	40.705841	105	100	116
-3.787530	6.235366	40.645355	110	105	122
-3.597771	6.235412	40.598667	107	104	121
-3.409124	6.235387	40.561726	107	103	121
-3.223201	6.235192	40.547970	101	97	123
-3.040148	6.234821	40.558342	106	96	120
-2.676471	6.233933	40.598938	103	97	116
-2.312915	6.233043	40.639847	109	101	121
-2.133005	6.232488	40.675354	107	96	116
-1.764534	6.231899	40.675102	103	93	112
-1.381356	6.232179	40.556091	102	97	113
-1.190676	6.232260	40.504574	100	97	117
-0.810904	6.232322	40.415379	103	100	121
-0.247724	6.232021	40.335163	102	97	113
0.496904	6.231245	40.279652	101	98	117
0.684305	6.231119	40.256378	101	101	114
1.062678	6.231064	40.182903	100	96	112
1.256935	6.231317	40.107773	101	98	113
1.647579	6.231929	39.942955	99	97	108
1.836903	6.231897	39.906826	102	93	115
2.205590	6.231281	39.910149	102	97	111
2.579320	6.230940	39.875778	97	92	108
2.769703	6.230959	39.832630	98	90	106
3.335601	6.230721	39.743557	99	93	105
3.518567	6.230336	39.755772	97	90	103
3.882144	6.229443	39.797024	95	87	101
4.068403	6.229235	39.785030	96	86	100
4.456785	6.229648	39.647114	91	86	98
4.654394	6.230028	39.554356	94	90	101
5.042080	6.230382	39.424370	93	88	101
5.231674	6.230335	39.390186	91	86	100
5.602547	6.229809	39.381084	90	87	102
5.966730	6.228941	39.418884	91	83	95
6.566256	6.230333	39.105640	92	87	101
6.761473	6.230555	39.034542	94	89	100
7.140667	6.230425	38.970833	88	81	102
7.331253	6.230407	38.932526	84	84	97
7.714445	6.230466	38.842922	89	88	97
8.091346	6.230207	38.796890	89	81	94
8.281734	6.230172	38.761063	91	86	94
8.476457	6.230345	38.696404	85	82	93
8.672068	6.230558	38.626228	85	82	90
8.863291	6.230556	38.585712	86	79	90
9.225210	6.229559	38.641224	87	83	93
10.413680	6.231443	38.136745	90	83	95
10.811883	6.232136	37.959541	88	83	90
11.209241	6.232773	37.789928	88	83	95
11.401731	6.232798	37.745438	86	82	94
11.769881	6.232068	37.764118	85	77	90
11.946330	6.231353	37.821629	83	76	88
13.179914	6.235003	37.072304	83	80	88
13.567527	6.235120	36.974136	82	78	85
13.760556	6.235140	36.930271	84	78	87
13.952727	6.235120	36.891926	85	81	88
14.143674	6.235044	36.861301	88	82	91
14.520261	6.234653	36.832855	86	78	92
14.707114	6.234395	36.827488	85	79	90
15.078364	6.233768	36.831635	81	78	88
15.445657	6.232971	36.859432	83	78	86
16.690147	6.236678	36.100189	80	78	88
16.899673	6.237367	35.963753	80	76	85
17.108965	6.238040	35.829460	83	78	88
17.492359	6.237886	35.768166	84	78	91
19.567478	6.243519	34.575294	81	76	83
19.943420	6.242996	34.564705	82	78	86
32.292423	6.285067	26.327637	84	84	92
32.526196	6.286256	26.119511	87	82	94
32.762726	6.287533	25.898985	89	82	94
33.211025	6.289206	25.580540	93	86	97
33.409843	6.289158	25.544424	90	87	99
35.353897	6.300720	23.590128	94	89	103
35.575794	6.301414	23.450409	94	86	98
35.796219	6.302053	23.318254	91	84	95
-72.579697	6.374725	10.203961	68	64	73
-72.164032	6.372101	10.483045	70	68	79
-71.948677	6.369843	10.755522	68	67	78
-71.731514	6.367330	11.063954	70	66	76
-71.514137	6.364753	11.381456	72	67	78
-71.296997	6.362167	11.700155	71	69	79
-71.081238	6.359717	11.999963	74	70	81
-69.394226	6.343997	13.854371	79	75	84
-69.184868	6.342102	14.076615	77	73	81
-68.972000	6.339690	14.371580	77	74	86
-68.761772	6.337606	14.620330	77	75	89
-68.553543	6.335772	14.834178	79	75	88
-68.344833	6.333838	15.061947	79	76	86
-68.136452	6.331921	15.287574	79	75	84
-67.928749	6.330070	15.503803	80	75	88
-67.721581	6.328266	15.713567	81	78	91
-67.514359	6.326425	15.928517	84	79	89
-67.306770	6.324496	16.155912	83	76	89
-67.098839	6.322484	16.395109	82	76	90
-66.890816	6.320421	16.641512	84	78	93
-66.682854	6.318330	16.891928	82	79	92
-66.475502	6.316297	17.134239	81	79	88
-66.068542	6.313353	17.460886	80	79	88
-65.242188	6.305071	18.452032	82	78	91
-64.843704	6.303189	18.629187	80	81	89
-64.641380	6.301695	18.795948	82	77	89
-64.227760	6.297032	19.365732	81	79	90
-64.026169	6.295560	19.529503	84	79	94
-63.824604	6.294063	19.696720	87	82	92
-63.622284	6.292398	19.887695	81	80	91
-63.419857	6.290679	20.086401	83	79	92
-63.217743	6.288982	20.282082	86	84	93
-63.017498	6.287606	20.432489	85	82	91
-62.818504	6.286441	20.553015	85	80	88
-59.833267	6.265480	22.858175	86	79	94
-59.635593	6.264115	23.007446	85	81	88
-56.684029	6.242328	25.437860	82	80	89
-56.297176	6.240792	25.568527	81	76	83
-53.582668	6.222928	27.494240	80	77	89
-53.390976	6.222283	27.542387	80	76	86
-53.006851	6.220487	27.710707	80	75	85
-52.814610	6.219404	27.821096	79	75	85
-52.622334	6.218234	27.944035	81	77	86
-52.430454	6.217241	28.041620	79	76	85
-50.515198	6.205216	29.317911	85	79	92
-50.324554	6.204260	29.410698	85	80	91
-49.753384	6.201764	29.636040	88	84	96
-49.182545	6.198290	30.000732	92	86	99
-48.992527	6.197217	30.110334	90	84	97
-48.802635	6.196216	30.209568	91	85	97
-48.044075	6.191827	30.661827	92	89	99
-47.665482	6.189572	30.896685	95	90	98
-47.098469	6.186165	31.252750	98	90	103
-46.721088	6.183825	31.500118	99	92	102
-46.155243	6.181221	31.742104	96	91	105
-45.966755	6.180394	31.816881	99	92	105
-45.401810	6.177841	32.051800	98	97	111
-44.275494	6.171734	32.664898	99	93	107
-44.088287	6.170615	32.781712	101	95	114
-43.713600	6.168746	32.962498	98	91	106
-43.526016	6.168026	33.022266	96	91	103
-42.776836	6.164875	33.300400	98	91	102
-41.657951	6.159004	33.881699	92	87	101
-40.350746	6.154279	34.256863	93	89	102
-39.793755	6.151481	34.528503	95	88	103
-38.496288	6.145222	35.124313	98	91	106
-38.310413	6.144561	35.176067	98	91	105
-37.383865	6.140752	35.507454	95	91	108
-36.829205	6.138358	35.722168	94	90	105
-35.718967	6.134176	36.064823	105	97	121
-35.534195	6.133466	36.123852	104	97	117
-34.060886	6.127270	36.670731	104	96	117
-33.691563	6.126029	36.763351	103	98	116
-33.141182	6.123595	36.984642	108	102	114
-32.409874	6.120098	37.316040	111	104	124
-32.226421	6.119362	37.379047	110	103	118
-31.674976	6.117390	37.534378	117	109	132
-31.306879	6.116189	37.621544	118	109	127
-30.205379	6.112333	37.919785	116	112	128
-29.836624	6.111334	37.978016	124	115	133
-28.732553	6.108140	38.181564	124	115	132
-28.009302	6.104431	38.544941	118	110	128
-27.642534	6.103306	38.621689	115	110	127
-26.366039	6.098650	38.993938	111	108	121
-25.637218	6.096058	39.197094	113	107	124
-25.085304	6.094778	39.253799	111	104	122
-24.717604	6.093908	39.293903	109	105	127
-24.534374	6.093408	39.323410	110	105	123
-23.984489	6.091949	39.405960	112	107	121
-23.434507	6.090527	39.483147	113	107	122
-22.703949	6.088388	39.621399	110	100	118
-22.341072	6.087097	39.722637	116	109	126
-22.158989	6.086524	39.762745	111	106	126
-21.425274	6.084798	39.841431	101	100	115
-21.061581	6.083642	39.923183	103	100	122
-20.880182	6.083028	39.969402	112	107	120
-20.338308	6.080993	40.135777	104	100	116
-19.052288	6.078360	40.217922	101	99	113
-18.326244	6.076110	40.372971	109	104	120
-17.774452	6.075080	40.393925	109	101	119
-17.411272	6.074001	40.464859	104	98	115
-17.231291	6.073331	40.519299	111	103	119
-16.686180	6.071775	40.616745	106	98	114
-15.037010	6.068335	40.731152	106	98	117
-14.855367	6.067833	40.761177	105	100	116
-14.150724	6.064181	41.120899	115	107	121
-13.017569	6.064524	40.813980	110	103	118
-12.464860	6.063640	40.813999	115	110	124
-11.370605	6.061089	40.928055	113	111	124
-11.190022	6.060544	40.964634	115	108	125
-10.460395	6.058887	41.034302	113	106	121
-10.089765	6.058463	41.010433	109	104	116
-9.903073	6.058342	40.985088	113	108	117
-9.353454	6.057274	41.011974	109	99	116
-8.805151	6.056126	41.050606	109	99	111
-8.069273	6.054918	41.055061	104	94	103
-7.694977	6.054721	40.997906	102	94	106
-7.509718	6.054500	40.987228	102	95	108
-6.780735	6.052857	41.055126	112	106	120
-6.411130	6.052359	41.041931	109	104	114
-6.225393	6.052167	41.026989	113	104	116
-5.665642	6.051740	40.960327	117	108	121
-5.294351	6.051336	40.933289	111	109	120
-5.108627	6.051137	40.919235	107	105	114
-4.363382	6.050475	40.843845	110	104	117
-3.990967	6.050126	40.808792	109	100	116
-3.803192	6.050041	40.778130	114	105	122
-3.242558	6.049622	40.710190	108	100	113
-2.696626	6.048358	40.765842	109	104	113
-1.965580	6.046864	40.812180	104	97	112
-1.587747	6.046802	40.734966	106	97	114
-1.397200	6.046857	40.683640	99	94	106
-0.831115	6.046706	40.576302	104	97	113
-0.268278	6.046363	40.496956	103	93	109
0.480166	6.045781	40.409386	108	98	110
0.854564	6.045493	40.365166	98	94	106
1.044625	6.045497	40.321308	101	93	104
1.628085	6.046183	40.090782	98	97	110
2.183033	6.045375	40.079380	104	97	112
2.936724	6.044991	39.962547	98	94	109
3.310204	6.044621	39.930065	95	89	101
3.491843	6.044182	39.951336	95	89	102
4.040856	6.043071	39.984505	96	91	99
4.233485	6.043174	39.925888	95	87	99
4.628777	6.043862	39.737923	93	90	100
5.396034	6.044063	39.534580	95	90	101
5.769109	6.043646	39.509048	91	89	100
5.956388	6.043472	39.491207	89	86	95
6.543875	6.044151	39.260654	96	88	99
6.923795	6.044038	39.190254	93	90	100
7.112271	6.043910	39.165569	92	83	100
8.261483	6.043957	38.897232	91	86	92
9.027546	6.043945	38.724461	91	86	96
9.386440	6.042849	38.798847	93	85	94
10.578331	6.044651	38.270824	86	81	90
10.777356	6.044954	38.182297	86	82	90
10.976984	6.045280	38.090439	87	85	93
11.560069	6.045553	37.918846	86	79	93
11.930773	6.044950	37.920227	83	77	90
13.917829	6.047488	37.106396	86	82	92
14.297036	6.047204	37.060440	83	78	91
14.486014	6.047035	37.041466	83	78	92
15.057171	6.046696	36.959679	81	78	88
16.868662	6.049512	36.146255	79	77	88
17.622141	6.048647	36.097782	82	76	88
19.928232	6.055122	34.650604	81	78	85
20.496052	6.054483	34.612350	82	75	87
30.124525	6.081555	28.564726	90	85	94
32.925938	6.094841	26.034794	86	83	91
33.558765	6.095838	25.748755	91	88	99
35.292427	6.106180	23.881279	96	94	104
35.508820	6.106637	23.766874	93	87	99
35.733929	6.107366	23.611956	90	84	97
36.157337	6.107967	23.429800	85	83	94
36.351379	6.107713	23.421885	87	87	94
-72.369713	6.173653	10.385655	69	65	73
-68.755348	6.139342	14.754296	77	76	86
-68.547729	6.137684	14.957380	79	76	91
-67.923981	6.132430	15.609282	79	75	86
-67.301788	6.127127	16.268917	81	77	86
-66.264267	6.117581	17.476454	82	77	88
-63.619862	6.097137	19.959740	84	81	91
-63.016163	6.092787	20.478090	84	81	91
-56.296310	6.048428	25.626347	77	73	81
-53.198078	6.029853	27.712765	80	74	89
-52.813717	6.027868	27.922670	79	76	87
-52.621494	6.026761	28.045233	79	74	85
-51.662941	6.021777	28.573992	80	74	86
-51.279938	6.019524	28.825235	80	76	91
-50.706005	6.015771	29.259529	83	79	90
-50.133995	6.012872	29.563490	85	83	95
-49.562920	6.010034	29.858467	85	83	95
-49.182549	6.007763	30.113173	90	86	96
-48.992584	6.006739	30.223558	90	84	98
-47.855118	6.000448	30.908535	93	88	98
-47.099060	5.996276	31.362436	96	91	103
-46.721764	5.994087	31.605391	99	93	104
-46.533199	5.993138	31.704611	98	94	103
-45.967747	5.990685	31.941938	97	94	107
-45.402870	5.988352	32.161076	96	93	110
-44.651596	5.984625	32.548077	99	94	108
-44.277008	5.982460	32.788025	96	90	107
-44.089840	5.981410	32.902981	98	92	108
-43.527546	5.979048	33.127243	93	91	103
-42.965382	5.976945	33.311817	97	89	104
-42.219212	5.973091	33.719517	92	89	99
-41.846264	5.971347	33.895275	90	84	99
-41.659771	5.970534	33.974194	92	85	101
-41.100021	5.968353	34.171291	91	88	98
-40.540062	5.966434	34.328194	97	89	105
-39.796646	5.963149	34.649593	96	89	107
-39.240452	5.960538	34.913303	93	89	107
-38.684757	5.958004	35.165504	94	87	101
-38.127804	5.955967	35.341286	102	90	107
-37.387383	5.952939	35.623997	94	90	107
-37.018158	5.951301	35.784492	97	93	106
-36.833496	5.950519	35.859070	98	92	105
-36.093624	5.947794	36.095402	100	97	113
-35.723759	5.946489	36.204948	105	97	117
-35.539276	5.945765	36.270676	107	99	116
-34.988255	5.943212	36.526836	101	97	113
-34.250469	5.940567	36.751446	100	95	113
-33.695278	5.939001	36.855740	101	97	114
-33.328232	5.937475	36.999664	106	100	115
-33.145618	5.936580	37.091953	104	105	116
-32.415054	5.933165	37.436237	109	102	120
-32.048477	5.931734	37.565849	111	104	124
-31.864897	5.931077	37.621574	113	105	131
-31.312233	5.929435	37.737869	116	112	128
-30.579357	5.926765	37.967617	114	109	128
-30.026810	5.925235	38.066849	124	110	133
-29.658209	5.924269	38.124699	122	115	131
-29.473789	5.923808	38.150311	120	116	133
-28.198416	5.918763	38.610909	118	113	131
-27.832642	5.917560	38.705761	120	110	131
-27.649509	5.916996	38.747322	118	107	124
-27.466345	5.916441	38.787548	114	108	128
-27.283285	5.915879	38.828922	113	109	128
-27.100737	5.915262	38.878731	113	108	124
-26.737043	5.913887	39.000507	110	106	124
-26.373159	5.912560	39.114761	109	107	121
-26.191216	5.911906	39.170368	107	101	114
-25.461544	5.909555	39.351921	114	108	122
-24.908108	5.908491	39.379719	111	106	126
-24.541559	5.907539	39.435959	112	108	128
-24.358295	5.907066	39.463570	110	107	123
-23.626534	5.905076	39.589577	113	105	123
-23.076761	5.903708	39.664635	108	102	113
-22.713139	5.902533	39.755737	111	104	121
-21.804089	5.899669	39.972046	104	100	110
-21.619930	5.899323	39.980015	105	100	116
-21.252245	5.898577	40.004436	108	99	116
-20.887230	5.897599	40.065090	113	107	123
-20.706285	5.896976	40.116302	114	109	123
-19.603079	5.894817	40.177235	103	97	114
-19.421949	5.894230	40.222855	103	94	111
-19.065058	5.892622	40.381931	99	97	109
-18.884617	5.891992	40.434227	101	96	108
-18.153852	5.890243	40.523598	120	111	126
-17.423780	5.888468	40.616932	104	98	114
-17.242786	5.887910	40.658115	105	100	117
-17.061068	5.887412	40.689995	104	100	111
-16.328144	5.885903	40.742031	103	99	114
-14.509699	5.881209	41.016373	113	111	127
-13.392632	5.880291	40.884285	118	110	123
-13.025967	5.879583	40.903053	112	106	123
-12.476737	5.878475	40.938480	115	109	126
-12.115184	5.877434	41.009541	115	106	122
-11.747440	5.876812	41.015015	113	104	123
-10.840075	5.874488	41.149094	110	102	121
-9.731919	5.872966	41.111557	109	103	115
-9.005260	5.871202	41.204018	113	101	120
-8.821895	5.870869	41.210266	109	99	115
-8.455445	5.870187	41.225220	104	97	113
-8.086587	5.869651	41.217186	100	91	111
-7.163655	5.868354	41.190285	105	101	113
-6.981573	5.867949	41.207935	105	103	117
-6.614173	5.867327	41.213364	110	107	119
-6.057700	5.866702	41.173130	112	106	121
-4.567349	5.865360	41.014713	114	108	123
-4.006437	5.864950	40.940479	108	101	116
-3.819430	5.864813	40.915813	110	105	115
-3.446643	5.864469	40.877407	105	103	119
-2.715072	5.863033	40.918552	115	107	122
-2.166437	5.861961	40.948776	108	100	118
-1.980800	5.861747	40.936134	107	97	119
-1.038355	5.861394	40.760014	110	106	118
-0.851088	5.861257	40.735329	100	101	114
-0.475560	5.861029	40.678627	106	96	114
-0.287337	5.860935	40.646965	103	99	118
0.089210	5.860749	40.583538	101	99	118
1.978611	5.860048	40.229507	102	94	112
2.535264	5.859327	40.203915	98	96	115
2.913940	5.859200	40.131042	98	92	107
3.101112	5.859032	40.110958	99	94	106
3.466161	5.858265	40.139263	98	94	104
3.829526	5.857423	40.179371	96	90	106
4.406905	5.857636	40.005779	93	91	104
5.183486	5.858187	39.731930	93	88	101
5.373312	5.858124	39.695168	93	84	96
6.132518	5.857854	39.551193	91	87	99
6.518106	5.857971	39.439137	93	86	101
6.895471	5.857722	39.385139	92	87	100
7.856907	5.857848	39.131088	92	88	99
8.628007	5.857994	38.920601	89	85	93
9.004013	5.857655	38.880680	95	87	95
9.569423	5.857198	38.812485	87	83	96
9.769879	5.857538	38.711491	87	81	96
10.159205	5.857732	38.586823	86	82	93
11.141008	5.858514	38.227417	85	81	93
11.336569	5.858630	38.161961	83	80	91
11.720067	5.858549	38.080639	81	79	87
12.481668	5.858157	37.954708	85	81	88
12.902693	5.859529	37.642090	84	80	89
13.107379	5.859977	37.523396	84	78	87
13.306859	5.860219	37.437668	83	78	87
13.695004	5.860275	37.334335	83	80	89
13.885820	5.860175	37.303112	86	82	90
14.263863	5.859833	37.263115	84	80	88
14.453186	5.859673	37.241440	83	78	86
14.837603	5.859569	37.163544	82	78	85
16.237354	5.861176	36.575886	83	79	87
16.634621	5.861508	36.427933	85	80	92
16.834221	5.861707	36.348896	82	78	90
17.228270	5.861906	36.222260	85	81	90
19.900293	5.866881	34.808350	80	76	85
20.290096	5.866845	34.718857	82	76	88
22.754089	5.870736	33.521809	80	77	88
22.951164	5.870759	33.470116	82	77	86
32.404144	5.899825	26.713915	84	84	90
32.631275	5.900615	26.537600	87	84	97
32.855946	5.901325	26.373989	90	84	93
33.075382	5.901874	26.236412	91	84	95
33.295647	5.902444	26.095488	88	85	95
36.309669	5.913828	23.617403	89	87	94
-71.074615	5.961570	12.132156	75	69	79
-67.918640	5.934818	15.726371	77	75	88
-67.296257	5.929794	16.393595	79	77	88
-66.259727	5.920937	17.585709	84	76	88
-63.820396	5.903531	19.822714	81	76	87
-63.414001	5.900248	20.258818	84	80	93
-63.212185	5.898779	20.448648	84	81	90
-53.581657	5.840142	27.612597	75	75	85
-53.197472	5.838491	27.784422	79	74	84
-51.088444	5.827693	29.015503	82	78	87
-50.514881	5.824033	29.469744	83	78	91
-50.133808	5.822280	29.659437	85	82	92
-49.943447	5.821447	29.747080	87	81	92
-49.182529	5.817290	30.234497	85	83	94
-48.802856	5.815457	30.437614	92	85	97
-48.613178	5.814600	30.529585	92	85	97
-48.423588	5.813675	30.632568	91	85	95
-48.044731	5.811552	30.884054	92	85	102
-47.477341	5.808490	31.241201	93	88	99
-47.099613	5.806568	31.459616	94	90	103
-46.345383	5.802812	31.882376	97	92	100
-45.968651	5.801189	32.051620	96	91	104
-45.592129	5.799681	32.202042	97	92	107
-45.027988	5.797359	32.437572	98	92	108
-44.840359	5.796405	32.545929	97	92	108
-44.652920	5.795398	32.663124	98	93	106
-44.465611	5.794381	32.782139	98	91	104
-43.903923	5.791585	33.096687	96	92	103
-43.528858	5.790278	33.214096	94	90	101
-43.153919	5.789021	33.323330	98	87	100
-42.966969	5.788201	33.409889	97	88	103
-42.594006	5.786281	33.629307	93	90	102
-42.407612	5.785349	33.734375	93	89	99
-42.034595	5.783691	33.910309	92	88	96
-41.661671	5.782125	34.071354	90	85	101
-41.475231	5.781375	34.146214	93	88	105
-41.102242	5.779984	34.278076	94	88	103
-40.729259	5.778674	34.396729	94	89	100
-40.542805	5.778033	34.453587	98	88	102
-40.356556	5.777350	34.517532	100	89	105
-40.170654	5.776586	34.595074	100	90	105
-39.799667	5.774897	34.776768	95	91	105
-39.614223	5.774076	34.863636	92	90	102
-39.243351	5.772497	35.027271	92	87	103
-39.058079	5.771697	35.110893	92	88	103
-38.872849	5.770907	35.192734	93	89	103
-38.687508	5.770164	35.266888	92	88	103
-38.316383	5.768831	35.389641	97	92	106
-37.945484	5.767504	35.511517	98	90	104
-37.760365	5.766788	35.581169	96	90	101
-37.390823	5.765253	35.737778	93	88	103
-37.206375	5.764443	35.823223	95	88	101
-36.837692	5.762831	35.992901	97	92	103
-36.468307	5.761422	36.128624	101	94	107
-36.283283	5.760802	36.182579	99	94	108
-35.913235	5.759590	36.285549	100	95	116
-35.728527	5.758941	36.344368	104	97	117
-35.544212	5.758232	36.413147	106	98	115
-35.360298	5.757463	36.491898	105	97	115
-34.809357	5.755101	36.737480	100	96	111
-34.625042	5.754454	36.796032	98	93	107
-34.440060	5.753927	36.834511	97	93	109
-34.069031	5.753065	36.879482	99	95	109
-33.699547	5.751974	36.962650	102	96	115
-33.516018	5.751250	37.034016	100	95	114
-33.150921	5.749538	37.221107	103	102	117
-32.786339	5.747806	37.411705	111	105	122
-32.603512	5.747038	37.490486	112	103	123
-32.420380	5.746327	37.559944	110	102	119
-32.237152	5.745639	37.625568	110	104	121
-31.870319	5.744343	37.743382	114	104	126
-31.686281	5.743793	37.785934	115	108	127
-31.133165	5.742310	37.885544	113	107	125
-30.949873	5.741683	37.941032	110	107	126
-30.767153	5.740989	38.007786	110	106	130
-30.400999	5.739717	38.121838	117	110	125
-30.216829	5.739229	38.153946	118	108	125
-30.032236	5.738799	38.176506	120	109	128
-29.847736	5.738360	38.200546	119	112	129
-29.479193	5.737436	38.256321	120	115	132
-28.204912	5.732539	38.730911	119	114	131
-28.021273	5.732050	38.763538	116	109	128
-27.655531	5.730913	38.855347	118	106	129
-27.289732	5.729802	38.942764	109	107	127
-27.106991	5.729237	38.988152	112	107	129
-26.742626	5.728004	39.096207	114	105	127
-26.378807	5.726737	39.209995	110	108	124
-26.197199	5.726081	39.270607	105	101	115
-25.834276	5.724760	39.393707	109	101	127
-25.467915	5.723804	39.455425	115	105	123
-25.283207	5.723481	39.460251	107	101	117
-24.914536	5.722764	39.481716	112	105	124
-24.548351	5.721815	39.542255	112	108	130
-24.365429	5.721329	39.574474	109	106	122
-24.000050	5.720324	39.644646	118	112	129
-23.452122	5.718827	39.748005	118	109	126
-23.086325	5.717891	39.806545	111	105	121
-22.722507	5.716791	39.892719	112	105	123
-22.541523	5.716166	39.948475	109	104	121
-22.360998	5.715506	40.010139	108	100	119
-22.180513	5.714848	40.071484	108	103	122
-21.816338	5.713820	40.145592	101	99	111
-21.632118	5.713491	40.151505	107	99	114
-21.262440	5.712938	40.145622	110	102	114
-20.895018	5.712200	40.171062	111	100	117
-20.713408	5.711661	40.212406	116	109	126
-20.177185	5.709376	40.449131	109	106	122
-19.431953	5.708774	40.352596	103	98	113
-19.075657	5.707209	40.517792	102	97	112
-18.895405	5.706596	40.571671	107	97	117
-18.713703	5.706097	40.606300	107	104	115
-18.531183	5.705663	40.630047	107	107	119
-18.164543	5.704920	40.656506	115	108	123
-17.981293	5.704545	40.670322	108	104	122
-17.617500	5.703600	40.730869	106	103	113
-17.253765	5.702660	40.790611	105	98	112
-17.070625	5.702284	40.804497	104	98	107
-16.702984	5.701633	40.815388	109	98	112
-16.336710	5.700889	40.842178	106	102	115
-16.155930	5.700354	40.883076	112	103	118
-15.608208	5.699134	40.940582	109	106	121
-15.422045	5.698975	40.917957	105	101	119
-15.237253	5.698721	40.911270	109	102	120
-14.874969	5.697725	40.980732	105	102	116
-14.518559	5.696349	41.114441	111	107	124
-14.340802	5.695639	41.185162	108	104	117
-14.160996	5.695067	41.232410	107	101	118
-13.977048	5.694768	41.233463	109	105	123
-13.784403	5.695032	41.139153	115	109	123
-13.593191	5.695197	41.061462	115	108	122
-13.405613	5.695125	41.023991	117	112	119
-13.037269	5.694543	41.023296	112	101	116
-12.670873	5.693840	41.043243	115	108	127
-12.489954	5.693347	41.077129	117	113	129
-12.127493	5.692406	41.137302	109	106	119
-11.758891	5.691848	41.132610	111	105	119
-11.575084	5.691539	41.135368	113	106	121
-11.212977	5.690590	41.196926	115	108	121
-10.852725	5.689539	41.275951	106	103	116
-10.671872	5.689060	41.307549	107	102	112
-10.306118	5.688345	41.329506	112	104	119
-9.933008	5.688060	41.278477	115	109	122
-9.747272	5.687869	41.261337	112	105	117
-9.382973	5.687072	41.297211	109	103	120
-9.018990	5.686262	41.335396	104	98	112
-8.835352	5.685951	41.338432	103	99	109
-8.469220	5.685267	41.355232	103	96	108
-8.101519	5.684671	41.356911	102	94	108
-7.915485	5.684494	41.337276	106	96	111
-7.544623	5.684071	41.309692	100	93	105
-7.179251	5.683348	41.333023	101	92	104
-6.996593	5.682987	41.344772	102	94	107
-6.629324	5.682369	41.350193	116	109	120
-6.260458	5.681838	41.341114	113	102	120
-6.074596	5.681646	41.323818	114	105	122
-5.698995	5.681463	41.255230	114	107	122
-5.324879	5.681197	41.200829	116	108	127
-5.140524	5.680923	41.197651	112	109	126
-4.772798	5.680324	41.199871	117	108	124
-4.586863	5.680130	41.183022	113	105	118
-4.399311	5.680017	41.152378	111	106	121
-4.211174	5.679931	41.116959	112	104	123
-3.836406	5.679681	41.059776	109	101	112
-3.650184	5.679496	41.041363	111	101	118
-3.280013	5.679011	41.024052	113	103	117
-2.913506	5.678347	41.037521	115	103	116
-2.731149	5.677971	41.051601	116	104	119
-2.365570	5.677265	41.072250	111	103	116
-1.995887	5.676756	41.059002	104	99	112
-1.808883	5.676605	41.034847	101	101	108
-1.432758	5.676399	40.969982	99	98	108
-0.871019	5.675964	40.894020	102	95	109
-0.683095	5.675848	40.863686	102	97	110
-0.494340	5.675770	40.826996	107	102	116
-0.116122	5.675640	40.748856	108	97	112
0.072454	5.675549	40.714390	101	95	111
0.446566	5.675222	40.669823	104	103	115
0.632022	5.674986	40.660149	101	101	111
1.006672	5.674679	40.612286	101	96	103
1.198956	5.674746	40.550663	107	101	111
1.584407	5.674910	40.422050	104	99	116
2.141146	5.674196	40.393600	101	94	111
2.892204	5.673616	40.291782	100	93	110
3.262019	5.673075	40.283897	101	94	103
3.443668	5.672666	40.303844	103	94	109
4.191871	5.671945	40.226124	97	89	99
4.387368	5.672117	40.146233	96	91	101
4.583201	5.672299	40.064487	96	94	100
4.969353	5.672426	39.941921	93	90	100
5.350401	5.672332	39.857098	94	85	95
5.730990	5.672214	39.776615	91	88	97
5.920693	5.672127	39.740910	92	87	99
6.301310	5.672000	39.661785	94	91	102
6.491076	5.671912	39.626362	96	89	100
6.867354	5.671602	39.578594	88	84	98
7.057577	5.671529	39.540642	89	86	100
7.447002	5.671733	39.404293	93	87	95
7.642009	5.671844	39.334778	96	88	96
8.025861	5.671813	39.238667	89	87	100
8.410059	5.671790	39.141445	93	87	93
8.979216	5.671466	39.045296	92	87	101
9.167023	5.671282	39.026287	88	85	94
9.553206	5.671315	38.919128	87	83	89
9.942031	5.671440	38.796055	81	82	94
10.132918	5.671366	38.758038	86	84	93
10.324308	5.671310	38.716988	84	82	90
10.518209	5.671346	38.659946	86	80	89
10.714724	5.671478	38.586395	85	80	90
11.109857	5.671812	38.427162	90	84	96
11.305330	5.671897	38.361649	88	84	94
11.690997	5.671866	38.265335	85	78	88
12.077736	5.671866	38.163399	83	77	91
12.272834	5.671927	38.102013	85	78	92
12.669619	5.672280	37.939140	86	80	92
13.071636	5.672811	37.745682	83	80	90
13.271474	5.673028	37.657074	81	78	91
13.469228	5.673168	37.581863	82	79	90
13.664393	5.673213	37.523033	86	81	92
13.856789	5.673158	37.481556	86	81	92
14.046826	5.673018	37.454750	85	81	92
14.424806	5.672660	37.414349	81	79	87
15.002067	5.672478	37.292488	82	77	87
15.802992	5.673293	36.946911	79	78	86
16.210100	5.673910	36.737671	84	79	86
16.603188	5.674036	36.613434	83	78	89
16.800022	5.674105	36.550125	79	79	91
17.192327	5.674192	36.432541	83	80	90
17.575031	5.673949	36.372032	84	76	86
17.763378	5.673725	36.359432	84	79	89
19.658064	5.678196	35.121185	80	74	83
19.862303	5.678466	35.022743	81	76	86
20.449553	5.678438	34.872879	78	76	86
22.540995	5.682435	33.661301	79	74	85
22.936752	5.682487	33.548496	79	77	88
23.354937	5.683227	33.316093	85	80	91
23.549944	5.683156	33.276424	83	81	94
29.626217	5.698380	29.158789	91	83	98
30.036856	5.698674	29.002256	89	83	95
30.220253	5.698193	29.033434	89	84	95
32.125061	5.706580	27.144783	90	83	94
32.571648	5.707789	26.827318	89	84	98
32.789642	5.708240	26.695337	93	85	96
33.205502	5.708577	26.530151	90	84	96
35.189251	5.718479	24.370169	104	98	112
35.601753	5.718639	24.235088	90	87	96
35.837856	5.719516	24.027838	84	83	94
36.265163	5.720057	23.825998	89	86	98
36.450356	5.719566	23.858452	86	82	95
-72.143135	5.771729	10.860125	66	66	72
-71.932045	5.770270	11.062401	68	65	74
-71.717041	5.768408	11.335946	69	65	76
-71.286293	5.764533	11.910265	72	68	79
-71.072594	5.762721	12.175277	72	70	81
-68.327194	5.740225	15.438882	80	74	86
-68.120720	5.738837	15.629623	79	76	85
-67.912971	5.737282	15.850132	78	76	87
-67.705292	5.735710	16.073767	80	75	87
-67.497894	5.734145	16.296059	80	74	86
-67.083336	5.730965	16.749836	78	75	87
-66.876259	5.729360	16.979469	79	74	88
-66.462868	5.726162	17.436905	82	78	87
-66.053986	5.723421	17.813257	77	77	85
-65.646103	5.720715	18.183716	80	80	91
-63.210617	5.703977	20.499798	84	81	93
-63.013985	5.703353	20.555859	83	83	96
-53.967934	5.651276	27.342600	77	73	88
-53.774319	5.649998	27.517279	77	75	87
-53.581600	5.649015	27.639038	79	76	85
-53.389378	5.648191	27.732391	79	74	83
-53.197361	5.647417	27.816923	76	72	83
-53.005226	5.646552	27.917643	75	73	85
-52.429237	5.643857	28.237881	74	70	84
-50.705235	5.634269	29.470720	83	80	93
-50.514584	5.633419	29.569384	85	80	92
-50.324001	5.632543	29.672569	86	81	92
-49.943207	5.630863	29.866018	86	80	91
-49.752895	5.629944	29.976973	85	79	94
-49.562641	5.628935	30.104208	83	79	92
-49.372494	5.627893	30.237370	83	80	91
-48.992664	5.626016	30.466618	87	84	95
-48.802959	5.625223	30.555071	90	85	97
-48.423813	5.623644	30.730930	88	85	97
-48.234371	5.622729	30.841454	86	87	98
-48.045044	5.621722	30.968628	89	89	103
-47.855850	5.620684	31.101280	95	90	104
-47.666779	5.619683	31.227364	96	89	102
-47.477806	5.618753	31.340736	95	88	102
-47.288921	5.617872	31.445374	94	89	102
-46.911469	5.616112	31.654240	96	91	107
-46.346012	5.613534	31.956587	98	94	105
-46.157696	5.612704	32.052166	99	95	104
-45.969475	5.611876	32.147293	98	93	106
-45.593140	5.610365	32.311718	96	93	109
-45.216969	5.608971	32.455208	100	93	111
-44.092377	5.603646	33.092068	93	90	107
-43.529984	5.601677	33.285702	94	90	105
-42.222858	5.596067	33.921818	90	88	101
-41.477100	5.593120	34.239067	92	89	105
-40.731792	5.590406	34.514465	94	88	101
-39.802559	5.586801	34.897842	91	88	101
-38.319000	5.581199	35.482048	95	91	103
-37.578579	5.578477	35.760208	94	90	106
-37.025517	5.576150	36.021034	95	89	102
-36.841438	5.575355	36.111450	96	91	106
-36.102451	5.572799	36.360405	97	93	114
-35.180885	5.569481	36.694012	106	100	114
-34.443748	5.566995	36.930939	97	94	109
-34.073097	5.566113	36.983616	98	95	114
-33.338921	5.563394	37.263321	102	102	117
-33.156830	5.562536	37.365616	106	102	118
-32.791965	5.560956	37.545818	112	103	121
-31.690973	5.557297	37.889595	116	108	125
-30.588953	5.554008	38.166653	112	109	126
-28.938940	5.549092	38.579838	120	109	130
-28.577412	5.547510	38.761272	117	114	130
-28.210358	5.546540	38.830963	120	115	132
-26.020357	5.539852	39.408813	110	106	127
-24.373064	5.535655	39.693340	110	106	125
-24.008442	5.534631	39.773575	120	114	132
-23.643627	5.533636	39.848362	116	109	126
-22.913168	5.531752	39.978706	105	103	118
-22.731373	5.531222	40.022221	110	103	120
-21.458166	5.527654	40.300480	107	101	115
-20.903231	5.526871	40.282909	113	104	121
-20.720690	5.526427	40.310699	119	112	132
-20.006498	5.523507	40.632076	105	100	115
-19.083845	5.522096	40.622345	104	96	112
-17.263214	5.517638	40.904446	107	100	114
-16.895069	5.517033	40.908230	113	100	116
-16.710936	5.516735	40.909317	103	100	116
-16.343294	5.516098	40.918827	111	105	118
-16.160789	5.515696	40.938992	111	105	120
-14.526779	5.511622	41.205334	109	105	120
-12.685404	5.508748	41.196560	125	113	129
-12.504094	5.508299	41.225536	118	110	131
-12.139648	5.507510	41.263454	113	106	125
-11.770209	5.507004	41.248840	109	106	122
-11.586177	5.506713	41.248699	115	107	126
-4.418300	5.494963	41.315472	112	108	128
-4.229532	5.494894	41.273960	110	108	124
-3.853578	5.494678	41.205399	111	103	126
-2.195367	5.492157	41.185284	113	107	116
-2.010861	5.491889	41.180954	114	103	123
-1.639257	5.491463	41.151352	105	99	123
-1.452323	5.491299	41.127571	100	100	112
-0.890251	5.490853	41.047134	103	98	118
-0.322260	5.490649	40.921780	103	100	123
0.241797	5.490264	40.829853	105	100	119
0.427777	5.490048	40.815483	106	101	121
0.799214	5.489594	40.791077	102	98	110
0.987556	5.489475	40.758854	104	94	113
1.560879	5.489445	40.600513	106	98	118
1.747857	5.489263	40.579742	98	95	115
2.119647	5.488811	40.554886	99	95	110
2.307534	5.488664	40.527668	96	93	108
2.684192	5.488402	40.467224	97	96	107
2.871425	5.488226	40.445435	99	96	107
3.241433	5.487696	40.435043	100	94	105
3.424404	5.487352	40.444778	98	91	108
3.984648	5.486759	40.391403	91	88	103
4.563641	5.486878	40.204624	97	90	105
4.755200	5.486858	40.153488	94	89	104
5.136136	5.486730	40.067741	92	86	99
5.327166	5.486684	40.021317	93	86	98
5.708493	5.486561	39.934540	94	89	107
5.897632	5.486441	39.902252	97	87	105
6.463846	5.486027	39.814968	94	86	97
7.030406	5.485616	39.726974	87	84	100
7.619297	5.486004	39.489006	93	83	92
7.813195	5.486041	39.426941	92	87	97
8.195494	5.485912	39.340973	89	82	95
8.386302	5.485833	39.300682	88	83	99
8.765954	5.485601	39.233932	97	89	97
8.955135	5.485461	39.205151	89	86	101
9.726264	5.485392	38.997375	89	85	96
10.107588	5.485199	38.923019	87	83	95
10.688489	5.485207	38.755676	86	82	95
10.885071	5.485307	38.681618	88	82	95
11.276352	5.485434	38.546894	86	85	92
11.469464	5.485409	38.496243	85	83	90
12.052931	5.485462	38.320053	84	80	89
12.446881	5.485653	38.173161	85	80	89
12.642494	5.485700	38.108883	88	80	88
13.036411	5.485876	37.964756	85	81	92
13.235973	5.486045	37.877193	83	82	91
13.633637	5.486329	37.712620	84	78	89
13.828838	5.486348	37.653358	85	79	90
14.400298	5.485939	37.563686	81	78	88
14.591417	5.485821	37.530296	83	77	85
14.977123	5.485693	37.443153	83	78	86
15.566383	5.485830	37.250298	80	77	89
16.178761	5.486673	36.923672	79	77	85
16.376278	5.486740	36.855103	78	75	85
16.767687	5.486756	36.740402	78	76	87
16.963072	5.486752	36.685398	82	77	88
17.544975	5.486598	36.546932	84	79	86
19.189487	5.488908	35.661465	81	72	81
19.401098	5.489363	35.519234	79	73	82
19.821350	5.490170	35.253819	78	73	83
20.026730	5.490427	35.148857	80	75	83
20.416002	5.490300	35.060719	78	74	84
20.603098	5.490012	35.059021	79	74	86
22.717405	5.494088	33.721619	77	74	84
22.923710	5.494328	33.619457	81	76	87
32.073421	5.514385	27.396952	89	83	98
32.516396	5.515355	27.095827	88	83	100
32.729980	5.515635	26.984550	90	86	97
35.776134	5.525617	24.318195	92	85	98
36.009411	5.526323	24.124468	90	85	98
-71.497742	5.567234	11.696423	71	65	75
-71.071075	5.563958	12.209320	74	71	80
-70.658043	5.561862	12.493834	70	66	75
-68.522911	5.543377	15.473363	76	72	83
-67.285408	5.535512	16.638344	77	75	84
-66.667892	5.531432	17.250292	77	74	86
-50.704571	5.443448	29.620161	81	77	88
-50.323654	5.441981	29.790571	84	79	87
-49.752678	5.439485	30.104593	84	78	88
-49.562481	5.438534	30.232689	82	78	90
-49.182465	5.436635	30.488661	82	78	88
-48.613514	5.434407	30.750380	87	85	94
-48.424038	5.433699	30.830837	87	85	94
-47.667164	5.430090	31.306349	95	89	102
-47.289410	5.428337	31.534319	96	88	96
-46.534973	5.425154	31.926506	94	92	104
-46.158382	5.423522	32.130772	99	94	106
-45.970261	5.422687	32.236702	97	92	105
-45.406055	5.420511	32.489769	98	93	106
-44.842785	5.418230	32.763714	95	89	104
-44.280781	5.415728	33.081802	97	90	106
-44.093445	5.414995	33.167793	94	91	105
-43.718563	5.413730	33.300316	98	90	106
-43.531075	5.413157	33.354553	94	90	104
-42.783386	5.410256	33.693317	96	94	102
-42.410778	5.408562	33.911221	92	86	101
-41.851452	5.406394	34.164085	87	87	98
-41.292454	5.404346	34.393497	94	87	105
-41.106205	5.403683	34.466156	93	88	102
-40.920116	5.402996	34.543568	94	87	101
-40.548409	5.401562	34.710194	95	87	99
-39.991096	5.399501	34.942814	93	89	100
-39.805237	5.398870	35.009277	90	89	98
-39.433651	5.397621	35.139423	88	82	101
-39.248138	5.396959	35.212189	89	83	100
-38.506878	5.394295	35.506092	96	90	103
-38.136208	5.393055	35.634914	96	90	103
-37.951145	5.392402	35.705860	98	91	105
-37.581451	5.391057	35.855621	93	89	106
-37.396816	5.390368	35.934101	93	91	104
-37.028397	5.388882	36.112041	94	91	103
-36.844505	5.388109	36.207142	95	91	108
-36.291153	5.386148	36.420979	98	90	109
-35.736488	5.384490	36.574905	105	96	114
-35.184303	5.382535	36.788017	104	99	112
-35.000351	5.381888	36.858101	102	96	111
-34.447090	5.380202	37.017887	102	95	110
-33.892879	5.378708	37.139496	105	101	118
-33.709393	5.378057	37.210728	103	102	114
-33.344746	5.376482	37.407486	104	102	114
-33.162739	5.375673	37.510155	105	101	115
-32.980316	5.374929	37.599873	112	102	119
-32.613964	5.373660	37.735935	117	109	122
-32.063236	5.371956	37.899952	111	105	126
-31.879299	5.371443	37.943634	111	106	124
-31.510403	5.370550	38.004696	112	106	122
-31.325861	5.370119	38.032059	119	111	126
-30.775822	5.368454	38.188702	109	104	122
-30.226130	5.366802	38.342690	110	106	126
-30.042021	5.366354	38.373516	112	110	132
-29.674202	5.365428	38.441372	111	111	132
-29.306776	5.364476	38.514347	121	111	131
-28.941444	5.363333	38.625717	118	109	128
-28.397079	5.361312	38.854317	113	114	127
-28.213968	5.360810	38.896179	120	115	131
-27.848133	5.359781	38.984818	116	112	135
-27.665882	5.359212	39.040176	111	112	133
-27.118059	5.357630	39.181091	115	110	129
-26.569761	5.356128	39.306267	117	107	128
-26.387297	5.355608	39.351734	114	105	126
-26.023897	5.354451	39.466488	111	108	126
-25.842619	5.353844	39.529560	115	109	132
-25.295145	5.352355	39.652332	105	103	119
-24.745443	5.351075	39.733124	110	105	123
-24.563196	5.350574	39.774990	114	105	122
-24.199223	5.349542	39.864895	115	103	133
-24.016953	5.349053	39.904350	117	109	133
-23.469183	5.347679	40.004402	115	105	123
-22.921301	5.346335	40.098171	104	102	116
-22.739372	5.345841	40.138863	104	102	116
-22.378984	5.344609	40.269260	111	106	121
-21.653210	5.342556	40.447735	105	102	117
-21.095984	5.341939	40.395176	111	107	124
-20.911398	5.341652	40.394131	112	107	129
-20.546780	5.340770	40.454201	117	114	134
-20.367645	5.340119	40.526718	119	111	133
-20.190039	5.339371	40.618851	113	107	128
-19.831001	5.338145	40.748608	107	102	114
-19.272104	5.337651	40.671280	105	99	122
-19.090700	5.337170	40.709618	101	97	115
-18.729008	5.336143	40.799126	110	105	122
-18.547983	5.335646	40.840744	110	103	131
-18.002775	5.334301	40.935776	112	102	121
-17.454523	5.333158	40.989853	106	100	122
-17.270697	5.332845	40.994286	119	110	119
-16.903309	5.332203	41.006153	108	103	121
-16.719370	5.331897	41.009014	103	100	119
-16.166758	5.331027	41.007957	111	105	117
-15.618789	5.329893	41.060547	117	104	121
-15.436156	5.329515	41.077923	113	105	124
-15.073534	5.328616	41.142155	110	104	118
-14.893661	5.328088	41.190010	110	105	122
-14.713897	5.327558	41.238529	113	108	123
-14.352879	5.326586	41.317364	111	101	120
-14.170509	5.326206	41.335499	116	108	124
-13.800241	5.325746	41.310528	108	103	114
-13.614697	5.325537	41.293762	109	100	116
-13.065123	5.324533	41.320133	112	102	119
-12.518392	5.323386	41.375607	117	106	127
-12.335441	5.323042	41.386257	117	109	128
-11.966383	5.322518	41.374340	112	105	124
-11.781199	5.322289	41.361668	112	105	126
-11.233154	5.321222	41.400887	109	101	111
-10.149035	5.318526	41.594090	114	106	118
-9.963545	5.318315	41.577812	117	110	123
-8.858041	5.316684	41.554295	104	98	110
-8.674125	5.316396	41.553642	102	100	112
-8.127072	5.315316	41.595814	106	99	112
-7.574636	5.314487	41.586773	104	93	111
-6.469699	5.312829	41.568489	113	103	114
-6.286085	5.312529	41.570366	112	100	111
-5.171315	5.311291	41.466370	119	109	125
-4.622523	5.310299	41.490513	123	109	128
-4.435468	5.310143	41.462872	113	105	122
-4.058105	5.309964	41.380459	114	108	122
-3.870270	5.309836	41.346939	116	111	129
-3.309818	5.309320	41.273636	110	105	119
-2.757324	5.308474	41.268055	113	105	122
-2.574769	5.308126	41.279514	109	99	118
-2.391860	5.307794	41.287949	111	104	115
-2.025087	5.307168	41.296787	113	102	111
-1.656519	5.306614	41.290894	108	101	118
-1.470482	5.306406	41.273811	109	103	112
-1.096127	5.306077	41.221745	104	98	117
-0.150456	5.305613	41.018013	106	106	121
0.222800	5.305226	40.977684	107	106	117
0.408379	5.304992	40.965881	104	102	113
0.968606	5.304418	40.904140	111	103	115
1.348587	5.304272	40.814163	108	99	116
1.909937	5.303726	40.746601	102	97	112
2.286939	5.303458	40.681606	102	94	106
2.476189	5.303349	40.643860	104	95	106
2.851385	5.303010	40.593616	102	93	98
3.780742	5.301842	40.533707	98	93	105
4.545026	5.301624	40.337990	95	92	105
4.733869	5.301488	40.305801	95	92	107
5.496544	5.301183	40.127705	90	85	98
5.874642	5.300912	40.063095	94	86	101
6.249965	5.300543	40.018608	96	88	99
6.437689	5.300360	39.996140	93	89	99
6.813147	5.299991	39.951565	94	86	97
7.984425	5.300333	39.518200	95	86	98
8.364014	5.300077	39.450073	92	87	102
8.553396	5.299934	39.419075	89	85	97
9.320228	5.299650	39.235661	88	84	96
9.513810	5.299634	39.178196	90	89	100
10.470854	5.299192	38.966476	89	86	96
11.055744	5.299241	38.774162	90	82	95
11.634976	5.299098	38.621258	86	83	92
12.025796	5.299138	38.491413	83	78	89
12.613294	5.299220	38.291611	84	81	88
13.003190	5.299212	38.171368	84	78	90
14.187150	5.299565	37.731918	82	76	88
14.760167	5.299161	37.632622	80	78	85
14.954317	5.299116	37.580929	79	75	88
15.347106	5.299150	37.451504	82	76	86
15.947945	5.299520	37.190826	84	77	86
16.543016	5.299704	36.968552	81	78	90
17.501238	5.299034	36.801323	83	79	87
18.972773	5.301608	35.833855	82	75	84
19.363955	5.301515	35.729992	79	74	86
20.192966	5.302564	35.264145	81	74	87
20.569729	5.302063	35.245350	78	74	84
22.484932	5.305509	33.967060	77	73	81
22.898310	5.305918	33.757305	83	77	88
23.493240	5.305866	33.581684	83	80	88
30.380640	5.317274	29.179501	88	85	100
30.827419	5.318257	28.846109	93	88	102
31.547815	5.320868	28.106012	92	86	97
32.019180	5.322373	27.661795	88	85	98
32.244026	5.322868	27.493931	88	85	96
32.676159	5.323442	27.245514	87	86	93
33.274929	5.323158	27.114683	88	82	93
36.383472	5.333154	24.171511	89	86	96
-71.708717	5.369668	11.494244	70	62	75
-71.072243	5.365449	12.195793	71	66	78
-68.110123	5.343986	15.859804	76	76	88
-67.281555	5.338702	16.727608	77	75	86
-66.668320	5.335343	17.249197	77	75	85
-50.513680	5.252236	29.820700	77	76	88
-50.132957	5.250775	30.008400	83	76	89
-49.752502	5.249196	30.221863	85	78	89
-48.992744	5.245762	30.709476	82	80	91
-48.613678	5.244455	30.863956	85	83	94
-48.045666	5.242393	31.118324	86	81	94
-47.478653	5.239760	31.497580	93	85	98
-46.912529	5.237445	31.807722	90	86	104
-45.595016	5.232146	32.510052	93	90	103
-45.219135	5.230835	32.666542	95	90	106
-45.031422	5.230118	32.758457	98	89	106
-43.157921	5.223440	33.570244	95	88	103
-42.598358	5.221154	33.876289	93	85	100
-40.736320	5.214337	34.722366	90	83	101
-40.550777	5.213611	34.816753	90	86	100
-39.807693	5.211091	35.110733	91	87	98
-38.879765	5.208078	35.448433	96	86	100
-38.323952	5.206248	35.656174	98	89	103
-36.662956	5.200356	36.369576	95	92	108
-36.478703	5.199716	36.445801	95	89	106
-35.555058	5.196996	36.721062	102	96	113
-35.003067	5.195164	36.930534	102	96	107
-34.634735	5.194031	37.050842	101	94	110
-33.714310	5.191277	37.334732	104	102	114
-33.350044	5.189770	37.538067	100	100	114
-32.801872	5.187792	37.780743	112	108	125
-32.618069	5.187270	37.831333	115	110	126
-32.250439	5.186245	37.928406	114	106	129
-31.882742	5.185247	38.019348	111	105	123
-31.698547	5.184792	38.055233	108	105	123
-31.329803	5.183928	38.116611	114	106	123
-31.145882	5.183456	38.156258	113	107	120
-30.962595	5.182925	38.209034	112	103	119
-30.779774	5.182353	38.270821	109	104	121
-30.413849	5.181255	38.384373	109	103	123
-29.863115	5.179821	38.507626	110	108	128
-29.496237	5.178858	38.591244	118	111	130
-29.129133	5.177931	38.666992	115	108	126
-28.946417	5.177398	38.720215	114	108	123
-28.764582	5.176793	38.789597	116	107	127
-28.583061	5.176167	38.863716	117	112	129
-28.218349	5.175076	38.976021	126	112	131
-28.035467	5.174582	39.020725	125	114	134
-27.852913	5.174066	39.070675	119	111	132
-27.670662	5.173527	39.125278	116	109	128
-27.306015	5.172476	39.228951	114	107	123
-27.123371	5.171983	39.273594	113	104	126
-26.757523	5.171052	39.350624	112	103	124
-26.574455	5.170603	39.385571	113	106	123
-26.391582	5.170142	39.423313	111	104	124
-26.209246	5.169641	39.469646	110	103	121
-25.846296	5.168521	39.589100	116	106	123
-25.483437	5.167412	39.706100	111	104	125
-25.301224	5.166922	39.750172	110	104	122
-24.935658	5.166035	39.817635	110	103	120
-24.570873	5.165102	39.895432	110	102	121
-24.389017	5.164602	39.941914	111	107	126
-24.207098	5.164110	39.986668	114	107	131
-24.024706	5.163654	40.023289	116	110	134
-23.659084	5.162808	40.081928	113	108	127
-23.476477	5.162374	40.113682	111	106	125
-23.111244	5.161514	40.175438	108	106	121
-22.746532	5.160628	40.243042	105	103	113
-22.565767	5.160084	40.299549	108	103	115
-22.207088	5.158821	40.451572	113	106	127
-21.845097	5.157790	40.551739	103	97	111
-21.660917	5.157482	40.555435	106	102	122
-21.289244	5.157075	40.516094	108	102	119
-20.919199	5.156563	40.500267	112	109	128
-20.735722	5.156212	40.513737	118	111	128
-20.373926	5.155199	40.610142	119	113	131
-20.017115	5.153899	40.770741	107	104	120
-19.651255	5.153153	40.807419	109	107	121
-19.465324	5.152958	40.785954	114	109	119
-19.097336	5.152339	40.794033	108	104	118
-18.915657	5.151898	40.827824	112	102	126
-18.374676	5.150356	40.977909	113	106	138
-18.193575	5.149891	41.016930	115	106	127
-17.828299	5.149138	41.055321	113	106	123
-17.644423	5.148831	41.058846	115	108	120
-17.277000	5.148201	41.069748	119	108	124
-16.912382	5.147421	41.114155	111	106	126
-16.728922	5.147095	41.122139	108	105	124
-16.358540	5.146626	41.096760	105	104	122
-15.990986	5.146008	41.105015	112	102	122
-15.808906	5.145611	41.128822	112	103	119
-15.445983	5.144758	41.189827	110	106	126
-15.264985	5.144311	41.225101	112	104	125
-15.084196	5.143855	41.262348	110	106	125
-14.903330	5.143404	41.298283	111	106	125
-14.540363	5.142570	41.355118	111	105	124
-14.175516	5.141835	41.389832	118	111	131
-13.991559	5.141544	41.389977	112	110	120
-13.622425	5.141021	41.376919	108	106	117
-13.259365	5.140206	41.429607	115	107	122
-13.079194	5.139736	41.470100	114	106	124
-12.162404	5.138153	41.499489	118	112	131
-11.791457	5.137716	41.466911	111	109	133
-11.423823	5.137126	41.468899	112	101	116
-11.242454	5.136721	41.494808	111	103	113
-10.706034	5.135170	41.648228	110	107	125
-10.526512	5.134690	41.691181	110	106	119
-10.344846	5.134306	41.712368	113	103	117
-9.976183	5.133773	41.701546	117	115	128
-9.607926	5.133222	41.694851	113	108	126
-9.424561	5.132914	41.698929	112	107	128
-9.055105	5.132414	41.680725	110	101	123
-8.685472	5.131920	41.661114	106	101	114
-8.502945	5.131576	41.673145	108	99	112
-8.139464	5.130826	41.711655	103	103	120
-7.773487	5.130181	41.726135	104	94	112
-7.589672	5.129893	41.725594	103	96	115
-7.220488	5.129381	41.710197	100	94	109
-6.849904	5.128923	41.682274	96	94	109
-6.664919	5.128681	41.671261	100	97	111
-6.296983	5.128116	41.667770	108	97	113
-5.929277	5.127542	41.666351	101	94	109
-5.743219	5.127341	41.646057	102	97	110
-5.183732	5.126784	41.574631	113	106	128
-4.073618	5.125315	41.512512	115	113	132
-3.885987	5.125166	41.480190	117	116	132
-3.511110	5.124852	41.419567	117	106	125
-3.323600	5.124696	41.389004	117	109	129
-2.952351	5.124242	41.360031	116	106	125
-2.587116	5.123568	41.381191	111	100	123
-2.404513	5.123231	41.391750	118	109	123
-2.038436	5.122590	41.405464	109	104	120
-1.671336	5.121986	41.410622	109	102	119
-1.485851	5.121754	41.397526	110	98	116
-1.112099	5.121384	41.349342	111	101	117
-0.736118	5.121089	41.284142	111	104	121
-0.546489	5.120996	41.238926	106	103	122
-0.356606	5.120911	41.192047	109	100	123
-0.167916	5.120783	41.154888	115	110	130
0.018924	5.120591	41.132484	115	108	134
0.389583	5.120100	41.111607	108	100	119
0.762085	5.119672	41.076794	108	100	120
0.949909	5.119509	41.047485	108	103	122
1.513878	5.119032	40.957024	99	95	113
1.700218	5.118817	40.939774	103	95	113
2.076026	5.118488	40.882126	102	96	116
2.266175	5.118395	40.836807	105	98	115
2.456062	5.118292	40.793751	105	97	114
2.831526	5.117943	40.740459	99	93	107
3.203321	5.117473	40.714848	99	94	109
3.389149	5.117235	40.702671	96	91	106
3.765133	5.116896	40.647079	97	92	107
4.147174	5.116744	40.548492	92	93	104
4.337333	5.116639	40.505901	91	95	103
4.713460	5.116294	40.451523	96	94	105
5.285028	5.115997	40.319126	89	89	98
5.477114	5.115944	40.264553	93	91	99
5.666764	5.115814	40.227463	93	91	101
5.853902	5.115607	40.208191	92	89	102
6.226803	5.115149	40.179569	101	95	102
6.413996	5.114942	40.160244	91	85	102
6.789813	5.114568	40.112106	94	84	98
7.177629	5.114549	39.982548	89	88	102
7.376776	5.114692	39.882713	85	89	103
7.772141	5.114882	39.704800	87	82	102
7.964785	5.114826	39.650696	92	86	93
8.343558	5.114519	39.587177	93	89	101
8.722848	5.114223	39.521008	94	81	95
8.914725	5.114137	39.473415	91	85	96
9.302508	5.114079	39.352554	87	83	97
9.495467	5.114020	39.298817	92	87	99
10.644673	5.113397	39.038425	88	83	100
10.838231	5.113346	38.982937	91	85	103
11.031631	5.113288	38.928795	90	84	98
11.417060	5.113131	38.830235	91	83	95
11.609293	5.113037	38.784451	90	82	95
11.802926	5.112980	38.730080	85	81	95
11.998674	5.112979	38.662685	81	80	90
12.583993	5.112915	38.474957	81	78	86
12.777167	5.112837	38.425167	84	78	87
12.971910	5.112801	38.365921	84	80	88
13.169501	5.112840	38.289375	84	80	89
13.771292	5.113182	38.007065	84	78	86
14.352942	5.112973	37.852261	92	82	90
14.543353	5.112809	37.822327	89	81	89
14.735405	5.112687	37.782631	83	77	87
15.127332	5.112644	37.656860	83	78	93
15.325725	5.112683	37.579941	80	76	93
15.523655	5.112708	37.506229	81	76	91
15.720853	5.112712	37.437302	80	74	84
16.117632	5.112776	37.286495	86	79	87
16.317575	5.112845	37.202541	83	78	87
