-4.640079999999999760e-01 2.283964000000000105e+00 7.505012499999999420e+01
-3.023239999999999816e-01 2.283851999999999993e+00 7.509139999999999304e+01
3.343289999999999873e-01 2.283640000000000114e+00 7.532484399999999880e+01
6.506039999999999601e-01 2.283576000000000050e+00 7.545352200000000664e+01
-8.517592000000000496e+00 2.112614999999999910e+00 7.077743499999999699e+01
1.537331499999999984e+01 1.775584999999999969e+00 7.896640800000000127e+01
1.625933500000000009e+01 1.772788999999999948e+00 7.865531900000000576e+01
1.659950800000000015e+01 1.772053000000000100e+00 7.860773500000000524e+01
1.536148299999999978e+01 1.113339999999999996e+00 7.903100600000000497e+01
1.625291100000000100e+01 1.109747000000000039e+00 7.869065899999999658e+01
1.659404599999999874e+01 1.108886999999999956e+00 7.863788599999999462e+01
-9.133321000000000467e+00 5.810579999999999634e-01 7.021421800000000246e+01
-7.845677000000000234e+00 5.959499999999999797e-01 7.228350100000000111e+01
1.536319699999999955e+01 4.506780000000000230e-01 7.902324699999999780e+01
1.625253700000000023e+01 4.465330000000000132e-01 7.869409899999999425e+01
1.660059700000000049e+01 4.452530000000000099e-01 7.860501100000000463e+01
-8.981581000000000259e+00 -9.778199999999999392e-02 7.037311599999999601e+01
-8.277981000000000478e+00 -8.608999999999999986e-02 7.163632200000000694e+01
-7.851607999999999699e+00 -7.970099999999999407e-02 7.233260300000000598e+01
-7.385495999999999839e+00 -7.693700000000000538e-02 7.267482800000000509e+01
1.536434900000000070e+01 -4.634800000000000031e-02 7.901814299999999491e+01
1.625525499999999823e+01 -5.104899999999999716e-02 7.868086200000000474e+01
1.660162000000000049e+01 -5.236199999999999882e-02 7.860076100000000565e+01
-8.548178000000000054e+00 -2.613679999999999892e-01 7.103853599999999346e+01
-8.410548999999999609e+00 -2.586350000000000038e-01 7.131639099999999587e+01
-7.992930999999999564e+00 -2.510220000000000229e-01 7.209511600000000442e+01
-6.096794000000000047e+00 -2.424250000000000016e-01 7.317135600000000295e+01
-5.937438000000000216e+00 -2.418760000000000077e-01 7.324535400000000607e+01
-4.817904999999999660e+00 -2.385519999999999863e-01 7.371482799999999713e+01
-1.130597000000000074e+00 -2.300999999999999990e-01 7.502499400000000662e+01
3.108279999999999932e-01 -2.272939999999999960e-01 7.548995999999999640e+01
6.307749999999999746e-01 -2.266849999999999976e-01 7.559188799999999731e+01
9.486200000000000188e-01 -2.259319999999999939e-01 7.570706199999999342e+01
2.543445000000000178e+00 -2.228239999999999943e-01 7.622190100000000257e+01
1.342709400000000031e+01 -3.777449999999999974e-01 7.875665300000000002e+01
-9.130012999999999934e+00 -6.097289999999999655e-01 7.018100699999999392e+01
-9.127696000000000254e+00 -7.800669999999999549e-01 7.015982800000000452e+01
-8.971306999999999476e+00 -7.788500000000000423e-01 7.027983899999999551e+01
-8.527991000000000099e+00 -7.725130000000000052e-01 7.086018400000000383e+01
-8.105119999999999436e+00 -7.641980000000000439e-01 7.160260800000000359e+01
-7.817203000000000124e+00 -7.594070000000000542e-01 7.203565999999999292e+01
-7.202102000000000004e+00 -7.541259999999999630e-01 7.254891200000000140e+01
-6.880574000000000190e+00 -7.529879999999999907e-01 7.268221300000000440e+01
-6.557063000000000308e+00 -7.520780000000000243e-01 7.279684399999999300e+01
-6.072574999999999612e+00 -7.506779999999999564e-01 7.297166400000000408e+01
-5.437775000000000247e+00 -7.477869999999999795e-01 7.328847500000000537e+01
-4.796749000000000152e+00 -7.456209999999999782e-01 7.354582200000000114e+01
-4.150888000000000133e+00 -7.440130000000000354e-01 7.375731700000000046e+01
-3.830299999999999816e+00 -7.430160000000000098e-01 7.387879200000000424e+01
-3.512084999999999901e+00 -7.418190000000000062e-01 7.401669300000000362e+01
-3.035512000000000210e+00 -7.399999999999999911e-01 7.422534199999999771e+01
-2.395159000000000038e+00 -7.381140000000000478e-01 7.445930500000000052e+01
-1.751117999999999952e+00 -7.366439999999999655e-01 7.465905800000000170e+01
-1.105733999999999995e+00 -7.353650000000000464e-01 7.484317799999999465e+01
-4.697959999999999914e-01 -7.333180000000000254e-01 7.508995099999999923e+01
1.320400000000000046e-02 -7.323650000000000437e-01 7.522738599999999565e+01
6.496429999999999705e-01 -7.304990000000000094e-01 7.545920599999999467e+01
1.283419000000000088e+00 -7.284840000000000204e-01 7.570307900000000245e+01
1.923238000000000003e+00 -7.270550000000000068e-01 7.589900199999999586e+01
2.558410999999999991e+00 -7.253049999999999775e-01 7.612097199999999475e+01
3.199847999999999804e+00 -7.241370000000000307e-01 7.629534099999999341e+01
3.684197999999999862e+00 -7.235620000000000385e-01 7.640150500000000022e+01
4.322867999999999711e+00 -7.222659999999999636e-01 7.658621999999999730e+01
4.958406000000000091e+00 -7.207799999999999763e-01 7.678630800000000534e+01
5.602273000000000280e+00 -7.200029999999999486e-01 7.692842899999999418e+01
6.238367000000000218e+00 -7.186719999999999775e-01 7.711570000000000391e+01
6.718081999999999887e+00 -7.179119999999999946e-01 7.723665599999999642e+01
7.359759999999999636e+00 -7.170959999999999557e-01 7.738180499999999995e+01
7.835047999999999568e+00 -7.160670000000000091e-01 7.752466599999999630e+01
7.994805000000000383e+00 -7.158290000000000486e-01 7.756364399999999648e+01
8.639549000000000589e+00 -7.153279999999999639e-01 7.768295299999999770e+01
9.278622999999999621e+00 -7.144490000000000007e-01 7.783299300000000187e+01
9.914680000000000604e+00 -7.133960000000000301e-01 7.799716200000000299e+01
1.039735600000000026e+01 -7.130379999999999496e-01 7.808503699999999981e+01
1.071724099999999957e+01 -7.126759999999999762e-01 7.815373200000000509e+01
1.103443599999999947e+01 -7.121330000000000160e-01 7.823708299999999838e+01
1.167768099999999976e+01 -7.116989999999999705e-01 7.835062399999999627e+01
1.232395600000000080e+01 -7.115050000000000541e-01 7.844453400000000443e+01
1.296097400000000022e+01 -7.107059999999999489e-01 7.858775300000000641e+01
1.343210200000000043e+01 -7.096810000000000063e-01 7.872965999999999553e+01
1.408139500000000055e+01 -7.097750000000000448e-01 7.880002600000000257e+01
1.471478800000000042e+01 -7.088339999999999641e-01 7.895462799999999959e+01
1.537084100000000042e+01 -7.094200000000000506e-01 7.898486300000000426e+01
1.590343700000000027e+01 -7.125089999999999479e-01 7.879210700000000145e+01
1.608835399999999893e+01 -7.140109999999999513e-01 7.868945300000000032e+01
1.661452099999999987e+01 -7.166360000000000507e-01 7.853457600000000127e+01
-7.794993999999999978e+00 -9.309990000000000210e-01 7.184468099999999424e+01
-6.697358000000000366e+00 -9.236269999999999758e-01 7.256050899999999615e+01
-5.413242999999999583e+00 -9.188539999999999486e-01 7.309011800000000392e+01
-3.645985000000000031e+00 -9.131150000000000100e-01 7.375272400000000061e+01
-2.210675999999999863e+00 -9.079139999999999988e-01 7.433396899999999619e+01
-6.072999999999999510e-01 -9.034750000000000281e-01 7.487371799999999666e+01
1.467789999999999928e+00 -8.975849999999999662e-01 7.558395400000000564e+01
3.061570000000000125e+00 -8.933699999999999974e-01 7.610471300000000383e+01
3.707103000000000037e+00 -8.924779999999999935e-01 7.625051899999999705e+01
5.621801999999999744e+00 -8.883100000000000440e-01 7.680454299999999535e+01
8.013080000000000425e+00 -8.836500000000000465e-01 7.745293399999999906e+01
1.344527800000000006e+01 -8.764239999999999808e-01 7.865731800000000362e+01
1.409628999999999976e+01 -8.765910000000000091e-01 7.871910099999999488e+01
-8.506525999999999144e+00 -1.114498999999999906e+00 7.067111199999999371e+01
-6.016160000000000174e+00 -1.094198999999999922e+00 7.250826299999999947e+01
-2.976186999999999916e+00 -1.082136999999999905e+00 7.377270500000000197e+01
-1.693310000000000093e+00 -1.078027999999999986e+00 7.423081999999999425e+01
-1.052642000000000078e+00 -1.076030000000000042e+00 7.445548999999999751e+01
6.632799999999999807e-02 -1.072524999999999951e+00 7.484896100000000274e+01
1.979908999999999919e+00 -1.066665999999999892e+00 7.551159699999999475e+01
4.377672999999999703e+00 -1.060783999999999949e+00 7.622955299999999568e+01
6.287117000000000289e+00 -1.055984999999999951e+00 7.681020399999999881e+01
8.686099000000000458e+00 -1.051717000000000013e+00 7.740418200000000581e+01
1.123670399999999958e+01 -1.047271000000000063e+00 7.802872499999999434e+01
1.575567400000000085e+01 -1.045069999999999943e+00 7.869855499999999893e+01
-8.802220999999999407e+00 -1.289125000000000076e+00 7.028506500000000301e+01
-8.341753000000000640e+00 -1.284010000000000096e+00 7.071324199999999394e+01
-8.038482999999999379e+00 -1.280243999999999938e+00 7.102470399999999984e+01
-7.886349000000000053e+00 -1.278445999999999971e+00 7.117416400000000465e+01
-7.580445000000000100e+00 -1.275091999999999892e+00 7.145533000000000357e+01
-7.231899000000000299e+00 -1.446241000000000110e+00 7.137007900000000404e+01
-5.780077000000000353e+00 -1.440110000000000001e+00 7.195744299999999782e+01
-4.818004000000000175e+00 -1.435693000000000108e+00 7.237203999999999837e+01
-4.173290999999999862e+00 -1.433268999999999904e+00 7.261148099999999772e+01
-3.533183999999999880e+00 -1.430444000000000049e+00 7.287918100000000265e+01
-2.896952999999999889e+00 -1.427313999999999972e+00 7.316830400000000623e+01
1.614763800000000060e+01 -1.381775999999999893e+00 7.837750200000000689e+01
-7.835796000000000205e+00 -1.624027000000000109e+00 7.073773199999999406e+01
-6.555657000000000068e+00 -1.616594000000000086e+00 7.137786900000000401e+01
-5.429070000000000285e+00 -1.611347000000000085e+00 7.185184499999999730e+01
-2.062408000000000019e+00 -1.596308999999999978e+00 7.322367099999999596e+01
-1.108027000000000095e+00 -1.591763000000000039e+00 7.363216400000000306e+01
6.546520000000000117e-01 -1.585415000000000019e+00 7.424501800000000173e+01
2.573589999999999822e+00 -1.578845000000000054e+00 7.488861799999999391e+01
4.327176999999999829e+00 -1.572940999999999923e+00 7.546986400000000117e+01
-4.601429000000000435e+00 -1.779692000000000052e+00 7.199175999999999931e+01
-3.640858000000000150e+00 -1.774866999999999972e+00 7.240591399999999567e+01
-1.719562000000000035e+00 -1.766056000000000070e+00 7.317803200000000174e+01
-6.064450000000000118e-01 -1.760539999999999994e+00 7.365293900000000349e+01
1.479878000000000027e+00 -1.753209000000000017e+00 7.434181200000000445e+01
3.073364999999999903e+00 -1.747023999999999910e+00 7.490715799999999547e+01
5.302851000000000425e+00 -1.739138000000000073e+00 7.564687299999999937e+01
1.520939500000000066e+01 -1.716901000000000010e+00 7.807744599999999480e+01
1.536872400000000027e+01 -1.716604999999999936e+00 7.811242699999999672e+01
-7.809503999999999557e+00 -1.967203999999999953e+00 7.051030000000000086e+01
-7.001418000000000141e+00 -1.963063999999999920e+00 7.085266099999999767e+01
-6.679357999999999684e+00 -1.961316999999999977e+00 7.099545299999999770e+01
-6.039991999999999805e+00 -1.957317999999999891e+00 7.131315600000000643e+01
-5.718113999999999919e+00 -1.955659000000000036e+00 7.145022600000000068e+01
-5.394735999999999976e+00 -1.954223000000000043e+00 7.157292200000000548e+01
-4.748460999999999821e+00 -1.951383000000000090e+00 7.181629900000000077e+01
-4.266287000000000162e+00 -1.949017999999999917e+00 7.201378599999999608e+01
-4.106268000000000029e+00 -1.948158999999999974e+00 7.208412900000000434e+01
-3.628293000000000212e+00 -1.945378999999999969e+00 7.230807500000000232e+01
-2.990301000000000098e+00 -1.941877999999999993e+00 7.259344500000000266e+01
-2.829495999999999789e+00 -1.941178999999999988e+00 7.265347300000000530e+01
-2.344573000000000018e+00 -1.939421000000000062e+00 7.281194299999999942e+01
-1.704159999999999897e+00 -1.936447000000000029e+00 7.306344599999999900e+01
-1.227942000000000089e+00 -1.933820000000000094e+00 7.327731300000000658e+01
-1.069094999999999906e+00 -1.932973000000000052e+00 7.334677899999999795e+01
-5.906890000000000196e-01 -1.930689000000000100e+00 7.353865799999999808e+01
5.158299999999999691e-02 -1.928234000000000004e+00 7.375671400000000233e+01
3.728859999999999952e-01 -1.927060999999999913e+00 7.386223599999999578e+01
6.952169999999999739e-01 -1.926023999999999958e+00 7.395902999999999849e+01
1.336092999999999975e+00 -1.923600999999999894e+00 7.417489600000000394e+01
1.976210000000000022e+00 -1.921186999999999978e+00 7.439004500000000064e+01
2.295792000000000055e+00 -1.919964000000000004e+00 7.449867199999999912e+01
2.455102999999999813e+00 -1.919308999999999932e+00 7.455569500000000005e+01
3.089058000000000082e+00 -1.916406000000000054e+00 7.480200999999999567e+01
3.733089000000000102e+00 -1.914646000000000070e+00 7.497518200000000377e+01
4.051957999999999949e+00 -1.913469000000000086e+00 7.508073400000000674e+01
4.368248999999999604e+00 -1.912050000000000027e+00 7.520174400000000503e+01
-6.188041000000000125e+00 3.975621999999999989e+00 7.115011599999999703e+01
-1.697797999999999918e+00 3.965543999999999958e+00 7.302176699999999698e+01
-1.377644000000000091e+00 3.964841999999999977e+00 7.314501199999999415e+01
-1.215769000000000100e+00 3.964510999999999896e+00 7.319274099999999805e+01
-7.803379999999999761e+00 3.809366999999999948e+00 7.047304499999999905e+01
-7.642250999999999905e+00 3.809031000000000056e+00 7.054678300000000490e+01
-7.480966999999999700e+00 3.808696999999999999e+00 7.061857600000000446e+01
-7.319824999999999804e+00 3.808361999999999803e+00 7.069097100000000466e+01
-6.999297999999999575e+00 3.807681000000000093e+00 7.084876300000000526e+01
-6.681274000000000157e+00 3.806982999999999784e+00 7.102488700000000676e+01
-6.521683000000000341e+00 3.806639999999999802e+00 7.110702499999999304e+01
-6.361216999999999899e+00 3.806303999999999910e+00 7.118123599999999840e+01
-6.039927999999999741e+00 3.805639000000000216e+00 7.132488999999999635e+01
-5.719055000000000000e+00 3.804971999999999799e+00 7.146960400000000391e+01
-5.395504999999999995e+00 3.804329000000000072e+00 7.159030199999999411e+01
-5.072252999999999901e+00 3.803687000000000040e+00 7.171145599999999831e+01
-4.751670999999999978e+00 3.803024999999999878e+00 7.185199000000000069e+01
-4.431650999999999563e+00 3.802363000000000159e+00 7.199475900000000195e+01
-4.271228999999999942e+00 3.802035000000000053e+00 7.206205699999999581e+01
-3.949593999999999827e+00 3.801388999999999907e+00 7.218889599999999973e+01
-3.627219999999999889e+00 3.800749999999999851e+00 7.230802900000000477e+01
-3.466245999999999938e+00 3.800428999999999835e+00 7.236855300000000568e+01
-3.305689000000000100e+00 3.800107000000000124e+00 7.243183100000000252e+01
-2.985050999999999899e+00 3.799459000000000142e+00 7.256057699999999500e+01
-2.663269000000000108e+00 3.798821999999999921e+00 7.267868799999999396e+01
-2.341950999999999894e+00 3.798184000000000005e+00 7.279853099999999699e+01
-4.227629999999999999e-01 3.794337000000000071e+00 7.354430399999999679e+01
3.714689999999999936e-01 3.792720000000000091e+00 7.387490800000000490e+01
1.170927000000000051e+00 3.791150000000000020e+00 7.415760799999999620e+01
3.885737999999999914e+00 3.785873000000000044e+00 7.507129700000000128e+01
4.045322999999999780e+00 3.785565000000000069e+00 7.512258900000000494e+01
-8.131676000000000570e+00 3.640051999999999843e+00 7.037564100000000167e+01
-7.653720999999999997e+00 3.639130000000000198e+00 7.064474500000000035e+01
-7.494297999999999682e+00 3.638824000000000058e+00 7.073202499999999304e+01
-6.857850000000000001e+00 3.637601000000000084e+00 7.108438099999999338e+01
-6.540201999999999849e+00 3.636989999999999945e+00 7.126099399999999662e+01
-6.379861000000000004e+00 3.636690999999999896e+00 7.133562499999999318e+01
-5.735890999999999629e+00 3.635511000000000159e+00 7.160679600000000278e+01
-5.250922000000000089e+00 3.634637999999999813e+00 7.178838299999999606e+01
-5.089930999999999983e+00 3.634345000000000159e+00 7.185328699999999458e+01
-4.287651999999999575e+00 3.632874000000000159e+00 7.219130699999999479e+01
-3.965155999999999903e+00 3.632295000000000051e+00 7.231042499999999507e+01
-3.803633000000000042e+00 3.632006000000000068e+00 7.236714899999999773e+01
-3.320310000000000095e+00 3.631137999999999977e+00 7.254430399999999679e+01
-2.840190999999999910e+00 3.630260999999999960e+00 7.274185199999999440e+01
-2.679771000000000125e+00 3.629970999999999837e+00 7.280381800000000680e+01
-2.041230000000000100e+00 3.628803000000000001e+00 7.307054899999999975e+01
-1.243233000000000033e+00 3.627348000000000017e+00 7.339431799999999839e+01
-7.584880000000000511e-01 3.626500000000000057e+00 7.353971099999999694e+01
-4.396709999999999785e-01 3.625920999999999950e+00 7.366627499999999884e+01
-2.807760000000000256e-01 3.625630000000000130e+00 7.373257399999999961e+01
3.554030000000000244e-01 3.624471999999999916e+00 7.398883100000000468e+01
8.343570000000000153e-01 3.623612000000000055e+00 7.416354400000000169e+01
9.947139999999999871e-01 3.623327999999999882e+00 7.421603399999999340e+01
1.632517999999999914e+00 3.622184999999999988e+00 7.444737999999999545e+01
2.112432000000000087e+00 3.621335000000000193e+00 7.460608700000000226e+01
2.273267999999999844e+00 3.621053999999999995e+00 7.465237399999999468e+01
2.914991999999999805e+00 3.619930000000000092e+00 7.484530599999999367e+01
3.231517000000000195e+00 3.619356999999999935e+00 7.496881100000000231e+01
3.389826999999999924e+00 3.619070999999999927e+00 7.502963300000000402e+01
4.025548999999999822e+00 3.617935999999999819e+00 7.525261700000000076e+01
4.508295999999999637e+00 3.617103999999999875e+00 7.537728099999999642e+01
4.670041999999999582e+00 3.616830000000000211e+00 7.541290999999999656e+01
5.309116000000000390e+00 3.615711000000000119e+00 7.560379000000000360e+01
-7.983628999999999643e+00 3.469847999999999821e+00 7.056315600000000643e+01
-7.356920999999999822e+00 3.468798000000000048e+00 7.100571399999999755e+01
-7.198885999999999896e+00 3.468535999999999841e+00 7.110253899999999305e+01
-6.882717000000000418e+00 3.468011999999999873e+00 7.129293800000000658e+01
-6.405482000000000120e+00 3.467226999999999837e+00 7.154793499999999540e+01
-6.082999000000000045e+00 3.466705000000000148e+00 7.167883299999999736e+01
-5.921850000000000058e+00 3.466444000000000081e+00 7.174424700000000144e+01
-5.760737999999999914e+00 3.466183000000000014e+00 7.180942500000000450e+01
-4.794527999999999679e+00 3.464618999999999893e+00 7.219332900000000564e+01
-4.311074999999999768e+00 3.463837999999999973e+00 7.237575499999999806e+01
-4.149720000000000297e+00 3.463578000000000046e+00 7.243400599999999656e+01
-3.343227000000000171e+00 3.462279000000000106e+00 7.272073399999999310e+01
-2.703447000000000155e+00 3.461241999999999930e+00 7.298342100000000698e+01
-2.384711999999999943e+00 3.460723999999999911e+00 7.312051400000000001e+01
-1.909081999999999946e+00 3.459947999999999801e+00 7.334078200000000436e+01
-1.750577999999999967e+00 3.459690000000000154e+00 7.341342199999999707e+01
-1.269079000000000068e+00 3.458914000000000044e+00 7.358413699999999835e+01
-1.107061999999999991e+00 3.458655999999999953e+00 7.362909700000000157e+01
-7.846250000000000169e-01 3.458139000000000074e+00 7.372965200000000152e+01
-3.074640000000000151e-01 3.457365999999999939e+00 7.392449200000000076e+01
-1.484459999999999946e-01 3.457107999999999848e+00 7.398877000000000237e+01
1.098299999999999971e-02 3.456850999999999896e+00 7.404965199999999470e+01
3.300469999999999793e-01 3.456335000000000157e+00 7.416867100000000335e+01
1.447991000000000028e+00 3.454534999999999911e+00 7.456383499999999742e+01
-8.464472000000000662e+00 3.300664999999999960e+00 7.031543000000000632e+01
-8.152844999999999231e+00 3.300259000000000054e+00 7.055860900000000413e+01
-7.847743000000000357e+00 3.299878000000000089e+00 7.085385899999999992e+01
-7.540968999999999589e+00 3.299488999999999894e+00 7.112987499999999841e+01
-8.628932000000000713e+00 3.130907000000000107e+00 7.026784499999999412e+01
-8.319024999999999892e+00 3.130635999999999974e+00 7.052750399999999331e+01
-7.722051999999999694e+00 3.130274000000000001e+00 7.122960700000000145e+01
-8.635816000000000159e+00 2.960995000000000044e+00 7.032791899999999430e+01
-8.331668999999999770e+00 2.960925000000000029e+00 7.063733700000000226e+01
-8.039607999999999421e+00 2.960999999999999854e+00 7.104605100000000562e+01
-7.598554000000000030e+00 2.961059000000000108e+00 7.162095600000000672e+01
-7.445615000000000094e+00 2.961000999999999994e+00 7.175901799999999753e+01
-7.132528999999999897e+00 2.960792000000000090e+00 7.197087899999999649e+01
-6.815273000000000359e+00 2.960528000000000048e+00 7.214434099999999717e+01
-6.496501000000000303e+00 2.960240999999999900e+00 7.230236800000000130e+01
-6.336597000000000257e+00 2.960090999999999806e+00 7.237612900000000593e+01
-5.855860999999999983e+00 2.959620999999999835e+00 7.258544899999999700e+01
-5.533614000000000033e+00 2.959283999999999804e+00 7.270795400000000086e+01
-5.211445000000000327e+00 2.958944999999999936e+00 7.282913200000000131e+01
-5.050525999999999627e+00 2.958775999999999851e+00 7.289031199999999444e+01
-4.889242000000000310e+00 2.958603000000000094e+00 7.294809700000000419e+01
-4.565485999999999933e+00 2.958241000000000120e+00 7.305290200000000311e+01
-4.083179000000000336e+00 2.957732000000000028e+00 7.323306999999999789e+01
-3.443947000000000092e+00 2.957088999999999857e+00 7.349645999999999901e+01
-3.283840000000000092e+00 2.956923000000000190e+00 7.355875399999999331e+01
-2.801938999999999957e+00 2.956404000000000032e+00 7.373081999999999425e+01
-2.642672000000000132e+00 2.956246000000000151e+00 7.379764600000000030e+01
-2.169849000000000139e+00 2.955820999999999810e+00 7.403240200000000470e+01
-2.012567999999999913e+00 2.955681999999999920e+00 7.411193099999999845e+01
-1.855008999999999908e+00 2.955538000000000221e+00 7.418881199999999865e+01
-1.537007000000000012e+00 2.955217999999999900e+00 7.431961099999999476e+01
-1.375890000000000057e+00 2.955033999999999939e+00 7.436874400000000662e+01
-1.051978000000000080e+00 2.954645999999999884e+00 7.445368200000000058e+01
-7.304869999999999974e-01 2.954283000000000214e+00 7.455493199999999376e+01
-4.111899999999999999e-01 2.953940999999999928e+00 7.467050199999999904e+01
-2.516439999999999788e-01 2.953770000000000007e+00 7.472840899999999920e+01
-9.221300000000000330e-02 2.953600999999999921e+00 7.478672000000000253e+01
2.265340000000000131e-01 2.953260000000000218e+00 7.490292399999999873e+01
3.865529999999999800e-01 2.953082999999999902e+00 7.495584100000000660e+01
1.029122000000000092e+00 2.952341999999999800e+00 7.514645400000000564e+01
1.508631999999999973e+00 2.951805999999999930e+00 7.530264300000000333e+01
1.669021000000000088e+00 2.951620999999999828e+00 7.535018900000000031e+01
1.830101999999999896e+00 2.951427999999999940e+00 7.539266200000000140e+01
2.153671999999999809e+00 2.951027999999999984e+00 7.546714000000000055e+01
2.635653000000000024e+00 2.950457999999999803e+00 7.559972399999999482e+01
2.794026999999999816e+00 2.950290999999999997e+00 7.565869100000000458e+01
3.266966000000000037e+00 2.949807999999999986e+00 7.584778599999999926e+01
3.425736999999999810e+00 2.949634000000000089e+00 7.590251899999999807e+01
3.902592999999999979e+00 2.949106000000000005e+00 7.606100499999999442e+01
4.062119000000000035e+00 2.948923000000000183e+00 7.610937500000000000e+01
4.546548999999999729e+00 2.948315000000000019e+00 7.621463799999999367e+01
4.708397999999999861e+00 2.948107999999999951e+00 7.624685700000000566e+01
5.190502999999999645e+00 2.947518999999999778e+00 7.636431899999999473e+01
5.665377000000000329e+00 2.946997000000000089e+00 7.652543599999999913e+01
5.823674999999999713e+00 2.946822000000000052e+00 7.657842300000000080e+01
5.982999999999999652e+00 2.946636999999999951e+00 7.662459599999999682e+01
1.062950700000000026e+01 2.940882999999999914e+00 7.769583099999999831e+01
1.078599700000000006e+01 2.940713999999999828e+00 7.775111400000000117e+01
1.126077500000000065e+01 2.940157000000000131e+00 7.788466599999999573e+01
1.142089400000000055e+01 2.939954000000000178e+00 7.791804500000000644e+01
1.630460400000000121e+01 2.933101000000000180e+00 7.841403999999999996e+01
-8.057674999999999699e+00 2.791685000000000194e+00 7.120188899999999421e+01
-7.914977999999999625e+00 2.791872999999999827e+00 7.143171700000000612e+01
-7.313151000000000401e+00 2.792079000000000200e+00 7.206898499999999785e+01
-6.837176999999999616e+00 2.791806999999999928e+00 7.232726300000000208e+01
-6.677642999999999773e+00 2.791700000000000070e+00 7.240463300000000402e+01
-6.038814999999999600e+00 2.791249000000000091e+00 7.270214099999999746e+01
-5.394161999999999679e+00 2.790688999999999975e+00 7.294310000000000116e+01
-4.750142000000000309e+00 2.790125999999999884e+00 7.318144999999999811e+01
-4.427937000000000012e+00 2.789836000000000205e+00 7.329627999999999588e+01
-4.267655000000000420e+00 2.789702000000000126e+00 7.335946699999999510e+01
-3.948490000000000055e+00 2.789454000000000100e+00 7.349527000000000498e+01
-3.789175999999999878e+00 2.789333000000000062e+00 7.356447599999999909e+01
-3.629973000000000116e+00 2.789213000000000164e+00 7.363400300000000698e+01
-2.989527999999999963e+00 2.788666000000000089e+00 7.387916599999999789e+01
-2.668079999999999785e+00 2.788370000000000015e+00 7.398969999999999914e+01
-2.192823999999999884e+00 2.788022999999999918e+00 7.420416299999999410e+01
-1.238280000000000047e+00 2.787243999999999833e+00 7.458953099999999381e+01
-1.076748000000000038e+00 2.787075999999999887e+00 7.463431500000000085e+01
-5.950490000000000501e-01 2.786610000000000031e+00 7.478762799999999800e+01
3.620909999999999962e-01 2.785750000000000171e+00 7.512874600000000669e+01
6.826440000000000285e-01 2.785435999999999801e+00 7.522869099999999776e+01
1.163915999999999951e+00 2.784955000000000069e+00 7.537291700000000105e+01
1.324527999999999928e+00 2.784790999999999794e+00 7.541902899999999477e+01
1.970016999999999907e+00 2.784086999999999978e+00 7.557951400000000319e+01
2.453108999999999984e+00 2.783568999999999960e+00 7.570394100000000037e+01
2.770334000000000074e+00 2.783284999999999787e+00 7.581800800000000606e+01
3.244775000000000187e+00 2.782872999999999930e+00 7.599556699999999410e+01
3.404243999999999826e+00 2.782716999999999885e+00 7.604519700000000171e+01
4.523557000000000272e+00 2.781569000000000180e+00 7.636392200000000230e+01
4.685058999999999862e+00 2.781381999999999799e+00 7.639792599999999823e+01
5.007422000000000040e+00 2.781015000000000015e+00 7.646937599999999691e+01
5.486175000000000246e+00 2.780523000000000078e+00 7.660535400000000550e+01
5.644975999999999772e+00 2.780368000000000173e+00 7.665507499999999652e+01
6.760145999999999766e+00 2.779224000000000139e+00 7.697232800000000452e+01
7.884654000000000273e+00 2.777940000000000076e+00 7.721920799999999474e+01
8.044295999999999225e+00 2.777768000000000015e+00 7.725968899999999451e+01
1.076866899999999916e+01 2.774646999999999863e+00 7.785147100000000364e+01
1.172540700000000058e+01 2.773576999999999959e+00 7.807384500000000571e+01
1.221184200000000075e+01 2.772943999999999853e+00 7.813673400000000413e+01
1.253287100000000009e+01 2.772559000000000218e+00 7.819632699999999659e+01
1.364730600000000038e+01 2.771303000000000072e+00 7.845006600000000674e+01
1.629384800000000055e+01 2.767291999999999863e+00 7.847112300000000573e+01
1.662934900000000127e+01 2.766739999999999977e+00 7.844894399999999735e+01
-8.803540999999999173e+00 2.621262999999999899e+00 7.030849499999999352e+01
-8.499881000000000242e+00 2.621510999999999925e+00 7.062371799999999666e+01
-8.355028000000000787e+00 2.621777999999999942e+00 7.084017900000000623e+01
-8.213293000000000177e+00 2.622107000000000188e+00 7.108187900000000070e+01
-8.072568999999999662e+00 2.622453000000000145e+00 7.133027599999999779e+01
-7.930831999999999660e+00 2.622773000000000021e+00 7.156784799999999791e+01
-7.786299999999999777e+00 2.623029999999999973e+00 7.177944899999999961e+01
-7.170697999999999794e+00 2.623247000000000106e+00 7.229212200000000621e+01
-7.011343000000000103e+00 2.623184000000000182e+00 7.237180299999999988e+01
-6.691821000000000019e+00 2.623035999999999923e+00 7.252241499999999519e+01
-6.372869999999999813e+00 2.622895000000000199e+00 7.267529299999999637e+01
-6.053431999999999924e+00 2.622738000000000014e+00 7.282167099999999493e+01
-5.731643000000000043e+00 2.622529000000000110e+00 7.294657100000000582e+01
-5.408083000000000418e+00 2.622279999999999944e+00 7.305516099999999824e+01
-5.085994999999999600e+00 2.622056000000000164e+00 7.317379800000000500e+01
-4.765079000000000065e+00 2.621850999999999932e+00 7.329987300000000516e+01
-4.444124999999999659e+00 2.621640999999999888e+00 7.342366800000000637e+01
-4.124666000000000388e+00 2.621455000000000091e+00 7.355723600000000317e+01
-3.965533999999999892e+00 2.621372000000000035e+00 7.362790699999999333e+01
-3.647765000000000146e+00 2.621211000000000180e+00 7.377143900000000087e+01
-3.169208999999999943e+00 2.620924000000000031e+00 7.396809399999999357e+01
-3.008252999999999844e+00 2.620800000000000018e+00 7.402169000000000665e+01
-2.685246999999999939e+00 2.620528000000000191e+00 7.411939999999999884e+01
-2.524506000000000139e+00 2.620404000000000178e+00 7.417344699999999591e+01
-2.364933000000000174e+00 2.620302000000000131e+00 7.423586299999999483e+01
-2.048817999999999806e+00 2.620149000000000061e+00 7.438189699999999505e+01
-1.732790000000000052e+00 2.619993000000000016e+00 7.452643600000000390e+01
-1.413029000000000091e+00 2.619765000000000121e+00 7.464142599999999561e+01
-1.091895000000000060e+00 2.619508000000000170e+00 7.474472000000000094e+01
-9.315830000000000499e-01 2.619383000000000017e+00 7.479766100000000506e+01
-7.711869999999999559e-01 2.619254999999999889e+00 7.484960900000000095e+01
-4.496120000000000116e-01 2.618984000000000201e+00 7.494674700000000200e+01
-2.889729999999999799e-01 2.618850000000000122e+00 7.499586499999999489e+01
2.977899999999999991e-02 2.618622999999999923e+00 7.511102300000000298e+01
3.466659999999999742e-01 2.618425999999999920e+00 7.523774699999999882e+01
6.657070000000000487e-01 2.618186999999999820e+00 7.534757199999999955e+01
8.257780000000000120e-01 2.618056000000000161e+00 7.539805599999999686e+01
9.860520000000000396e-01 2.617922000000000082e+00 7.544677699999999732e+01
1.307943999999999996e+00 2.617627000000000148e+00 7.553388200000000552e+01
1.631350999999999996e+00 2.617303999999999853e+00 7.560936700000000599e+01
2.438031000000000059e+00 2.616516999999999982e+00 7.580599200000000337e+01
2.597036000000000122e+00 2.616397000000000084e+00 7.586023699999999792e+01
2.755256999999999845e+00 2.616289000000000087e+00 7.591939499999999441e+01
3.071943999999999786e+00 2.616067000000000142e+00 7.603488900000000683e+01
3.391058999999999823e+00 2.615800999999999821e+00 7.613273599999999419e+01
3.710316999999999865e+00 2.615528999999999993e+00 7.622835499999999342e+01
4.028653000000000262e+00 2.615270000000000206e+00 7.632875799999999344e+01
4.347598999999999769e+00 2.614997999999999934e+00 7.642388200000000609e+01
4.668918999999999819e+00 2.614685000000000148e+00 7.650241900000000328e+01
4.991293999999999897e+00 2.614352999999999927e+00 7.657315099999999575e+01
5.151758000000000060e+00 2.614198000000000022e+00 7.661280800000000113e+01
5.311639000000000443e+00 2.614050999999999902e+00 7.665593699999999444e+01
5.631293999999999578e+00 2.613757999999999804e+00 7.674205000000000609e+01
5.951309000000000182e+00 2.613455999999999779e+00 7.682480599999999527e+01
6.110743000000000258e+00 2.613313999999999915e+00 7.686939200000000483e+01
6.269763000000000197e+00 2.613176999999999861e+00 7.691629799999999761e+01
7.062969999999999970e+00 2.612512999999999863e+00 7.715817300000000500e+01
7.384318999999999633e+00 2.612179999999999946e+00 7.722787499999999739e+01
7.709132999999999569e+00 2.611791999999999891e+00 7.727556599999999776e+01
8.030659999999999243e+00 2.611453000000000024e+00 7.734260600000000352e+01
1.012052399999999963e+01 2.609205000000000219e+00 7.775938399999999717e+01
1.044194399999999945e+01 2.608854000000000006e+00 7.782123599999999897e+01
1.075872799999999962e+01 2.608569000000000138e+00 7.790914899999999932e+01
1.107352500000000006e+01 2.608311000000000046e+00 7.800746200000000385e+01
1.139150500000000044e+01 2.608004000000000211e+00 7.808647200000000055e+01
1.540388500000000072e+01 2.603495999999999810e+00 7.880136099999999999e+01
1.628388400000000047e+01 2.601526999999999923e+00 7.852403300000000286e+01
1.662248200000000153e+01 2.600924000000000014e+00 7.848534399999999778e+01
-8.654970000000000496e+00 2.451563000000000159e+00 7.049496499999999344e+01
-7.942516999999999605e+00 2.453698999999999852e+00 7.166805999999999699e+01
-7.648748999999999576e+00 2.454295999999999811e+00 7.204847700000000543e+01
-7.495440999999999576e+00 2.454428000000000054e+00 7.218164099999999905e+01
-7.179820999999999565e+00 2.454461999999999922e+00 7.236868300000000431e+01
-6.540665999999999869e+00 2.454309999999999992e+00 7.266786199999999951e+01
-5.901514999999999844e+00 2.454131999999999980e+00 7.295736700000000496e+01
-4.294655999999999807e+00 2.453371999999999886e+00 7.357106000000000279e+01
-3.659022000000000219e+00 2.453193000000000179e+00 7.385830699999999638e+01
-2.858096999999999888e+00 2.452792999999999779e+00 7.415670799999999474e+01
-1.897275999999999962e+00 2.452280000000000015e+00 7.450235700000000350e+01
1.782439000000000107e+00 2.450021000000000004e+00 7.571949800000000153e+01
1.944355000000000055e+00 2.449872000000000050e+00 7.575489799999999718e+01
2.905262000000000011e+00 2.449174000000000184e+00 7.603323399999999310e+01
3.861524000000000179e+00 2.448535999999999824e+00 7.633110000000000639e+01
4.819314999999999571e+00 2.447836999999999819e+00 7.660757399999999961e+01
1.523225700000000060e+01 2.438105000000000189e+00 7.883460999999999785e+01
1.627535200000000160e+01 2.435789999999999900e+00 7.856938900000000103e+01
-8.810803999999999192e+00 2.281505999999999812e+00 7.037165799999999649e+01
-8.659387000000000612e+00 2.281798999999999911e+00 7.053332500000000493e+01
-7.950763000000000247e+00 2.284621000000000013e+00 7.173864700000000028e+01
-7.344885999999999804e+00 2.285633999999999943e+00 7.233660899999999572e+01
-5.746030000000000193e+00 2.285556000000000143e+00 7.306295799999999474e+01
-3.983324999999999783e+00 2.285153999999999908e+00 7.376611300000000426e+01
-3.824853000000000058e+00 2.285155000000000047e+00 7.384085100000000068e+01
-2.703152000000000221e+00 2.284790000000000099e+00 7.425449399999999400e+01
-1.414189999999999892e-01 2.283758000000000177e+00 7.513793900000000292e+01
4.922320000000000029e-01 2.283615000000000173e+00 7.539105999999999597e+01
8.093709999999999516e-01 2.283526999999999862e+00 7.551277899999999477e+01
9.686639999999999695e-01 2.283462999999999798e+00 7.556796300000000599e+01
1.539076099999999947e+01 2.272257000000000193e+00 7.887216200000000299e+01
-8.812782999999999589e+00 2.111615000000000020e+00 7.038864100000000690e+01
-8.662535999999999348e+00 2.112026999999999877e+00 7.056053900000000567e+01
-7.956362000000000378e+00 2.115520000000000067e+00 7.178642299999999921e+01
-7.811055999999999777e+00 2.116060000000000052e+00 7.199048600000000420e+01
-7.661349000000000409e+00 2.116445999999999827e+00 7.215524299999999869e+01
-7.507222999999999757e+00 2.116680999999999813e+00 7.228102900000000375e+01
1.538432899999999925e+01 2.106682999999999861e+00 7.890687599999999691e+01
1.660719699999999932e+01 2.103565999999999825e+00 7.856665800000000388e+01
-8.815037999999999485e+00 1.771803999999999935e+00 7.040753899999999987e+01
-8.665983000000000658e+00 1.772435999999999900e+00 7.058987399999999468e+01
1.554148900000000033e+01 1.775261999999999896e+00 7.895166799999999796e+01
1.643220099999999917e+01 1.772348000000000035e+00 7.861685199999999440e+01
1.676350000000000051e+01 1.771844999999999892e+00 7.861600500000000125e+01
-8.818317000000000405e+00 1.432077000000000044e+00 7.043550100000000214e+01
-7.825167999999999680e+00 1.440090000000000092e+00 7.210977900000000318e+01
1.536745400000000039e+01 1.444431999999999938e+00 7.899841299999999933e+01
1.625613200000000091e+01 1.441252999999999895e+00 7.867294300000000362e+01
1.659420400000000129e+01 1.440539000000000014e+00 7.863631399999999871e+01
-8.976181000000000409e+00 1.091731999999999925e+00 7.032883499999999799e+01
-8.823461999999999250e+00 1.092508999999999952e+00 7.047995000000000232e+01
1.553172400000000053e+01 1.112913000000000041e+00 7.900510400000000288e+01
1.642670800000000142e+01 1.109199000000000046e+00 7.864721699999999771e+01
1.675702100000000172e+01 1.108734000000000108e+00 7.865142099999999914e+01
1.535948600000000042e+01 9.477750000000000341e-01 7.904202300000000037e+01
-8.829556000000000182e+00 7.530879999999999797e-01 7.053277599999999836e+01
1.535931099999999994e+01 7.821439999999999504e-01 7.904330400000000623e+01
1.552859899999999982e+01 7.817340000000000400e-01 7.902246100000000695e+01
1.625202200000000019e+01 7.781709999999999461e-01 7.869608300000000156e+01
1.659851600000000005e+01 7.770399999999999530e-01 7.861518100000000686e+01
-8.980489000000000388e+00 5.820600000000000218e-01 7.036550900000000297e+01
-8.832342000000000581e+00 5.833939999999999682e-01 7.055689200000000483e+01
-7.997638000000000247e+00 4.258819999999999828e-01 7.213748200000000566e+01
-7.849752999999999759e+00 4.272170000000000134e-01 7.231802399999999409e+01
1.553144099999999916e+01 4.502990000000000048e-01 7.900802600000000098e+01
1.643065599999999904e+01 4.457010000000000138e-01 7.862793000000000632e+01
1.676359700000000075e+01 4.451289999999999969e-01 7.861851500000000215e+01
-9.133872000000000213e+00 2.409880000000000078e-01 7.021807099999999480e+01
-8.835546000000000788e+00 2.438780000000000114e-01 7.058418299999999590e+01
-8.693996000000000279e+00 2.459230000000000027e-01 7.083187100000000669e+01
-7.999886000000000053e+00 2.569469999999999810e-01 7.215638699999999517e+01
-7.852390999999999899e+00 2.584020000000000206e-01 7.234020999999999901e+01
1.536514299999999977e+01 2.849280000000000146e-01 7.901320599999999672e+01
1.625300400000000067e+01 2.807000000000000051e-01 7.869200100000000475e+01
1.660016999999999854e+01 2.794220000000000037e-01 7.860762800000000539e+01
-8.833902000000000143e+00 -9.602900000000000325e-02 7.056863400000000297e+01
-8.138927000000000689e+00 -8.366800000000000626e-02 7.189695000000000391e+01
-7.700656999999999641e+00 -7.838299999999999434e-02 7.248540500000000009e+01
-7.544661999999999757e+00 -7.751800000000000357e-02 7.259400899999999979e+01
1.553380899999999976e+01 -4.681400000000000144e-02 7.899646799999999303e+01
1.643223599999999962e+01 -5.191300000000000081e-02 7.862073499999999626e+01
1.676462599999999981e+01 -5.246499999999999775e-02 7.861426500000000317e+01
-9.133936000000000277e+00 -2.691879999999999828e-01 7.021704900000000293e+01
-8.272928000000000281e+00 -2.559259999999999868e-01 7.159194899999999961e+01
-7.848048000000000357e+00 -2.490519999999999956e-01 7.230161999999999978e+01
-7.384376999999999747e+00 -2.458930000000000005e-01 7.266493199999999320e+01
-7.224014999999999631e+00 -2.453869999999999940e-01 7.273503900000000044e+01
-6.902362000000000108e+00 -2.444759999999999989e-01 7.286572999999999922e+01
-5.778913000000000189e+00 -2.412610000000000032e-01 7.332550000000000523e+01
-5.301244999999999763e+00 -2.396369999999999889e-01 7.354530300000000409e+01
-4.656367999999999618e+00 -2.382360000000000033e-01 7.376708999999999605e+01
-4.494959999999999845e+00 -2.379139999999999866e-01 7.381995399999999563e+01
-4.334007999999999861e+00 -2.375569999999999904e-01 7.387598400000000254e+01
-3.538129000000000079e+00 -2.351060000000000094e-01 7.421814000000000533e+01
-2.897593000000000085e+00 -2.335560000000000136e-01 7.445346100000000433e+01
-2.737267000000000117e+00 -2.331959999999999866e-01 7.450973500000000627e+01
-2.415756000000000014e+00 -2.325579999999999870e-01 7.461455499999999574e+01
-2.094212000000000184e+00 -2.319400000000000073e-01 7.471756000000000597e+01
-9.708149999999999835e-01 -2.297430000000000028e-01 7.508089400000000069e+01
4.710179999999999922e-01 -2.270040000000000113e-01 7.553958099999999831e+01
7.899680000000000035e-01 -2.263270000000000004e-01 7.564778099999999483e+01
1.106904000000000110e+00 -2.255149999999999932e-01 7.576848599999999578e+01
1.265173000000000103e+00 -2.251009999999999955e-01 7.582958999999999605e+01
2.703483999999999998e+00 -2.225729999999999931e-01 7.626774600000000248e+01
3.663537999999999961e+00 -2.211249999999999882e-01 7.653759800000000268e+01
4.937953000000000259e+00 -2.189730000000000010e-01 7.691753400000000340e+01
5.261166000000000231e+00 -2.187850000000000072e-01 7.698003400000000340e+01
1.519542299999999990e+01 -2.115609999999999991e-01 7.903741499999999576e+01
-9.132218999999999198e+00 -4.394239999999999813e-01 7.020121000000000322e+01
-8.827455999999999747e+00 -4.364489999999999759e-01 7.051064300000000173e+01
-8.542514000000000607e+00 -4.315860000000000252e-01 7.098841899999999328e+01
-8.404305000000000803e+00 -4.287710000000000132e-01 7.126143600000000333e+01
-8.266365000000000407e+00 -4.259549999999999725e-01 7.153445399999999665e+01
-8.127366000000000312e+00 -4.232679999999999776e-01 7.179600499999999386e+01
-7.986361999999999739e+00 -4.207989999999999786e-01 7.203806299999999396e+01
-7.842007999999999868e+00 -4.186739999999999906e-01 7.224935200000000179e+01
-7.693005999999999567e+00 -4.170150000000000245e-01 7.241915899999999340e+01
-7.538987999999999801e+00 -4.158499999999999974e-01 7.254487600000000214e+01
-7.381090000000000373e+00 -4.150659999999999905e-01 7.263666499999999360e+01
-7.221014000000000266e+00 -4.144970000000000043e-01 7.270931199999999706e+01
-6.898893000000000164e+00 -4.135619999999999852e-01 7.283631099999999492e+01
-6.576139999999999652e+00 -4.127100000000000213e-01 7.295596299999999701e+01
-6.253504000000000396e+00 -4.118689999999999851e-01 7.307461499999999432e+01
-6.093092999999999648e+00 -4.113729999999999887e-01 7.314065600000000700e+01
-5.775491999999999848e+00 -4.101040000000000241e-01 7.329733299999999474e+01
-5.459080000000000155e+00 -4.087560000000000082e-01 7.346110500000000343e+01
-5.139486999999999917e+00 -4.077219999999999733e-01 7.359680199999999672e+01
-4.816785000000000316e+00 -4.069889999999999897e-01 7.370564299999999491e+01
-4.493324999999999569e+00 -4.063430000000000097e-01 7.380678600000000245e+01
-4.331991000000000369e+00 -4.059909999999999908e-01 7.385987099999999828e+01
-4.171236000000000388e+00 -4.055929999999999813e-01 7.391707599999999445e+01
-3.852390000000000203e+00 -4.045790000000000219e-01 7.405084999999999695e+01
-3.535077999999999943e+00 -4.034550000000000081e-01 7.419439699999999505e+01
-3.216092000000000173e+00 -4.024989999999999957e-01 7.432295200000000079e+01
-2.896071000000000062e+00 -4.016529999999999823e-01 7.444170400000000143e+01
-2.735600999999999949e+00 -4.012769999999999948e-01 7.449693299999999851e+01
-2.414146999999999821e+00 -4.005810000000000204e-01 7.460228700000000401e+01
-2.092957000000000178e+00 -3.998800000000000132e-01 7.470803800000000194e+01
-1.771346000000000087e+00 -3.992310000000000025e-01 7.480911299999999642e+01
-1.448077999999999976e+00 -3.987359999999999793e-01 7.489651499999999373e+01
-1.126122999999999985e+00 -3.981480000000000019e-01 7.499221799999999405e+01
-8.075200000000000156e-01 -3.973010000000000153e-01 7.511082500000000550e+01
-4.887859999999999983e-01 -3.964840000000000031e-01 7.522679100000000574e+01
-1.677589999999999915e-01 -3.958690000000000264e-01 7.532471499999999764e+01
1.540439999999999865e-01 -3.953320000000000167e-01 7.541574099999999703e+01
3.142590000000000106e-01 -3.950139999999999763e-01 7.546563000000000443e+01
6.325009999999999799e-01 -3.942169999999999841e-01 7.557971200000000067e+01
9.491669999999999829e-01 -3.933139999999999969e-01 7.570320100000000707e+01
1.266459000000000001e+00 -3.924779999999999935e-01 7.582064800000000560e+01
1.585747000000000018e+00 -3.918150000000000244e-01 7.592275200000000268e+01
1.905167000000000055e+00 -3.911769999999999969e-01 7.602255200000000457e+01
2.223107000000000166e+00 -3.904420000000000113e-01 7.613105000000000189e+01
2.543105000000000171e+00 -3.898780000000000023e-01 7.622420499999999777e+01
2.863623000000000030e+00 -3.893679999999999919e-01 7.631262200000000462e+01
3.182075999999999905e+00 -3.887160000000000060e-01 7.641361200000000053e+01
3.503594999999999793e+00 -3.883070000000000133e-01 7.649297300000000632e+01
3.665687000000000140e+00 -3.882059999999999955e-01 7.652347600000000227e+01
3.988274999999999793e+00 -3.878929999999999878e-01 7.659432999999999936e+01
4.305877999999999872e+00 -3.872240000000000126e-01 7.669670100000000446e+01
4.620821000000000289e+00 -3.863759999999999972e-01 7.681495700000000681e+01
4.938716000000000328e+00 -3.857590000000000185e-01 7.691271999999999309e+01
5.262347000000000108e+00 -3.855689999999999951e-01 7.697258800000000178e+01
5.586891999999999747e+00 -3.854520000000000168e-01 7.702587900000000332e+01
5.907494999999999941e+00 -3.850629999999999886e-01 7.710335499999999342e+01
6.225463999999999665e+00 -3.844980000000000064e-01 7.719637299999999414e+01
6.384788000000000352e+00 -3.842450000000000032e-01 7.724032599999999604e+01
6.544661999999999757e+00 -3.840330000000000132e-01 7.728057099999999480e+01
6.865363999999999578e+00 -3.836840000000000250e-01 7.735440099999999575e+01
7.025684000000000040e+00 -3.835109999999999908e-01 7.739115900000000181e+01
7.345766000000000240e+00 -3.831350000000000033e-01 7.746742199999999912e+01
7.505304999999999893e+00 -3.829159999999999786e-01 7.750826999999999600e+01
7.664520000000000444e+00 -3.826769999999999894e-01 7.755084999999999695e+01
7.982829999999999870e+00 -3.821999999999999842e-01 7.763596300000000383e+01
8.302891000000000687e+00 -3.818540000000000267e-01 7.770947300000000268e+01
8.626995000000000857e+00 -3.817909999999999915e-01 7.775785100000000227e+01
8.949906999999999613e+00 -3.816550000000000220e-01 7.781274399999999503e+01
9.267697000000000074e+00 -3.811829999999999941e-01 7.789733099999999411e+01
9.585069999999999979e+00 -3.806939999999999769e-01 7.798338300000000345e+01
9.904313999999999396e+00 -3.803409999999999846e-01 7.805744900000000541e+01
1.022639799999999966e+01 -3.801840000000000219e-01 7.811410499999999502e+01
1.038769500000000079e+01 -3.801249999999999907e-01 7.814069399999999632e+01
1.070734900000000067e+01 -3.798199999999999910e-01 7.821039600000000291e+01
1.102550699999999928e+01 -3.794270000000000143e-01 7.828788000000000125e+01
1.134688599999999958e+01 -3.792519999999999780e-01 7.834606899999999996e+01
1.166686499999999960e+01 -3.789950000000000263e-01 7.841153699999999560e+01
1.182658400000000043e+01 -3.788520000000000221e-01 7.844552600000000098e+01
1.198715200000000003e+01 -3.787650000000000183e-01 7.847451800000000333e+01
1.231061700000000059e+01 -3.787460000000000271e-01 7.851892100000000596e+01
1.263377200000000045e+01 -3.787119999999999931e-01 7.856455200000000616e+01
1.295362899999999939e+01 -3.784770000000000079e-01 7.862799099999999441e+01
1.326952600000000082e+01 -3.780020000000000047e-01 7.871260100000000648e+01
1.358556399999999975e+01 -3.775459999999999927e-01 7.879550899999999558e+01
1.374593300000000085e+01 -3.774680000000000257e-01 7.882372999999999763e+01
1.407094900000000059e+01 -3.775800000000000267e-01 7.885636900000000082e+01
1.439248100000000008e+01 -3.774830000000000130e-01 7.890753899999999987e+01
1.470892899999999948e+01 -3.770809999999999995e-01 7.898557999999999879e+01
1.502998400000000068e+01 -3.769689999999999985e-01 7.903804800000000341e+01
1.536139700000000019e+01 -3.774899999999999922e-01 7.903461500000000228e+01
1.553267600000000037e+01 -3.780859999999999776e-01 7.900321200000000488e+01
1.570943699999999943e+01 -3.790100000000000136e-01 7.894282499999999914e+01
1.626065799999999939e+01 -3.830140000000000211e-01 7.865310700000000566e+01
1.660807199999999995e+01 -3.844639999999999724e-01 7.856765699999999697e+01
1.693010900000000163e+01 -3.844040000000000235e-01 7.861550900000000297e+01
