1.666714999999999947e+01 3.596337999999999813e+00 7.824876399999999421e+01 0.000000000000000000e+00 0.000000000000000000e+00 0.000000000000000000e+00
1.682788700000000048e+01 3.596070999999999795e+00 7.827494799999999486e+01 0.000000000000000000e+00 0.000000000000000000e+00 0.000000000000000000e+00
1.746274899999999874e+01 3.594990000000000130e+00 7.842013500000000192e+01 0.000000000000000000e+00 0.000000000000000000e+00 0.000000000000000000e+00
1.761974299999999971e+01 3.594717000000000162e+00 7.846486699999999814e+01 0.000000000000000000e+00 0.000000000000000000e+00 0.000000000000000000e+00
1.793179500000000104e+01 3.594167000000000112e+00 7.856356800000000362e+01 0.000000000000000000e+00 0.000000000000000000e+00 0.000000000000000000e+00
1.808930199999999999e+01 3.593894999999999840e+00 7.860495000000000232e+01 0.000000000000000000e+00 0.000000000000000000e+00 0.000000000000000000e+00
-9.744763000000000730e+00 3.472747000000000028e+00 6.960629299999999375e+01 0.000000000000000000e+00 0.000000000000000000e+00 0.000000000000000000e+00
-8.458142000000000493e+00 3.470638000000000112e+00 7.026045999999999481e+01 0.000000000000000000e+00 0.000000000000000000e+00 0.000000000000000000e+00
-7.983628999999999643e+00 3.469847999999999821e+00 7.056315600000000643e+01 0.000000000000000000e+00 0.000000000000000000e+00 0.000000000000000000e+00
-7.356920999999999822e+00 3.468798000000000048e+00 7.100571399999999755e+01 0.000000000000000000e+00 0.000000000000000000e+00 0.000000000000000000e+00
-7.198885999999999896e+00 3.468535999999999841e+00 7.110253899999999305e+01 0.000000000000000000e+00 0.000000000000000000e+00 0.000000000000000000e+00
-6.882717000000000418e+00 3.468011999999999873e+00 7.129293800000000658e+01 0.000000000000000000e+00 0.000000000000000000e+00 0.000000000000000000e+00
-6.405482000000000120e+00 3.467226999999999837e+00 7.154793499999999540e+01 0.000000000000000000e+00 0.000000000000000000e+00 0.000000000000000000e+00
-6.082999000000000045e+00 3.466705000000000148e+00 7.167883299999999736e+01 0.000000000000000000e+00 0.000000000000000000e+00 0.000000000000000000e+00
-5.921850000000000058e+00 3.466444000000000081e+00 7.174424700000000144e+01 0.000000000000000000e+00 0.000000000000000000e+00 0.000000000000000000e+00
-5.760737999999999914e+00 3.466183000000000014e+00 7.180942500000000450e+01 0.000000000000000000e+00 0.000000000000000000e+00 0.000000000000000000e+00
-4.794527999999999679e+00 3.464618999999999893e+00 7.219332900000000564e+01 0.000000000000000000e+00 0.000000000000000000e+00 0.000000000000000000e+00
-4.311074999999999768e+00 3.463837999999999973e+00 7.237575499999999806e+01 0.000000000000000000e+00 0.000000000000000000e+00 0.000000000000000000e+00
-4.149720000000000297e+00 3.463578000000000046e+00 7.243400599999999656e+01 0.000000000000000000e+00 0.000000000000000000e+00 0.000000000000000000e+00
-3.343227000000000171e+00 3.462279000000000106e+00 7.272073399999999310e+01 0.000000000000000000e+00 0.000000000000000000e+00 0.000000000000000000e+00
-2.703447000000000155e+00 3.461241999999999930e+00 7.298342100000000698e+01 0.000000000000000000e+00 0.000000000000000000e+00 0.000000000000000000e+00
-2.384711999999999943e+00 3.460723999999999911e+00 7.312051400000000001e+01 0.000000000000000000e+00 0.000000000000000000e+00 0.000000000000000000e+00
-1.909081999999999946e+00 3.459947999999999801e+00 7.334078200000000436e+01 0.000000000000000000e+00 0.000000000000000000e+00 0.000000000000000000e+00
-1.750577999999999967e+00 3.459690000000000154e+00 7.341342199999999707e+01 0.000000000000000000e+00 0.000000000000000000e+00 0.000000000000000000e+00
-1.269079000000000068e+00 3.458914000000000044e+00 7.358413699999999835e+01 0.000000000000000000e+00 0.000000000000000000e+00 0.000000000000000000e+00
-1.107061999999999991e+00 3.458655999999999953e+00 7.362909700000000157e+01 0.000000000000000000e+00 0.000000000000000000e+00 0.000000000000000000e+00
-7.846250000000000169e-01 3.458139000000000074e+00 7.372965200000000152e+01 0.000000000000000000e+00 0.000000000000000000e+00 0.000000000000000000e+00
-3.074640000000000151e-01 3.457365999999999939e+00 7.392449200000000076e+01 0.000000000000000000e+00 0.000000000000000000e+00 0.000000000000000000e+00
-1.484459999999999946e-01 3.457107999999999848e+00 7.398877000000000237e+01 0.000000000000000000e+00 0.000000000000000000e+00 0.000000000000000000e+00
1.098299999999999971e-02 3.456850999999999896e+00 7.404965199999999470e+01 0.000000000000000000e+00 0.000000000000000000e+00 0.000000000000000000e+00
3.300469999999999793e-01 3.456335000000000157e+00 7.416867100000000335e+01 0.000000000000000000e+00 0.000000000000000000e+00 0.000000000000000000e+00
1.447991000000000028e+00 3.454534999999999911e+00 7.456383499999999742e+01 0.000000000000000000e+00 0.000000000000000000e+00 0.000000000000000000e+00
1.606748999999999983e+00 3.454277999999999960e+00 7.462527500000000202e+01 0.000000000000000000e+00 0.000000000000000000e+00 0.000000000000000000e+00
2.085828999999999933e+00 3.453507999999999800e+00 7.478791800000000478e+01 0.000000000000000000e+00 0.000000000000000000e+00 0.000000000000000000e+00
2.247046000000000099e+00 3.453250999999999848e+00 7.483101700000000278e+01 0.000000000000000000e+00 0.000000000000000000e+00 0.000000000000000000e+00
2.570345999999999798e+00 3.452736999999999945e+00 7.491046900000000619e+01 0.000000000000000000e+00 0.000000000000000000e+00 0.000000000000000000e+00
3.206319000000000141e+00 3.451712000000000113e+00 7.513715399999999534e+01 0.000000000000000000e+00 0.000000000000000000e+00 0.000000000000000000e+00
3.364167000000000129e+00 3.451456999999999997e+00 7.520050799999999924e+01 0.000000000000000000e+00 0.000000000000000000e+00 0.000000000000000000e+00
3.680715000000000181e+00 3.450944999999999929e+00 7.532033500000000004e+01 0.000000000000000000e+00 0.000000000000000000e+00 0.000000000000000000e+00
3.839129999999999932e+00 3.450689999999999813e+00 7.537872299999999370e+01 0.000000000000000000e+00 0.000000000000000000e+00 0.000000000000000000e+00
3.997926000000000091e+00 3.450434000000000001e+00 7.543423500000000104e+01 0.000000000000000000e+00 0.000000000000000000e+00 0.000000000000000000e+00
4.965915999999999997e+00 3.448895999999999962e+00 7.566165200000000368e+01 0.000000000000000000e+00 0.000000000000000000e+00 0.000000000000000000e+00
5.284675000000000011e+00 3.448385000000000034e+00 7.576052099999999712e+01 0.000000000000000000e+00 0.000000000000000000e+00 0.000000000000000000e+00
5.599765999999999799e+00 3.447875999999999941e+00 7.588149300000000608e+01 0.000000000000000000e+00 0.000000000000000000e+00 0.000000000000000000e+00
5.914864999999999817e+00 3.447366999999999848e+00 7.600088499999999669e+01 0.000000000000000000e+00 0.000000000000000000e+00 0.000000000000000000e+00
6.231965999999999894e+00 3.446858000000000199e+00 7.610618599999999390e+01 0.000000000000000000e+00 0.000000000000000000e+00 0.000000000000000000e+00
7.024168000000000411e+00 3.445584999999999898e+00 7.636715700000000595e+01 0.000000000000000000e+00 0.000000000000000000e+00 0.000000000000000000e+00
7.349954999999999572e+00 3.445073999999999970e+00 7.641445199999999716e+01 0.000000000000000000e+00 0.000000000000000000e+00 0.000000000000000000e+00
8.153988999999999265e+00 3.443798000000000137e+00 7.659339900000000512e+01 0.000000000000000000e+00 0.000000000000000000e+00 0.000000000000000000e+00
8.309931999999999874e+00 3.443544999999999856e+00 7.665795900000000529e+01 0.000000000000000000e+00 0.000000000000000000e+00 0.000000000000000000e+00
8.624622999999999706e+00 3.443038000000000043e+00 7.676904299999999637e+01 0.000000000000000000e+00 0.000000000000000000e+00 0.000000000000000000e+00
9.748761000000000010e+00 3.441256000000000093e+00 7.701367199999999968e+01 0.000000000000000000e+00 0.000000000000000000e+00 0.000000000000000000e+00
9.910861000000000587e+00 3.441000999999999976e+00 7.703892500000000609e+01 0.000000000000000000e+00 0.000000000000000000e+00 0.000000000000000000e+00
1.087426999999999921e+01 3.439475999999999978e+00 7.724037900000000434e+01 0.000000000000000000e+00 0.000000000000000000e+00 0.000000000000000000e+00
1.103228799999999943e+01 3.439223000000000141e+00 7.728796400000000233e+01 0.000000000000000000e+00 0.000000000000000000e+00 0.000000000000000000e+00
1.198356099999999991e+01 3.437704000000000093e+00 7.754986599999999441e+01 0.000000000000000000e+00 0.000000000000000000e+00 0.000000000000000000e+00
1.230241099999999932e+01 3.437197999999999976e+00 7.762527500000000202e+01 0.000000000000000000e+00 0.000000000000000000e+00 0.000000000000000000e+00
1.294040799999999969e+01 3.436185000000000045e+00 7.777190400000000636e+01 0.000000000000000000e+00 0.000000000000000000e+00 0.000000000000000000e+00
1.326294500000000021e+01 3.435677000000000092e+00 7.782437099999999930e+01 0.000000000000000000e+00 0.000000000000000000e+00 0.000000000000000000e+00
1.358203600000000044e+01 3.435170999999999975e+00 7.789524799999999516e+01 0.000000000000000000e+00 0.000000000000000000e+00 0.000000000000000000e+00
1.485397500000000015e+01 3.433149999999999924e+00 7.819491600000000631e+01 0.000000000000000000e+00 0.000000000000000000e+00 0.000000000000000000e+00
1.501432900000000004e+01 3.432897000000000087e+00 7.822412900000000491e+01 0.000000000000000000e+00 0.000000000000000000e+00 0.000000000000000000e+00
1.599937100000000001e+01 3.431366000000000138e+00 7.827462800000000698e+01 0.000000000000000000e+00 0.000000000000000000e+00 0.000000000000000000e+00
1.713882399999999961e+01 3.429584999999999884e+00 7.838211099999999476e+01 0.000000000000000000e+00 0.000000000000000000e+00 0.000000000000000000e+00
-9.910386000000000806e+00 3.302665999999999880e+00 6.956431600000000515e+01 0.000000000000000000e+00 0.000000000000000000e+00 0.000000000000000000e+00
-9.748611000000000359e+00 3.302439999999999820e+00 6.964063299999999401e+01 0.000000000000000000e+00 0.000000000000000000e+00 0.000000000000000000e+00
-9.425672000000000494e+00 3.301989999999999981e+00 6.979671500000000606e+01 0.000000000000000000e+00 0.000000000000000000e+00 0.000000000000000000e+00
-9.103236000000000772e+00 3.301540000000000141e+00 6.995452899999999374e+01 0.000000000000000000e+00 0.000000000000000000e+00 0.000000000000000000e+00
-8.782406999999999186e+00 3.301096999999999948e+00 7.012376399999999421e+01 0.000000000000000000e+00 0.000000000000000000e+00 0.000000000000000000e+00
-8.464472000000000662e+00 3.300664999999999960e+00 7.031543000000000632e+01 0.000000000000000000e+00 0.000000000000000000e+00 0.000000000000000000e+00
-8.152844999999999231e+00 3.300259000000000054e+00 7.055860900000000413e+01 0.000000000000000000e+00 0.000000000000000000e+00 0.000000000000000000e+00
-7.847743000000000357e+00 3.299878000000000089e+00 7.085385899999999992e+01 0.000000000000000000e+00 0.000000000000000000e+00 0.000000000000000000e+00
-7.540968999999999589e+00 3.299488999999999894e+00 7.112987499999999841e+01 0.000000000000000000e+00 0.000000000000000000e+00 0.000000000000000000e+00
-7.228526999999999703e+00 3.299075000000000202e+00 7.135325600000000179e+01 0.000000000000000000e+00 0.000000000000000000e+00 0.000000000000000000e+00
-6.913077000000000361e+00 3.298648000000000025e+00 7.154766100000000506e+01 0.000000000000000000e+00 0.000000000000000000e+00 0.000000000000000000e+00
-6.596167999999999587e+00 3.298213000000000061e+00 7.172669199999999989e+01 0.000000000000000000e+00 0.000000000000000000e+00 0.000000000000000000e+00
-6.275432000000000343e+00 3.297763000000000222e+00 7.187116199999999822e+01 0.000000000000000000e+00 0.000000000000000000e+00 0.000000000000000000e+00
-5.953231999999999857e+00 3.297305999999999848e+00 7.200127399999999511e+01 0.000000000000000000e+00 0.000000000000000000e+00 0.000000000000000000e+00
-5.631015999999999799e+00 3.296847999999999779e+00 7.212914999999999566e+01 0.000000000000000000e+00 0.000000000000000000e+00 0.000000000000000000e+00
-5.469659000000000049e+00 3.296618000000000048e+00 7.219029199999999946e+01 0.000000000000000000e+00 0.000000000000000000e+00 0.000000000000000000e+00
-5.147700999999999638e+00 3.296159999999999979e+00 7.231719200000000569e+01 0.000000000000000000e+00 0.000000000000000000e+00 0.000000000000000000e+00
-4.987008000000000330e+00 3.295932000000000084e+00 7.238217199999999707e+01 0.000000000000000000e+00 0.000000000000000000e+00 0.000000000000000000e+00
-4.825972000000000151e+00 3.295703000000000049e+00 7.244390099999999677e+01 0.000000000000000000e+00 0.000000000000000000e+00 0.000000000000000000e+00
-4.502540999999999904e+00 3.295237999999999889e+00 7.255513799999999947e+01 0.000000000000000000e+00 0.000000000000000000e+00 0.000000000000000000e+00
-4.018474000000000323e+00 3.294544000000000139e+00 7.272718799999999817e+01 0.000000000000000000e+00 0.000000000000000000e+00 0.000000000000000000e+00
-3.857394999999999907e+00 3.294313999999999965e+00 7.278580499999999631e+01 0.000000000000000000e+00 0.000000000000000000e+00 0.000000000000000000e+00
-3.535172000000000203e+00 3.293851999999999780e+00 7.290116899999999589e+01 0.000000000000000000e+00 0.000000000000000000e+00 0.000000000000000000e+00
-3.374435000000000073e+00 3.293622000000000050e+00 7.296107499999999391e+01 0.000000000000000000e+00 0.000000000000000000e+00 0.000000000000000000e+00
-3.214001000000000108e+00 3.293394000000000155e+00 7.302285000000000537e+01 0.000000000000000000e+00 0.000000000000000000e+00 0.000000000000000000e+00
-2.893723000000000045e+00 3.292939000000000060e+00 7.314949000000000012e+01 0.000000000000000000e+00 0.000000000000000000e+00 0.000000000000000000e+00
-2.734277000000000069e+00 3.292713000000000001e+00 7.321736099999999681e+01 0.000000000000000000e+00 0.000000000000000000e+00 0.000000000000000000e+00
-2.417339000000000127e+00 3.292269999999999808e+00 7.336629499999999382e+01 0.000000000000000000e+00 0.000000000000000000e+00 0.000000000000000000e+00
-2.101300000000000168e+00 3.291830000000000034e+00 7.351974500000000035e+01 0.000000000000000000e+00 0.000000000000000000e+00 0.000000000000000000e+00
-1.943165000000000031e+00 3.291608999999999785e+00 7.359475700000000131e+01 0.000000000000000000e+00 0.000000000000000000e+00 0.000000000000000000e+00
-1.784694000000000003e+00 3.291386000000000145e+00 7.366672499999999957e+01 0.000000000000000000e+00 0.000000000000000000e+00 0.000000000000000000e+00
-1.465117000000000003e+00 3.290931000000000051e+00 7.378963500000000408e+01 0.000000000000000000e+00 0.000000000000000000e+00 0.000000000000000000e+00
-9.801050000000000040e-01 3.290226000000000095e+00 7.392945100000000025e+01 0.000000000000000000e+00 0.000000000000000000e+00 0.000000000000000000e+00
-8.192690000000000250e-01 3.289994000000000085e+00 7.398144499999999368e+01 0.000000000000000000e+00 0.000000000000000000e+00 0.000000000000000000e+00
-5.006300000000000194e-01 3.289540999999999826e+00 7.410620900000000688e+01 0.000000000000000000e+00 0.000000000000000000e+00 0.000000000000000000e+00
-3.419630000000000170e-01 3.289315999999999907e+00 7.417261499999999330e+01 0.000000000000000000e+00 0.000000000000000000e+00 0.000000000000000000e+00
-1.829669999999999908e-01 3.289089999999999847e+00 7.423619100000000515e+01 0.000000000000000000e+00 0.000000000000000000e+00 0.000000000000000000e+00
1.362420000000000020e-01 3.288634000000000057e+00 7.435331700000000410e+01 0.000000000000000000e+00 0.000000000000000000e+00 0.000000000000000000e+00
7.772829999999999462e-01 3.287710000000000132e+00 7.456423999999999808e+01 0.000000000000000000e+00 0.000000000000000000e+00 0.000000000000000000e+00
9.376100000000000545e-01 3.287478000000000122e+00 7.461558499999999583e+01 0.000000000000000000e+00 0.000000000000000000e+00 0.000000000000000000e+00
1.256660000000000110e+00 3.287021000000000193e+00 7.472834799999999689e+01 0.000000000000000000e+00 0.000000000000000000e+00 0.000000000000000000e+00
1.415407999999999999e+00 3.286795000000000133e+00 7.478952800000000423e+01 0.000000000000000000e+00 0.000000000000000000e+00 0.000000000000000000e+00
1.574020999999999892e+00 3.286569000000000074e+00 7.485121900000000039e+01 0.000000000000000000e+00 0.000000000000000000e+00 0.000000000000000000e+00
1.892894000000000077e+00 3.286111000000000004e+00 7.496204400000000589e+01 0.000000000000000000e+00 0.000000000000000000e+00 0.000000000000000000e+00
2.215443000000000051e+00 3.285639999999999894e+00 7.504631799999999942e+01 0.000000000000000000e+00 0.000000000000000000e+00 0.000000000000000000e+00
2.539250000000000007e+00 3.285162999999999833e+00 7.512092599999999720e+01 0.000000000000000000e+00 0.000000000000000000e+00 0.000000000000000000e+00
2.859081000000000206e+00 3.284701000000000093e+00 7.522126000000000090e+01 0.000000000000000000e+00 0.000000000000000000e+00 0.000000000000000000e+00
3.174307000000000212e+00 3.284253999999999785e+00 7.535101299999999469e+01 0.000000000000000000e+00 0.000000000000000000e+00 0.000000000000000000e+00
3.331790999999999947e+00 3.284031000000000144e+00 7.541610699999999667e+01 0.000000000000000000e+00 0.000000000000000000e+00 0.000000000000000000e+00
3.489691999999999794e+00 3.283806999999999920e+00 7.547799700000000200e+01 0.000000000000000000e+00 0.000000000000000000e+00 0.000000000000000000e+00
3.806059999999999999e+00 3.283354999999999801e+00 7.559684000000000026e+01 0.000000000000000000e+00 0.000000000000000000e+00 0.000000000000000000e+00
4.610814000000000412e+00 3.282176000000000204e+00 7.579743200000000058e+01 0.000000000000000000e+00 0.000000000000000000e+00 0.000000000000000000e+00
4.933895999999999837e+00 3.281699000000000144e+00 7.586823300000000359e+01 0.000000000000000000e+00 0.000000000000000000e+00 0.000000000000000000e+00
5.253440999999999583e+00 3.281235000000000124e+00 7.596078500000000133e+01 0.000000000000000000e+00 0.000000000000000000e+00 0.000000000000000000e+00
5.411471999999999838e+00 3.281007999999999925e+00 7.601773799999999426e+01 0.000000000000000000e+00 0.000000000000000000e+00 0.000000000000000000e+00
5.568495000000000417e+00 3.280785999999999980e+00 7.608075700000000552e+01 0.000000000000000000e+00 0.000000000000000000e+00 0.000000000000000000e+00
5.882857999999999699e+00 3.280337999999999976e+00 7.620359000000000549e+01 0.000000000000000000e+00 0.000000000000000000e+00 0.000000000000000000e+00
6.360133000000000258e+00 3.279647000000000201e+00 7.634902999999999906e+01 0.000000000000000000e+00 0.000000000000000000e+00 0.000000000000000000e+00
6.518853000000000009e+00 3.279418000000000166e+00 7.639922300000000632e+01 0.000000000000000000e+00 0.000000000000000000e+00 0.000000000000000000e+00
6.834565999999999697e+00 3.278964000000000212e+00 7.650941500000000417e+01 0.000000000000000000e+00 0.000000000000000000e+00 0.000000000000000000e+00
7.155375000000000263e+00 3.278493000000000102e+00 7.658676900000000387e+01 0.000000000000000000e+00 0.000000000000000000e+00 0.000000000000000000e+00
7.318900000000000183e+00 3.278246999999999911e+00 7.660586499999999432e+01 0.000000000000000000e+00 0.000000000000000000e+00 0.000000000000000000e+00
7.482962999999999809e+00 3.277998999999999885e+00 7.662153600000000608e+01 0.000000000000000000e+00 0.000000000000000000e+00 0.000000000000000000e+00
7.646059000000000161e+00 3.277753999999999834e+00 7.664302800000000104e+01 0.000000000000000000e+00 0.000000000000000000e+00 0.000000000000000000e+00
7.967056000000000360e+00 3.277282000000000028e+00 7.671721599999999341e+01 0.000000000000000000e+00 0.000000000000000000e+00 0.000000000000000000e+00
8.282273999999999248e+00 3.276829000000000214e+00 7.682546200000000169e+01 0.000000000000000000e+00 0.000000000000000000e+00 0.000000000000000000e+00
8.759584999999999511e+00 3.276133999999999880e+00 7.695851100000000145e+01 0.000000000000000000e+00 0.000000000000000000e+00 0.000000000000000000e+00
8.921158999999999395e+00 3.275894000000000084e+00 7.698756400000000610e+01 0.000000000000000000e+00 0.000000000000000000e+00 0.000000000000000000e+00
9.241130999999999318e+00 3.275424000000000113e+00 7.706401099999999360e+01 0.000000000000000000e+00 0.000000000000000000e+00 0.000000000000000000e+00
9.559226999999999919e+00 3.274960000000000093e+00 7.715063499999999408e+01 0.000000000000000000e+00 0.000000000000000000e+00 0.000000000000000000e+00
9.883368000000000819e+00 3.274474999999999802e+00 7.720071400000000494e+01 0.000000000000000000e+00 0.000000000000000000e+00 0.000000000000000000e+00
1.004661800000000049e+01 3.274229000000000056e+00 7.721862000000000137e+01 0.000000000000000000e+00 0.000000000000000000e+00 0.000000000000000000e+00
1.020898299999999992e+01 3.273985999999999841e+00 7.724157700000000659e+01 0.000000000000000000e+00 0.000000000000000000e+00 0.000000000000000000e+00
1.052826600000000035e+01 3.273517000000000010e+00 7.731874100000000283e+01 0.000000000000000000e+00 0.000000000000000000e+00 0.000000000000000000e+00
1.068577299999999930e+01 3.273289999999999811e+00 7.736935400000000129e+01 0.000000000000000000e+00 0.000000000000000000e+00 0.000000000000000000e+00
1.100099999999999945e+01 3.272834000000000021e+00 7.746846800000000144e+01 0.000000000000000000e+00 0.000000000000000000e+00 0.000000000000000000e+00
1.131756200000000057e+01 3.272374000000000116e+00 7.755880700000000161e+01 0.000000000000000000e+00 0.000000000000000000e+00 0.000000000000000000e+00
1.163535100000000000e+01 3.271908999999999956e+00 7.764112099999999828e+01 0.000000000000000000e+00 0.000000000000000000e+00 0.000000000000000000e+00
1.195597700000000074e+01 3.271434999999999871e+00 7.770642100000000596e+01 0.000000000000000000e+00 0.000000000000000000e+00 0.000000000000000000e+00
1.227702500000000008e+01 3.270958999999999950e+00 7.776860000000000639e+01 0.000000000000000000e+00 0.000000000000000000e+00 0.000000000000000000e+00
1.259586900000000043e+01 3.270490000000000119e+00 7.784242199999999912e+01 0.000000000000000000e+00 0.000000000000000000e+00 0.000000000000000000e+00
1.291418400000000055e+01 3.270021999999999984e+00 7.791836499999999432e+01 0.000000000000000000e+00 0.000000000000000000e+00 0.000000000000000000e+00
1.323541799999999924e+01 3.269544999999999924e+00 7.797727199999999925e+01 0.000000000000000000e+00 0.000000000000000000e+00 0.000000000000000000e+00
1.355496699999999954e+01 3.269073000000000118e+00 7.804481499999999983e+01 0.000000000000000000e+00 0.000000000000000000e+00 0.000000000000000000e+00
1.434789400000000015e+01 3.267910999999999788e+00 7.824276000000000408e+01 0.000000000000000000e+00 0.000000000000000000e+00 0.000000000000000000e+00
1.466769200000000062e+01 3.267437000000000147e+00 7.830620600000000309e+01 0.000000000000000000e+00 0.000000000000000000e+00 0.000000000000000000e+00
1.498937600000000003e+01 3.266957999999999807e+00 7.835881000000000540e+01 0.000000000000000000e+00 0.000000000000000000e+00 0.000000000000000000e+00
1.531277000000000044e+01 3.266471999999999820e+00 7.840167999999999893e+01 0.000000000000000000e+00 0.000000000000000000e+00 0.000000000000000000e+00
1.564508000000000010e+01 3.265959000000000056e+00 7.839657599999999604e+01 0.000000000000000000e+00 0.000000000000000000e+00 0.000000000000000000e+00
1.598634999999999984e+01 3.265416999999999792e+00 7.834400200000000325e+01 0.000000000000000000e+00 0.000000000000000000e+00 0.000000000000000000e+00
1.632483699999999871e+01 3.264883999999999897e+00 7.830661800000000028e+01 0.000000000000000000e+00 0.000000000000000000e+00 0.000000000000000000e+00
1.649011600000000044e+01 3.264629999999999921e+00 7.830890700000000493e+01 0.000000000000000000e+00 0.000000000000000000e+00 0.000000000000000000e+00
1.681347500000000039e+01 3.264143999999999934e+00 7.835111200000000053e+01 0.000000000000000000e+00 0.000000000000000000e+00 0.000000000000000000e+00
1.713138199999999856e+01 3.263675000000000104e+00 7.842124200000000656e+01 0.000000000000000000e+00 0.000000000000000000e+00 0.000000000000000000e+00
1.729008899999999826e+01 3.263441999999999954e+00 7.845731399999999667e+01 0.000000000000000000e+00 0.000000000000000000e+00 0.000000000000000000e+00
1.744901300000000077e+01 3.263206999999999969e+00 7.849207300000000487e+01 0.000000000000000000e+00 0.000000000000000000e+00 0.000000000000000000e+00
1.776597999999999900e+01 3.262741000000000113e+00 7.856559000000000026e+01 0.000000000000000000e+00 0.000000000000000000e+00 0.000000000000000000e+00
1.808296199999999843e+01 3.262274999999999814e+00 7.863826000000000249e+01 0.000000000000000000e+00 0.000000000000000000e+00 0.000000000000000000e+00
-9.268247999999999820e+00 3.131606000000000112e+00 6.990939299999999434e+01 0.000000000000000000e+00 0.000000000000000000e+00 0.000000000000000000e+00
-8.628932000000000713e+00 3.130907000000000107e+00 7.026784499999999412e+01 0.000000000000000000e+00 0.000000000000000000e+00 0.000000000000000000e+00
-8.319024999999999892e+00 3.130635999999999974e+00 7.052750399999999331e+01 0.000000000000000000e+00 0.000000000000000000e+00 0.000000000000000000e+00
-7.722051999999999694e+00 3.130274000000000001e+00 7.122960700000000145e+01 0.000000000000000000e+00 0.000000000000000000e+00 0.000000000000000000e+00
-7.260487999999999609e+00 3.129875999999999880e+00 7.162362699999999904e+01 0.000000000000000000e+00 0.000000000000000000e+00 0.000000000000000000e+00
-7.103130000000000166e+00 3.129713000000000189e+00 7.172322800000000598e+01 0.000000000000000000e+00 0.000000000000000000e+00 0.000000000000000000e+00
-6.945103999999999722e+00 3.129544000000000104e+00 7.181638300000000186e+01 0.000000000000000000e+00 0.000000000000000000e+00 0.000000000000000000e+00
-6.147223000000000326e+00 3.128626000000000129e+00 7.220696999999999832e+01 0.000000000000000000e+00 0.000000000000000000e+00 0.000000000000000000e+00
-5.986597999999999864e+00 3.128432999999999797e+00 7.227458199999999522e+01 0.000000000000000000e+00 0.000000000000000000e+00 0.000000000000000000e+00
-5.825903000000000276e+00 3.128238000000000074e+00 7.234107199999999693e+01 0.000000000000000000e+00 0.000000000000000000e+00 0.000000000000000000e+00
-5.664886000000000088e+00 3.128041000000000071e+00 7.240440399999999954e+01 0.000000000000000000e+00 0.000000000000000000e+00 0.000000000000000000e+00
-5.342609000000000385e+00 3.127642999999999951e+00 7.252757300000000384e+01 0.000000000000000000e+00 0.000000000000000000e+00 0.000000000000000000e+00
-4.697527000000000008e+00 3.126837999999999784e+00 7.276386999999999716e+01 0.000000000000000000e+00 0.000000000000000000e+00 0.000000000000000000e+00
-4.535351999999999606e+00 3.126628999999999881e+00 7.281462100000000248e+01 0.000000000000000000e+00 0.000000000000000000e+00 0.000000000000000000e+00
-4.051951999999999998e+00 3.126024000000000136e+00 7.298893700000000706e+01 0.000000000000000000e+00 0.000000000000000000e+00 0.000000000000000000e+00
-3.891500000000000181e+00 3.125827000000000133e+00 7.305145299999999509e+01 0.000000000000000000e+00 0.000000000000000000e+00 0.000000000000000000e+00
-3.089119000000000170e+00 3.124835000000000029e+00 7.335595700000000363e+01 0.000000000000000000e+00 0.000000000000000000e+00 0.000000000000000000e+00
-2.768962000000000145e+00 3.124441000000000024e+00 7.348057599999999923e+01 0.000000000000000000e+00 0.000000000000000000e+00 0.000000000000000000e+00
-2.610371000000000219e+00 3.124254999999999782e+00 7.355342899999999418e+01 0.000000000000000000e+00 0.000000000000000000e+00 0.000000000000000000e+00
-2.295284999999999798e+00 3.123896999999999924e+00 7.371326399999999524e+01 0.000000000000000000e+00 0.000000000000000000e+00 0.000000000000000000e+00
-1.663232999999999961e+00 3.123162000000000216e+00 7.401197799999999916e+01 0.000000000000000000e+00 0.000000000000000000e+00 0.000000000000000000e+00
-1.503216000000000108e+00 3.122961999999999794e+00 7.407051099999999622e+01 0.000000000000000000e+00 0.000000000000000000e+00 0.000000000000000000e+00
-1.179955000000000087e+00 3.122538000000000036e+00 7.416265900000000499e+01 0.000000000000000000e+00 0.000000000000000000e+00 0.000000000000000000e+00
-8.570379999999999665e-01 3.122114999999999974e+00 7.425596600000000080e+01 0.000000000000000000e+00 0.000000000000000000e+00 0.000000000000000000e+00
2.592329999999999912e-01 3.120728000000000169e+00 7.467098199999999508e+01 0.000000000000000000e+00 0.000000000000000000e+00 0.000000000000000000e+00
4.195789999999999798e-01 3.120521999999999796e+00 7.472238199999999608e+01 0.000000000000000000e+00 0.000000000000000000e+00 0.000000000000000000e+00
5.803469999999999462e-01 3.120312999999999892e+00 7.477045400000000086e+01 0.000000000000000000e+00 0.000000000000000000e+00 0.000000000000000000e+00
7.412530000000000507e-01 3.120102999999999849e+00 7.481721500000000447e+01 0.000000000000000000e+00 0.000000000000000000e+00 0.000000000000000000e+00
1.061873000000000067e+00 3.119689000000000156e+00 7.491806800000000521e+01 0.000000000000000000e+00 0.000000000000000000e+00 0.000000000000000000e+00
1.698858999999999897e+00 3.118889999999999940e+00 7.514488199999999551e+01 0.000000000000000000e+00 0.000000000000000000e+00 0.000000000000000000e+00
1.859282000000000101e+00 3.118681000000000036e+00 7.519255099999999459e+01 0.000000000000000000e+00 0.000000000000000000e+00 0.000000000000000000e+00
2.182563000000000031e+00 3.118246000000000073e+00 7.527031700000000569e+01 0.000000000000000000e+00 0.000000000000000000e+00 0.000000000000000000e+00
2.666201000000000043e+00 3.117599999999999927e+00 7.539364600000000394e+01 0.000000000000000000e+00 0.000000000000000000e+00 0.000000000000000000e+00
2.825012000000000079e+00 3.117399999999999949e+00 7.545033999999999708e+01 0.000000000000000000e+00 0.000000000000000000e+00 0.000000000000000000e+00
3.931071999999999900e+00 3.116035000000000110e+00 7.587376399999999421e+01 0.000000000000000000e+00 0.000000000000000000e+00 0.000000000000000000e+00
4.090739000000000125e+00 3.115828000000000042e+00 7.592180600000000368e+01 0.000000000000000000e+00 0.000000000000000000e+00 0.000000000000000000e+00
4.414153999999999911e+00 3.115384999999999849e+00 7.599038699999999835e+01 0.000000000000000000e+00 0.000000000000000000e+00 0.000000000000000000e+00
4.738718999999999681e+00 3.114933999999999870e+00 7.605062100000000669e+01 0.000000000000000000e+00 0.000000000000000000e+00 0.000000000000000000e+00
4.899937999999999683e+00 3.114714999999999900e+00 7.608731099999999969e+01 0.000000000000000000e+00 0.000000000000000000e+00 0.000000000000000000e+00
5.693061000000000149e+00 3.113703000000000110e+00 7.634955600000000686e+01 0.000000000000000000e+00 0.000000000000000000e+00 0.000000000000000000e+00
5.850786000000000264e+00 3.113506000000000107e+00 7.640670799999999474e+01 0.000000000000000000e+00 0.000000000000000000e+00 0.000000000000000000e+00
6.647885999999999740e+00 3.112461000000000144e+00 7.663429999999999609e+01 0.000000000000000000e+00 0.000000000000000000e+00 0.000000000000000000e+00
6.805436000000000263e+00 3.112263000000000002e+00 7.669059000000000026e+01 0.000000000000000000e+00 0.000000000000000000e+00 0.000000000000000000e+00
8.252200000000000202e+00 3.110289999999999999e+00 7.700758399999999426e+01 0.000000000000000000e+00 0.000000000000000000e+00 0.000000000000000000e+00
9.212419999999999831e+00 3.108994000000000035e+00 7.723489399999999705e+01 0.000000000000000000e+00 0.000000000000000000e+00 0.000000000000000000e+00
9.530034999999999812e+00 3.108575999999999784e+00 7.732338699999999676e+01 0.000000000000000000e+00 0.000000000000000000e+00 0.000000000000000000e+00
1.081177600000000005e+01 3.106825999999999866e+00 7.760192899999999838e+01 0.000000000000000000e+00 0.000000000000000000e+00 0.000000000000000000e+00
1.112780200000000086e+01 3.106414000000000009e+00 7.769487800000000277e+01 0.000000000000000000e+00 0.000000000000000000e+00 0.000000000000000000e+00
1.176726900000000064e+01 3.105541999999999803e+00 7.783546400000000176e+01 0.000000000000000000e+00 0.000000000000000000e+00 0.000000000000000000e+00
1.192855499999999935e+01 3.105315000000000047e+00 7.786206099999999708e+01 0.000000000000000000e+00 0.000000000000000000e+00 0.000000000000000000e+00
1.225151199999999996e+01 3.104858000000000118e+00 7.791264300000000276e+01 0.000000000000000000e+00 0.000000000000000000e+00 0.000000000000000000e+00
1.368664399999999937e+01 3.102905999999999942e+00 7.823312400000000366e+01 0.000000000000000000e+00 0.000000000000000000e+00 0.000000000000000000e+00
1.384520499999999998e+01 3.102694000000000063e+00 7.827266699999999844e+01 0.000000000000000000e+00 0.000000000000000000e+00 0.000000000000000000e+00
1.416329299999999947e+01 3.102262000000000075e+00 7.834584800000000371e+01 0.000000000000000000e+00 0.000000000000000000e+00 0.000000000000000000e+00
1.464317199999999985e+01 3.101599000000000217e+00 7.843923999999999808e+01 0.000000000000000000e+00 0.000000000000000000e+00 0.000000000000000000e+00
1.480402400000000007e+01 3.101372000000000018e+00 7.846521799999999303e+01 0.000000000000000000e+00 0.000000000000000000e+00 0.000000000000000000e+00
1.496482999999999919e+01 3.101145999999999958e+00 7.849129499999999382e+01 0.000000000000000000e+00 0.000000000000000000e+00 0.000000000000000000e+00
1.528807699999999947e+01 3.100681999999999938e+00 7.853427100000000394e+01 0.000000000000000000e+00 0.000000000000000000e+00 0.000000000000000000e+00
1.562310399999999966e+01 3.100152000000000019e+00 7.851400800000000402e+01 0.000000000000000000e+00 0.000000000000000000e+00 0.000000000000000000e+00
1.597121899999999961e+01 3.099546000000000134e+00 7.842456099999999708e+01 0.000000000000000000e+00 0.000000000000000000e+00 0.000000000000000000e+00
1.696521200000000107e+01 3.098018000000000161e+00 7.842431600000000458e+01 0.000000000000000000e+00 0.000000000000000000e+00 0.000000000000000000e+00
-9.593474999999999753e+00 2.961755999999999833e+00 6.977510800000000302e+01 0.000000000000000000e+00 0.000000000000000000e+00 0.000000000000000000e+00
-9.432702000000000808e+00 2.961616999999999944e+00 6.985883300000000418e+01 0.000000000000000000e+00 0.000000000000000000e+00 0.000000000000000000e+00
-9.272242000000000317e+00 2.961481000000000030e+00 6.994461099999999476e+01 0.000000000000000000e+00 0.000000000000000000e+00 0.000000000000000000e+00
-8.951878999999999920e+00 2.961212000000000177e+00 7.011886599999999703e+01 0.000000000000000000e+00 0.000000000000000000e+00 0.000000000000000000e+00
-8.635816000000000159e+00 2.960995000000000044e+00 7.032791899999999430e+01 0.000000000000000000e+00 0.000000000000000000e+00 0.000000000000000000e+00
-8.331668999999999770e+00 2.960925000000000029e+00 7.063733700000000226e+01 0.000000000000000000e+00 0.000000000000000000e+00 0.000000000000000000e+00
-8.039607999999999421e+00 2.960999999999999854e+00 7.104605100000000562e+01 0.000000000000000000e+00 0.000000000000000000e+00 0.000000000000000000e+00
-7.598554000000000030e+00 2.961059000000000108e+00 7.162095600000000672e+01 0.000000000000000000e+00 0.000000000000000000e+00 0.000000000000000000e+00
-7.445615000000000094e+00 2.961000999999999994e+00 7.175901799999999753e+01 0.000000000000000000e+00 0.000000000000000000e+00 0.000000000000000000e+00
-7.132528999999999897e+00 2.960792000000000090e+00 7.197087899999999649e+01 0.000000000000000000e+00 0.000000000000000000e+00 0.000000000000000000e+00
-6.815273000000000359e+00 2.960528000000000048e+00 7.214434099999999717e+01 0.000000000000000000e+00 0.000000000000000000e+00 0.000000000000000000e+00
-6.496501000000000303e+00 2.960240999999999900e+00 7.230236800000000130e+01 0.000000000000000000e+00 0.000000000000000000e+00 0.000000000000000000e+00
-6.336597000000000257e+00 2.960090999999999806e+00 7.237612900000000593e+01 0.000000000000000000e+00 0.000000000000000000e+00 0.000000000000000000e+00
-5.855860999999999983e+00 2.959620999999999835e+00 7.258544899999999700e+01 0.000000000000000000e+00 0.000000000000000000e+00 0.000000000000000000e+00
-5.533614000000000033e+00 2.959283999999999804e+00 7.270795400000000086e+01 0.000000000000000000e+00 0.000000000000000000e+00 0.000000000000000000e+00
-5.211445000000000327e+00 2.958944999999999936e+00 7.282913200000000131e+01 0.000000000000000000e+00 0.000000000000000000e+00 0.000000000000000000e+00
-5.050525999999999627e+00 2.958775999999999851e+00 7.289031199999999444e+01 0.000000000000000000e+00 0.000000000000000000e+00 0.000000000000000000e+00
-4.889242000000000310e+00 2.958603000000000094e+00 7.294809700000000419e+01 0.000000000000000000e+00 0.000000000000000000e+00 0.000000000000000000e+00
-4.565485999999999933e+00 2.958241000000000120e+00 7.305290200000000311e+01 0.000000000000000000e+00 0.000000000000000000e+00 0.000000000000000000e+00
-4.083179000000000336e+00 2.957732000000000028e+00 7.323306999999999789e+01 0.000000000000000000e+00 0.000000000000000000e+00 0.000000000000000000e+00
-3.443947000000000092e+00 2.957088999999999857e+00 7.349645999999999901e+01 0.000000000000000000e+00 0.000000000000000000e+00 0.000000000000000000e+00
-3.283840000000000092e+00 2.956923000000000190e+00 7.355875399999999331e+01 0.000000000000000000e+00 0.000000000000000000e+00 0.000000000000000000e+00
-2.801938999999999957e+00 2.956404000000000032e+00 7.373081999999999425e+01 0.000000000000000000e+00 0.000000000000000000e+00 0.000000000000000000e+00
-2.642672000000000132e+00 2.956246000000000151e+00 7.379764600000000030e+01 0.000000000000000000e+00 0.000000000000000000e+00 0.000000000000000000e+00
-2.169849000000000139e+00 2.955820999999999810e+00 7.403240200000000470e+01 0.000000000000000000e+00 0.000000000000000000e+00 0.000000000000000000e+00
-2.012567999999999913e+00 2.955681999999999920e+00 7.411193099999999845e+01 0.000000000000000000e+00 0.000000000000000000e+00 0.000000000000000000e+00
-1.855008999999999908e+00 2.955538000000000221e+00 7.418881199999999865e+01 0.000000000000000000e+00 0.000000000000000000e+00 0.000000000000000000e+00
-1.537007000000000012e+00 2.955217999999999900e+00 7.431961099999999476e+01 0.000000000000000000e+00 0.000000000000000000e+00 0.000000000000000000e+00
-1.375890000000000057e+00 2.955033999999999939e+00 7.436874400000000662e+01 0.000000000000000000e+00 0.000000000000000000e+00 0.000000000000000000e+00
-1.051978000000000080e+00 2.954645999999999884e+00 7.445368200000000058e+01 0.000000000000000000e+00 0.000000000000000000e+00 0.000000000000000000e+00
-7.304869999999999974e-01 2.954283000000000214e+00 7.455493199999999376e+01 0.000000000000000000e+00 0.000000000000000000e+00 0.000000000000000000e+00
-4.111899999999999999e-01 2.953940999999999928e+00 7.467050199999999904e+01 0.000000000000000000e+00 0.000000000000000000e+00 0.000000000000000000e+00
-2.516439999999999788e-01 2.953770000000000007e+00 7.472840899999999920e+01 0.000000000000000000e+00 0.000000000000000000e+00 0.000000000000000000e+00
-9.221300000000000330e-02 2.953600999999999921e+00 7.478672000000000253e+01 0.000000000000000000e+00 0.000000000000000000e+00 0.000000000000000000e+00
2.265340000000000131e-01 2.953260000000000218e+00 7.490292399999999873e+01 0.000000000000000000e+00 0.000000000000000000e+00 0.000000000000000000e+00
3.865529999999999800e-01 2.953082999999999902e+00 7.495584100000000660e+01 0.000000000000000000e+00 0.000000000000000000e+00 0.000000000000000000e+00
1.029122000000000092e+00 2.952341999999999800e+00 7.514645400000000564e+01 0.000000000000000000e+00 0.000000000000000000e+00 0.000000000000000000e+00
1.508631999999999973e+00 2.951805999999999930e+00 7.530264300000000333e+01 0.000000000000000000e+00 0.000000000000000000e+00 0.000000000000000000e+00
1.669021000000000088e+00 2.951620999999999828e+00 7.535018900000000031e+01 0.000000000000000000e+00 0.000000000000000000e+00 0.000000000000000000e+00
1.830101999999999896e+00 2.951427999999999940e+00 7.539266200000000140e+01 0.000000000000000000e+00 0.000000000000000000e+00 0.000000000000000000e+00
2.153671999999999809e+00 2.951027999999999984e+00 7.546714000000000055e+01 0.000000000000000000e+00 0.000000000000000000e+00 0.000000000000000000e+00
2.635653000000000024e+00 2.950457999999999803e+00 7.559972399999999482e+01 0.000000000000000000e+00 0.000000000000000000e+00 0.000000000000000000e+00
2.794026999999999816e+00 2.950290999999999997e+00 7.565869100000000458e+01 0.000000000000000000e+00 0.000000000000000000e+00 0.000000000000000000e+00
3.266966000000000037e+00 2.949807999999999986e+00 7.584778599999999926e+01 0.000000000000000000e+00 0.000000000000000000e+00 0.000000000000000000e+00
3.425736999999999810e+00 2.949634000000000089e+00 7.590251899999999807e+01 0.000000000000000000e+00 0.000000000000000000e+00 0.000000000000000000e+00
3.902592999999999979e+00 2.949106000000000005e+00 7.606100499999999442e+01 0.000000000000000000e+00 0.000000000000000000e+00 0.000000000000000000e+00
4.062119000000000035e+00 2.948923000000000183e+00 7.610937500000000000e+01 0.000000000000000000e+00 0.000000000000000000e+00 0.000000000000000000e+00
4.546548999999999729e+00 2.948315000000000019e+00 7.621463799999999367e+01 0.000000000000000000e+00 0.000000000000000000e+00 0.000000000000000000e+00
4.708397999999999861e+00 2.948107999999999951e+00 7.624685700000000566e+01 0.000000000000000000e+00 0.000000000000000000e+00 0.000000000000000000e+00
5.190502999999999645e+00 2.947518999999999778e+00 7.636431899999999473e+01 0.000000000000000000e+00 0.000000000000000000e+00 0.000000000000000000e+00
5.665377000000000329e+00 2.946997000000000089e+00 7.652543599999999913e+01 0.000000000000000000e+00 0.000000000000000000e+00 0.000000000000000000e+00
5.823674999999999713e+00 2.946822000000000052e+00 7.657842300000000080e+01 0.000000000000000000e+00 0.000000000000000000e+00 0.000000000000000000e+00
5.982999999999999652e+00 2.946636999999999951e+00 7.662459599999999682e+01 0.000000000000000000e+00 0.000000000000000000e+00 0.000000000000000000e+00
6.303944999999999688e+00 2.946244000000000085e+00 7.670167499999999450e+01 0.000000000000000000e+00 0.000000000000000000e+00 0.000000000000000000e+00
6.463911999999999658e+00 2.946051000000000197e+00 7.674301099999999565e+01 0.000000000000000000e+00 0.000000000000000000e+00 0.000000000000000000e+00
7.258932999999999858e+00 2.945129999999999804e+00 7.697549399999999764e+01 0.000000000000000000e+00 0.000000000000000000e+00 0.000000000000000000e+00
7.584361999999999604e+00 2.944688999999999890e+00 7.702106499999999301e+01 0.000000000000000000e+00 0.000000000000000000e+00 0.000000000000000000e+00
7.745960000000000178e+00 2.944478999999999846e+00 7.705044599999999377e+01 0.000000000000000000e+00 0.000000000000000000e+00 0.000000000000000000e+00
8.224534000000000233e+00 2.943904999999999994e+00 7.717513999999999896e+01 0.000000000000000000e+00 0.000000000000000000e+00 0.000000000000000000e+00
8.383955000000000268e+00 2.943713999999999942e+00 7.721682699999999500e+01 0.000000000000000000e+00 0.000000000000000000e+00 0.000000000000000000e+00
8.867157000000000622e+00 2.943093000000000181e+00 7.731085199999999702e+01 0.000000000000000000e+00 0.000000000000000000e+00 0.000000000000000000e+00
9.345617999999999981e+00 2.942512999999999934e+00 7.743128199999999595e+01 0.000000000000000000e+00 0.000000000000000000e+00 0.000000000000000000e+00
9.504704999999999515e+00 2.942323000000000022e+00 7.747331200000000706e+01 0.000000000000000000e+00 0.000000000000000000e+00 0.000000000000000000e+00
9.992003999999999664e+00 2.941660000000000164e+00 7.753910100000000227e+01 0.000000000000000000e+00 0.000000000000000000e+00 0.000000000000000000e+00
1.015458500000000086e+01 2.941438000000000219e+00 7.755989800000000400e+01 0.000000000000000000e+00 0.000000000000000000e+00 0.000000000000000000e+00
1.062950700000000026e+01 2.940882999999999914e+00 7.769583099999999831e+01 0.000000000000000000e+00 0.000000000000000000e+00 0.000000000000000000e+00
1.078599700000000006e+01 2.940713999999999828e+00 7.775111400000000117e+01 0.000000000000000000e+00 0.000000000000000000e+00 0.000000000000000000e+00
1.126077500000000065e+01 2.940157000000000131e+00 7.788466599999999573e+01 0.000000000000000000e+00 0.000000000000000000e+00 0.000000000000000000e+00
1.142089400000000055e+01 2.939954000000000178e+00 7.791804500000000644e+01 0.000000000000000000e+00 0.000000000000000000e+00 0.000000000000000000e+00
1.190501700000000085e+01 2.939311000000000007e+00 7.799570500000000095e+01 0.000000000000000000e+00 0.000000000000000000e+00 0.000000000000000000e+00
1.239032100000000014e+01 2.938655999999999935e+00 7.806538399999999456e+01 0.000000000000000000e+00 0.000000000000000000e+00 0.000000000000000000e+00
1.254973000000000027e+01 2.938457999999999792e+00 7.810156299999999874e+01 0.000000000000000000e+00 0.000000000000000000e+00 0.000000000000000000e+00
1.302422999999999931e+01 2.937895000000000145e+00 7.822959899999999323e+01 0.000000000000000000e+00 0.000000000000000000e+00 0.000000000000000000e+00
1.318446699999999971e+01 2.937688000000000077e+00 7.826032299999999964e+01 0.000000000000000000e+00 0.000000000000000000e+00 0.000000000000000000e+00
1.366394400000000076e+01 2.937078000000000078e+00 7.835826099999999883e+01 0.000000000000000000e+00 0.000000000000000000e+00 0.000000000000000000e+00
1.382282799999999945e+01 2.936882999999999910e+00 7.839570600000000411e+01 0.000000000000000000e+00 0.000000000000000000e+00 0.000000000000000000e+00
1.398224300000000042e+01 2.936681999999999793e+00 7.843004600000000437e+01 0.000000000000000000e+00 0.000000000000000000e+00 0.000000000000000000e+00
1.430229399999999984e+01 2.936269999999999936e+00 7.849150799999999606e+01 0.000000000000000000e+00 0.000000000000000000e+00 0.000000000000000000e+00
1.446254500000000043e+01 2.936062000000000172e+00 7.852075999999999567e+01 0.000000000000000000e+00 0.000000000000000000e+00 0.000000000000000000e+00
1.494374799999999937e+01 2.935432000000000041e+00 7.860514100000000326e+01 0.000000000000000000e+00 0.000000000000000000e+00 0.000000000000000000e+00
1.510408100000000076e+01 2.935221999999999998e+00 7.863331599999999355e+01 0.000000000000000000e+00 0.000000000000000000e+00 0.000000000000000000e+00
1.543152500000000060e+01 2.934744999999999937e+00 7.865301499999999635e+01 0.000000000000000000e+00 0.000000000000000000e+00 0.000000000000000000e+00
1.560223200000000077e+01 2.934448000000000167e+00 7.862556499999999460e+01 0.000000000000000000e+00 0.000000000000000000e+00 0.000000000000000000e+00
1.613195599999999885e+01 2.933412999999999826e+00 7.845095799999999997e+01 0.000000000000000000e+00 0.000000000000000000e+00 0.000000000000000000e+00
1.630460400000000121e+01 2.933101000000000180e+00 7.841403999999999996e+01 0.000000000000000000e+00 0.000000000000000000e+00 0.000000000000000000e+00
1.679858600000000024e+01 2.932364000000000193e+00 7.842977899999999636e+01 0.000000000000000000e+00 0.000000000000000000e+00 0.000000000000000000e+00
1.727508200000000116e+01 2.931769000000000069e+00 7.853602600000000677e+01 0.000000000000000000e+00 0.000000000000000000e+00 0.000000000000000000e+00
1.743422100000000086e+01 2.931567999999999952e+00 7.856947300000000212e+01 0.000000000000000000e+00 0.000000000000000000e+00 0.000000000000000000e+00
1.791415399999999991e+01 2.930941999999999936e+00 7.865586100000000158e+01 0.000000000000000000e+00 0.000000000000000000e+00 0.000000000000000000e+00
1.807522799999999918e+01 2.930724999999999802e+00 7.867872599999999750e+01 0.000000000000000000e+00 0.000000000000000000e+00 0.000000000000000000e+00
-9.919579999999999842e+00 2.791781999999999986e+00 6.964634700000000578e+01 0.000000000000000000e+00 0.000000000000000000e+00 0.000000000000000000e+00
-8.057674999999999699e+00 2.791685000000000194e+00 7.120188899999999421e+01 0.000000000000000000e+00 0.000000000000000000e+00 0.000000000000000000e+00
-7.914977999999999625e+00 2.791872999999999827e+00 7.143171700000000612e+01 0.000000000000000000e+00 0.000000000000000000e+00 0.000000000000000000e+00
-7.313151000000000401e+00 2.792079000000000200e+00 7.206898499999999785e+01 0.000000000000000000e+00 0.000000000000000000e+00 0.000000000000000000e+00
-6.837176999999999616e+00 2.791806999999999928e+00 7.232726300000000208e+01 0.000000000000000000e+00 0.000000000000000000e+00 0.000000000000000000e+00
-6.677642999999999773e+00 2.791700000000000070e+00 7.240463300000000402e+01 0.000000000000000000e+00 0.000000000000000000e+00 0.000000000000000000e+00
