2.125119969480000037e+01 -3.087489591200000216e+00 1.893701604849999853e+01
2.138626401140000155e+01 -3.464107023299999977e+00 1.880710191469999870e+01
2.151616622250000077e+01 -3.837897626699999787e+00 1.866478788079999873e+01
2.164112364820000067e+01 -4.208980408599999556e+00 1.851059597200000084e+01
2.176135360869999857e+01 -4.577474375799999606e+00 1.834504821290000010e+01
2.187707342410000066e+01 -4.943498535399999838e+00 1.816866662869999871e+01
2.198850041440000069e+01 -5.307171894399999701e+00 1.798197324410000064e+01
2.159832889409999979e+01 -2.919051493800000063e+00 1.881112182680000089e+01
2.173562886179999865e+01 -3.296893194199999932e+00 1.868657795320000048e+01
2.186776672399999910e+01 -3.671908066099999868e+00 1.854963417960000172e+01
2.199495980089999847e+01 -4.044215116300000190e+00 1.840081253099999969e+01
2.211742541250000116e+01 -4.413933351899999913e+00 1.824063503220000015e+01
2.223538087889999915e+01 -4.781181779899999817e+00 1.806962370829999998e+01
2.234904352030000041e+01 -5.146079407300000241e+00 1.788830058399999956e+01
2.194499033170000146e+01 -2.750357244599999973e+00 1.868410399389999910e+01
2.208452595050000156e+01 -3.129423213399999959e+00 1.856493038059999989e+01
2.221889946379999969e+01 -3.505662353600000003e+00 1.843335686729999878e+01
2.234832819169999851e+01 -3.879193672199999998e+00 1.828990547889999974e+01
2.247302945439999888e+01 -4.250136176199999838e+00 1.813509824040000140e+01
2.259322057199999989e+01 -4.618608872600000304e+00 1.796945717670000064e+01
2.270911886449999884e+01 -4.984730768300000392e+00 1.779350431270000144e+01
2.229210547210000115e+01 -2.581911448300000078e+00 1.855817600110000143e+01
2.243387674199999893e+01 -2.962201685500000181e+00 1.844437264800000165e+01
2.257048590639999830e+01 -3.339665094099999898e+00 1.831816939500000174e+01
2.270215028539999835e+01 -3.714420681000000002e+00 1.818008826690000035e+01
2.282908719919999996e+01 -4.086587453399999958e+00 1.803065128869999967e+01
2.295151396780000042e+01 -4.456284418200000097e+00 1.787038048519999833e+01
2.306964791149999883e+01 -4.823630582299999858e+00 1.769979788150000033e+01
2.264059577989999994e+01 -2.414218709500000060e+00 1.843555129949999838e+01
2.278460270089999895e+01 -2.795733215099999835e+00 1.832711820669999980e+01
2.292344751639999956e+01 -3.174420892100000113e+00 1.820628521400000110e+01
2.305734754650000085e+01 -3.550400747399999890e+00 1.807357434609999913e+01
2.318652011140000013e+01 -3.923791788199999964e+00 1.792950762819999966e+01
2.331118253109999827e+01 -4.294713021299999767e+00 1.777460708499999953e+01
2.343155212579999969e+01 -4.663283453800000089e+00 1.760939474150000095e+01
2.299138271960000068e+01 -2.247783633000000059e+00 1.831844334040000177e+01
2.313762529170000093e+01 -2.630522406899999943e+00 1.821538050790000085e+01
2.327870575829999922e+01 -3.010434352299999894e+00 1.809991777540000157e+01
2.341484143950000174e+01 -3.387638475999999788e+00 1.797257716780000081e+01
2.354624965549999871e+01 -3.762253785099999970e+00 1.783388071010000075e+01
2.367314772630000164e+01 -4.134399286599999890e+00 1.768435042719999828e+01
2.379575297210000073e+01 -4.504193987599999893e+00 1.752450834400000090e+01
2.334538775589999915e+01 -2.083110823300000192e+00 1.820906557500000034e+01
2.349386597899999884e+01 -2.467073865600000193e+00 1.811137300269999884e+01
2.363718209669999837e+01 -2.848210079299999808e+00 1.800128053050000076e+01
2.377555342899999857e+01 -3.226638471499999827e+00 1.787931018320000121e+01
2.390919729610000033e+01 -3.602478048900000118e+00 1.774598398570000057e+01
2.403833101800000094e+01 -3.975847818800000155e+00 1.760182396309999930e+01
2.416317191490000127e+01 -4.346866788099999823e+00 1.744735214019999958e+01
