1.059830590580000020e+01 -8.874944577799999124e+00 1.834096636190000140e+01
1.099311663589999988e+01 -8.871392085500000135e+00 1.827024854980000157e+01
1.138781289839999999e+01 -8.867493428699999569e+00 1.819899511459999886e+01
1.178235324579999954e+01 -8.863123264900000464e+00 1.812701211310000105e+01
1.217669623049999927e+01 -8.858156251500000522e+00 1.805410560159999989e+01
1.257080040499999996e+01 -8.852467046099999237e+00 1.798008163689999961e+01
1.296462432190000058e+01 -8.845930306099999640e+00 1.790474627549999909e+01
1.064011816310000036e+01 -8.553201772899999611e+00 1.858555780380000044e+01
1.103482851040000057e+01 -8.549345710300000789e+00 1.851437027489999920e+01
1.142942439009999944e+01 -8.545143483100000381e+00 1.844264712300000042e+01
1.182386435459999952e+01 -8.540469748899999658e+00 1.837019440470000120e+01
1.221810695639999977e+01 -8.535199165199999882e+00 1.829681817650000042e+01
1.261211074809999921e+01 -8.529206389400000532e+00 1.822232449510000052e+01
1.300583428210000037e+01 -8.522366079099999325e+00 1.814651941689999859e+01
1.028828006140000006e+01 -8.238520568700000268e+00 1.890629672789999915e+01
1.068296304589999934e+01 -8.234581757699999116e+00 1.883498116199999828e+01
1.107757301040000009e+01 -8.230422124700000452e+00 1.876332391640000097e+01
1.147206850719999949e+01 -8.225916327200000211e+00 1.869113104770000078e+01
1.186640808890000010e+01 -8.220939022599999646e+00 1.861820861269999838e+01
1.226055030790000089e+01 -8.215364868500000028e+00 1.854436266769999975e+01
1.265445371680000086e+01 -8.209068522400000845e+00 1.846939926949999844e+01
1.304807686790000076e+01 -8.201924641699999796e+00 1.839312447460000044e+01
1.033164588820000063e+01 -7.921475953699999906e+00 1.915815771500000153e+01
1.072622848990000044e+01 -7.917233572399999808e+00 1.908637243220000101e+01
1.112073807149999993e+01 -7.912770369000000414e+00 1.901424546990000053e+01
1.151513318549999987e+01 -7.907961001100000331e+00 1.894158288450000072e+01
1.190937238429999923e+01 -7.902680126199999933e+00 1.886819073270000047e+01
1.230341422050000055e+01 -7.896802401699999585e+00 1.879387507099999866e+01
1.269721724649999928e+01 -7.890202485199999671e+00 1.871844195610000128e+01
1.037482021179999947e+01 -7.603852208800000234e+00 1.940912260989999893e+01
1.076930243069999982e+01 -7.599306257100000295e+00 1.933686761039999880e+01
1.116371162939999984e+01 -7.594539483400000179e+00 1.926427093130000046e+01
1.155800636060000031e+01 -7.589426545100000254e+00 1.919113862920000102e+01
1.195214517660000020e+01 -7.583842099800000014e+00 1.911727676059999936e+01
1.234608662990000028e+01 -7.577660804999999833e+00 1.904249138220000148e+01
1.273978927309999953e+01 -7.570757318200000086e+00 1.896658855049999914e+01
1.041719096779999987e+01 -7.283798374299999878e+00 1.965632740850000104e+01
1.081157280380000074e+01 -7.278948852200000097e+00 1.958360269219999950e+01
1.120588161979999953e+01 -7.273878508100000140e+00 1.951053629640000153e+01
1.160007596800000051e+01 -7.268461999500000381e+00 1.943693427750000069e+01
1.199411440119999916e+01 -7.262573983900000307e+00 1.936260269219999941e+01
1.238795547169999978e+01 -7.256089118700000284e+00 1.928734759700000012e+01
1.278155773199999956e+01 -7.248882061399999799e+00 1.921097504860000171e+01
