-1.052843299999999971e+01 -2.670062000000000157e+00 6.896066299999999671e+01
-1.036683900000000058e+01 -2.668855000000000199e+00 6.904306800000000521e+01
1.815978099999999884e+01 -2.548613000000000017e+00 7.825839200000000062e+01
1.864488599999999963e+01 -2.548219000000000012e+00 7.832022899999999765e+01
1.912507400000000146e+01 -2.547401999999999944e+00 7.840593699999999444e+01
1.928453800000000129e+01 -2.547082000000000068e+00 7.843722499999999798e+01
-1.182458500000000079e+01 -2.850671999999999873e+00 6.830516099999999824e+01
-1.166233800000000009e+01 -2.849425000000000097e+00 6.838756600000000674e+01
-1.149990200000000051e+01 -2.848224999999999785e+00 6.846737699999999904e+01
-1.117506799999999956e+01 -2.845858999999999916e+00 6.862512200000000462e+01
-1.101225699999999996e+01 -2.844761999999999791e+00 6.869918099999999583e+01
-1.084881299999999982e+01 -2.843785000000000007e+00 6.876663200000000131e+01
-1.052164600000000050e+01 -2.841909999999999936e+00 6.889707900000000507e+01
-1.035940000000000083e+01 -2.840765999999999902e+00 6.897374700000000303e+01
1.833440600000000131e+01 -2.715710000000000068e+00 7.821341700000000685e+01
1.929837799999999959e+01 -2.714297000000000182e+00 7.836790499999999327e+01
1.962015299999999840e+01 -2.713887000000000160e+00 7.841607700000000136e+01
1.978275899999999865e+01 -2.713840999999999948e+00 7.843138100000000179e+01
1.818629500000000121e+01 -2.883230000000000182e+00 7.812323800000000062e+01
1.834810099999999977e+01 -2.883078999999999947e+00 7.814376799999999434e+01
1.867293000000000092e+01 -2.882899000000000100e+00 7.817830700000000377e+01
1.899555600000000055e+01 -2.882515999999999856e+00 7.822364799999999718e+01
1.931444000000000116e+01 -2.881791000000000214e+00 7.828737599999999475e+01
1.963657600000000159e+01 -2.881381999999999888e+00 7.833413699999999835e+01
1.996147200000000055e+01 -2.881238999999999884e+00 7.836665299999999945e+01
-1.181459899999999941e+01 -3.194583999999999868e+00 6.820761099999999999e+01
-1.132799699999999987e+01 -3.190590999999999955e+00 6.845520000000000493e+01
-1.116559600000000074e+01 -3.189325999999999883e+00 6.853428599999999449e+01
-1.067371799999999915e+01 -3.186440000000000161e+00 6.872360199999999963e+01
-1.018478400000000050e+01 -3.183138000000000023e+00 6.893477599999999939e+01
-9.865078000000000458e+00 -3.179912999999999990e+00 6.912932600000000605e+01
-9.546063999999999439e+00 -3.176635000000000097e+00 6.932666000000000395e+01
-9.385611000000000814e+00 -3.175183000000000089e+00 6.941549700000000200e+01
-8.901555999999999358e+00 -3.171370000000000022e+00 6.965341200000000299e+01
-8.740131999999999124e+00 -3.170136999999999983e+00 6.973068200000000161e+01
-8.254751999999999867e+00 -3.166697999999999791e+00 6.994882200000000694e+01
-8.091737999999999431e+00 -3.165777999999999981e+00 7.000967400000000396e+01
-7.765317999999999721e+00 -3.164029999999999898e+00 7.012643400000000327e+01
-7.440561999999999898e+00 -3.162049999999999805e+00 7.025541699999999423e+01
-7.117295999999999623e+00 -3.159870000000000179e+00 7.039485200000000020e+01
-6.956558000000000241e+00 -3.158653000000000155e+00 7.047124499999999614e+01
-6.796596000000000082e+00 -3.157324000000000019e+00 7.055352000000000601e+01
-6.477507000000000126e+00 -3.154570999999999792e+00 7.072299999999999898e+01
-6.155845000000000233e+00 -3.152276000000000078e+00 7.086842300000000705e+01
-5.831201000000000079e+00 -3.150491000000000152e+00 7.098702199999999607e+01
-5.669283000000000072e+00 -3.149550000000000072e+00 7.104889699999999664e+01
-5.508059000000000260e+00 -3.148509999999999920e+00 7.111591300000000615e+01
-5.186378999999999628e+00 -3.146342999999999890e+00 7.125454700000000230e+01
-4.541122999999999799e+00 -3.142421000000000131e+00 7.151016199999999401e+01
-4.056232999999999755e+00 -3.139718999999999927e+00 7.168917799999999829e+01
-3.895347000000000115e+00 -3.138726000000000127e+00 7.175373799999999846e+01
-3.417847000000000079e+00 -3.135041000000000189e+00 7.198435999999999524e+01
1.868854899999999830e+01 -3.050499999999999989e+00 7.809922000000000253e+01
-1.180866199999999999e+01 -3.366791000000000089e+00 6.814974999999999739e+01
-1.132287999999999961e+01 -3.362508000000000052e+00 6.840594500000000266e+01
-1.116043699999999994e+01 -3.361206000000000138e+00 6.848487099999999828e+01
-1.083296299999999945e+01 -3.359118000000000048e+00 6.861630200000000457e+01
-1.066850600000000071e+01 -3.358222000000000040e+00 6.867438500000000090e+01
-9.699415000000000120e+00 -3.349939000000000000e+00 6.917201199999999517e+01
-8.411687999999999832e+00 -3.338922999999999863e+00 6.983367900000000361e+01
-7.595284999999999620e+00 -3.334419000000000022e+00 7.012508400000000108e+01
-6.310322000000000209e+00 -3.324247999999999870e+00 7.074288900000000524e+01
-5.338004999999999889e+00 -3.318484999999999907e+00 7.111050400000000593e+01
-4.854690999999999867e+00 -3.315285999999999955e+00 7.131049299999999391e+01
-3.887086000000000041e+00 -3.309308999999999834e+00 7.168882800000000088e+01
-3.249832000000000054e+00 -3.304335000000000022e+00 7.199161499999999592e+01
-2.280564000000000036e+00 -3.299174999999999969e+00 7.232788800000000151e+01
-1.798907999999999952e+00 -3.296269000000000116e+00 7.251260399999999606e+01
-8.419349999999999890e-01 -3.289788000000000157e+00 7.291620600000000252e+01
7.590569999999999817e-01 -3.280549000000000159e+00 7.350863599999999565e+01
1.854157800000000123e+01 -3.218278999999999890e+00 7.800340300000000582e+01
1.870505899999999855e+01 -3.218269999999999964e+00 7.801559399999999300e+01
1.919071800000000039e+01 -3.217776999999999887e+00 7.807596599999999398e+01
1.935187099999999916e+01 -3.217544000000000182e+00 7.809956400000000087e+01
1.983993900000000110e+01 -3.217312000000000172e+00 7.814659899999999482e+01
-1.147865600000000086e+01 -3.536129999999999995e+00 6.826199300000000392e+01
-1.066299500000000045e+01 -3.530110000000000081e+00 6.862239099999999326e+01
-1.033604799999999990e+01 -3.527919999999999945e+00 6.875561500000000592e+01
-1.001201999999999970e+01 -3.525243999999999822e+00 6.891312399999999627e+01
-9.851843999999999824e+00 -3.523591999999999835e+00 6.900756099999999549e+01
-9.692567999999999628e+00 -3.521793000000000173e+00 6.910931399999999769e+01
-9.373611999999999611e+00 -3.518323000000000089e+00 6.930648800000000165e+01
-9.051721000000000572e+00 -3.515445999999999849e+00 6.947400700000000029e+01
-8.728794999999999860e+00 -3.512808999999999848e+00 6.962945600000000468e+01
-8.405174999999999841e+00 -3.510346999999999884e+00 6.977612299999999834e+01
-8.078167000000000542e+00 -3.508525000000000116e+00 6.989081600000000094e+01
-7.913946000000000147e+00 -3.507751999999999981e+00 6.994121599999999717e+01
-7.587439999999999962e+00 -3.505901000000000156e+00 7.005732700000000079e+01
-7.264343000000000217e+00 -3.503509000000000206e+00 7.020046999999999571e+01
-6.943926000000000265e+00 -3.500712000000000046e+00 7.036383100000000468e+01
-6.624590999999999674e+00 -3.497787000000000202e+00 7.053353900000000465e+01
-6.302546999999999677e+00 -3.495368000000000031e+00 7.067796300000000542e+01
-5.812700999999999674e+00 -3.492938999999999794e+00 7.083457900000000507e+01
-5.650392000000000081e+00 -3.491986999999999952e+00 7.089388300000000243e+01
-5.489215999999999873e+00 -3.490861000000000214e+00 7.096192200000000128e+01
-5.168072999999999695e+00 -3.488445000000000018e+00 7.110612500000000580e+01
-4.845609999999999751e+00 -3.486286000000000218e+00 7.123745700000000625e+01
-4.523545000000000371e+00 -3.484105000000000008e+00 7.136987299999999834e+01
-4.362575999999999787e+00 -3.483019999999999783e+00 7.143580599999999947e+01
-4.201280999999999821e+00 -3.481996999999999787e+00 7.149864999999999782e+01
-3.879353000000000051e+00 -3.479874999999999829e+00 7.162804400000000271e+01
-3.560459999999999958e+00 -3.477322000000000024e+00 7.177901500000000112e+01
-3.241061999999999887e+00 -3.474892000000000092e+00 7.192378200000000277e+01
-2.918435000000000112e+00 -3.473001000000000005e+00 7.204164099999999848e+01
-2.595286999999999900e+00 -3.471223999999999865e+00 7.215375500000000386e+01
-2.434267999999999876e+00 -3.470263999999999793e+00 7.221337900000000332e+01
-2.112464000000000119e+00 -3.468335999999999864e+00 7.233304599999999596e+01
-1.790326000000000084e+00 -3.466492999999999824e+00 7.244844799999999907e+01
-1.469923000000000091e+00 -3.464426000000000005e+00 7.257498200000000566e+01
-1.310510999999999981e+00 -3.463290000000000202e+00 7.264337899999999593e+01
-1.151224999999999943e+00 -3.462146000000000168e+00 7.271219600000000582e+01
-8.327890000000000015e-01 -3.459865999999999886e+00 7.284933499999999640e+01
-5.150900000000000478e-01 -3.457517999999999869e+00 7.298983800000000599e+01
-1.966179999999999872e-01 -3.455321999999999782e+00 7.312277199999999766e+01
1.235050000000000037e-01 -3.453399999999999803e+00 7.324201999999999657e+01
4.451879999999999726e-01 -3.451732999999999940e+00 7.334851100000000201e+01
7.684389999999999832e-01 -3.450317000000000078e+00 7.344245899999999949e+01
9.303270000000000151e-01 -3.449656000000000056e+00 7.348709100000000660e+01
1.253783000000000092e+00 -3.448306999999999789e+00 7.357765200000000050e+01
1.575223000000000040e+00 -3.446703999999999990e+00 7.368091599999999630e+01
2.054066999999999865e+00 -3.443894999999999929e+00 7.385590399999999534e+01
2.214446999999999832e+00 -3.443080000000000140e+00 7.390820300000000032e+01
2.534577000000000080e+00 -3.441384000000000221e+00 7.401602200000000664e+01
2.852148000000000128e+00 -3.439372000000000096e+00 7.413964799999999400e+01
3.011427999999999994e+00 -3.438444000000000056e+00 7.419751700000000483e+01
3.171724999999999905e+00 -3.437660999999999856e+00 7.424818399999999485e+01
3.494256000000000029e+00 -3.436373000000000122e+00 7.433560199999999440e+01
3.977796999999999805e+00 -3.434451000000000143e+00 7.446625500000000386e+01
4.299873999999999974e+00 -3.433161000000000129e+00 7.455378000000000327e+01
4.618851000000000262e+00 -3.431489000000000011e+00 7.466033899999999335e+01
4.932381000000000348e+00 -3.429136999999999880e+00 7.480076599999999587e+01
1.839569300000000140e+01 -3.386274999999999924e+00 7.790153499999999553e+01
1.872225200000000100e+01 -3.386191999999999869e+00 7.792850500000000125e+01
1.904735600000000062e+01 -3.385968000000000089e+00 7.796254000000000417e+01
1.937128600000000134e+01 -3.385631000000000057e+00 7.800213599999999303e+01
-1.179561999999999955e+01 -3.711609999999999854e+00 6.802277399999999830e+01
-1.163367000000000040e+01 -3.710072999999999954e+00 6.810937500000000000e+01
-1.130926000000000009e+01 -3.707148000000000110e+00 6.827529900000000396e+01
-1.114622199999999985e+01 -3.705871000000000137e+00 6.834922000000000253e+01
-1.065665899999999944e+01 -3.702207000000000026e+00 6.856270600000000570e+01
-1.016739500000000085e+01 -3.698605999999999838e+00 6.877307899999999563e+01
-1.000520099999999957e+01 -3.697264000000000106e+00 6.885011299999999324e+01
-9.365710999999999231e+00 -3.690326000000000217e+00 6.923488600000000304e+01
-9.205168999999999713e+00 -3.688757999999999981e+00 6.932294500000000426e+01
-8.882704000000000377e+00 -3.685919000000000167e+00 6.948450499999999863e+01
-8.721275000000000333e+00 -3.684556000000000164e+00 6.956248499999999524e+01
-8.069703999999999766e+00 -3.680286999999999864e+00 6.981681100000000129e+01
-7.741840999999999973e+00 -3.678584999999999994e+00 6.992279800000000023e+01
-7.579330999999999818e+00 -3.677497999999999934e+00 6.998731200000000285e+01
-6.937109000000000414e+00 -3.671908999999999867e+00 7.030589299999999753e+01
-6.455924000000000440e+00 -3.667774999999999785e+00 7.054193899999999928e+01
-6.293733999999999718e+00 -3.666729000000000127e+00 7.060442399999999452e+01
-5.319785999999999682e+00 -3.660801999999999889e+00 7.096218899999999508e+01
-5.159354999999999691e+00 -3.659534999999999982e+00 7.103542299999999443e+01
-2.105325000000000113e+00 -3.638469000000000175e+00 7.227924299999999391e+01
-5.065809999999999480e-01 -3.627488000000000046e+00 7.292807000000000528e+01
1.263940000000000063e+00 -3.618170000000000108e+00 7.350675200000000586e+01
1.904392000000000085e+00 -3.614526000000000128e+00 7.372954599999999914e+01
2.224749000000000088e+00 -3.612769000000000119e+00 7.383776899999999443e+01
3.828516000000000030e+00 -3.604687000000000197e+00 7.434431499999999460e+01
3.988961000000000201e+00 -3.603925999999999963e+00 7.439268500000000017e+01
4.943572999999999773e+00 -3.598419999999999952e+00 7.472843199999999797e+01
5.904798999999999687e+00 -3.594034999999999869e+00 7.500942999999999472e+01
7.027426000000000172e+00 -3.589342999999999950e+00 7.531655100000000402e+01
7.340876999999999875e+00 -3.587126000000000037e+00 7.544694499999999948e+01
8.141740000000000421e+00 -3.583877999999999897e+00 7.566113300000000663e+01
9.260331000000000756e+00 -3.579229999999999912e+00 7.596581999999999368e+01
1.808799700000000144e+01 -3.554596000000000089e+00 7.777769499999999425e+01
1.841349800000000059e+01 -3.554371999999999865e+00 7.781086700000000178e+01
1.971659100000000109e+01 -3.553657999999999983e+00 7.793455500000000313e+01
1.987836300000000023e+01 -3.553462000000000121e+00 7.795522300000000371e+01
-1.081136399999999931e+01 -3.876034000000000201e+00 6.841213999999999373e+01
-1.032399599999999928e+01 -3.871898999999999980e+00 6.864306600000000458e+01
-9.516268000000000171e+00 -3.864430000000000032e+00 6.905526700000000062e+01
-8.387907000000000224e+00 -3.854149000000000047e+00 6.962381700000000251e+01
-7.896389000000000102e+00 -3.851399999999999935e+00 6.978839100000000428e+01
-7.089299999999999713e+00 -3.844860999999999862e+00 7.015595999999999322e+01
-6.608164999999999623e+00 -3.840540999999999983e+00 7.039527900000000216e+01
-5.956965000000000288e+00 -3.836647000000000141e+00 7.062547299999999950e+01
-5.793717000000000006e+00 -3.835774999999999935e+00 7.067816899999999691e+01
-5.151220999999999606e+00 -3.830595999999999890e+00 7.096943699999999922e+01
-4.506903999999999577e+00 -3.825912999999999897e+00 7.123703799999999831e+01
-3.863979000000000052e+00 -3.821175000000000210e+00 7.150720200000000659e+01
-3.221239999999999881e+00 -3.816578999999999944e+00 7.177051500000000317e+01
-2.738990999999999953e+00 -3.813271999999999995e+00 7.196127300000000560e+01
-2.098114999999999952e+00 -3.808666999999999803e+00 7.222490700000000174e+01
-1.611812000000000022e+00 -3.806201000000000167e+00 7.237557200000000535e+01
-1.450442000000000009e+00 -3.805280000000000218e+00 7.243045800000000156e+01
-8.146640000000000548e-01 -3.800194999999999990e+00 7.271681200000000445e+01
-3.380679999999999796e-01 -3.796457999999999888e+00 7.292790999999999713e+01
-1.787799999999999945e-01 -3.795296000000000003e+00 7.299422500000000014e+01
9.497280000000000166e-01 -3.789429999999999854e+00 7.335072300000000212e+01
1.595326000000000022e+00 -3.786347000000000129e+00 7.354157299999999964e+01
2.074651999999999941e+00 -3.783402999999999849e+00 7.371468400000000543e+01
2.234932000000000141e+00 -3.782510999999999957e+00 7.376815000000000566e+01
2.873472000000000026e+00 -3.778650999999999982e+00 7.399581899999999735e+01
3.357204999999999995e+00 -3.776517999999999819e+00 7.413034100000000137e+01
3.519105999999999845e+00 -3.775910999999999795e+00 7.417021200000000647e+01
3.999913999999999970e+00 -3.773445000000000160e+00 7.432050300000000220e+01
4.797766000000000197e+00 -3.768993000000000038e+00 7.458717300000000705e+01
5.270798000000000094e+00 -3.765639000000000181e+00 7.477957200000000171e+01
5.755956000000000294e+00 -3.763986000000000054e+00 7.489109000000000549e+01
5.918115000000000236e+00 -3.763504000000000183e+00 7.492499499999999557e+01
6.881891999999999676e+00 -3.759500000000000064e+00 7.518112200000000200e+01
7.041539000000000215e+00 -3.758722999999999814e+00 7.522898899999999855e+01
7.671184000000000225e+00 -3.754523999999999972e+00 7.547240399999999738e+01
8.153885999999999967e+00 -3.752794999999999881e+00 7.558738700000000676e+01
8.315080999999999278e+00 -3.752266999999999797e+00 7.562345899999999688e+01
8.956663999999999959e+00 -3.749792999999999932e+00 7.578473700000000690e+01
9.433493000000000350e+00 -3.747446000000000055e+00 7.592907700000000659e+01
9.594483000000000317e+00 -3.746929999999999872e+00 7.596447799999999972e+01
9.756857999999999365e+00 -3.746592000000000144e+00 7.599149300000000551e+01
1.024179200000000023e+01 -3.745325999999999933e+00 7.608438900000000160e+01
1.055819699999999983e+01 -3.743656999999999790e+00 7.618551600000000690e+01
1.071583399999999919e+01 -3.742763000000000062e+00 7.623892200000000230e+01
1.135479600000000033e+01 -3.740266000000000091e+00 7.640115400000000534e+01
1.183675500000000014e+01 -3.738771999999999984e+00 7.650479099999999733e+01
1.199628399999999928e+01 -3.738147999999999804e+00 7.654532600000000286e+01
1.263613999999999926e+01 -3.735905999999999949e+00 7.669539600000000235e+01
1.311880700000000033e+01 -3.734595999999999805e+00 7.679026799999999753e+01
1.328045099999999934e+01 -3.734255999999999798e+00 7.681733699999999487e+01
1.682692000000000121e+01 -3.726449999999999818e+00 7.742706300000000397e+01
1.746505000000000152e+01 -3.724457999999999824e+00 7.756499499999999614e+01
1.794205499999999986e+01 -3.722830999999999779e+00 7.767475100000000054e+01
1.810458200000000062e+01 -3.722678000000000154e+00 7.769284100000000137e+01
1.875758899999999940e+01 -3.722399999999999931e+00 7.774945800000000418e+01
1.924351700000000065e+01 -3.721798999999999857e+00 7.781046299999999860e+01
1.940665100000000010e+01 -3.721727000000000007e+00 7.782475300000000118e+01
1.989292000000000016e+01 -3.721188000000000162e+00 7.788282800000000350e+01
-4.821862999999999566e+00 -3.999121000000000148e+00 7.104633300000000418e+01
-4.660352999999999746e+00 -3.997991999999999990e+00 7.110975600000000441e+01
-4.498911999999999800e+00 -3.996860999999999997e+00 7.117323299999999620e+01
-4.177376999999999896e+00 -3.994403999999999844e+00 7.130930299999999988e+01
-3.855913000000000146e+00 -3.991979000000000166e+00 7.144381699999999569e+01
-3.533309000000000033e+00 -3.989790000000000170e+00 7.156739000000000317e+01
-3.210709000000000035e+00 -3.987639999999999851e+00 7.168910200000000543e+01
-3.049790999999999919e+00 -3.986515999999999948e+00 7.175219699999999534e+01
-2.729842000000000102e+00 -3.983992000000000200e+00 7.189132700000000398e+01
-2.411493999999999804e+00 -3.981250999999999873e+00 7.204047400000000323e+01
-2.090101999999999904e+00 -3.979049999999999976e+00 7.216454299999999478e+01
-1.765446000000000071e+00 -3.977409999999999890e+00 7.226242100000000335e+01
-1.441537999999999986e+00 -3.975683000000000078e+00 7.236439500000000180e+01
-9.636919999999999931e-01 -3.971889000000000003e+00 7.257325000000000159e+01
-8.055909999999999460e-01 -3.970460999999999796e+00 7.265047500000000014e+01
-4.873779999999999779e-01 -3.967953000000000063e+00 7.278869600000000162e+01
-1.684750000000000136e-01 -3.965594999999999981e+00 7.291997499999999377e+01
1.493919999999999970e-01 -3.963115999999999861e+00 7.305679299999999898e+01
3.092400000000000149e-01 -3.962032999999999916e+00 7.311795800000000156e+01
7.963580000000000103e-01 -3.959983999999999948e+00 7.324552199999999402e+01
1.284807000000000032e+00 -3.958193000000000072e+00 7.336111499999999808e+01
1.605806999999999984e+00 -3.956336999999999993e+00 7.346892499999999870e+01
2.725424999999999986e+00 -3.949520000000000142e+00 7.386105299999999829e+01
3.208034000000000052e+00 -3.947118000000000126e+00 7.400491300000000194e+01
3.692591000000000179e+00 -3.945056000000000118e+00 7.413297300000000689e+01
3.852221000000000117e+00 -3.944112000000000062e+00 7.418758400000000108e+01
4.329341999999999580e+00 -3.941075000000000106e+00 7.436087799999999959e+01
4.967548999999999992e+00 -3.937422000000000200e+00 7.457347900000000607e+01
5.284594000000000236e+00 -3.935353999999999797e+00 7.469097100000000466e+01
6.251674000000000397e+00 -3.931506000000000167e+00 7.493395200000000500e+01
6.411472999999999978e+00 -3.930696999999999885e+00 7.498223900000000697e+01
7.370594999999999786e+00 -3.926019000000000148e+00 7.526367199999999968e+01
9.770343999999999696e+00 -3.915503000000000178e+00 7.591199500000000455e+01
1.009550699999999956e+01 -3.914851000000000081e+00 7.596357000000000426e+01
1.120777499999999982e+01 -3.909469000000000083e+00 7.628791800000000478e+01
1.233232100000000031e+01 -3.905855999999999995e+00 7.653004500000000121e+01
1.345786900000000053e+01 -3.902565000000000062e+00 7.675711800000000551e+01
1.474774599999999936e+01 -3.899445000000000050e+00 7.698673200000000350e+01
1.539030499999999968e+01 -3.897689999999999877e+00 7.711054199999999526e+01
1.602336499999999830e+01 -3.894903999999999922e+00 7.728215799999999547e+01
1.732365599999999972e+01 -3.893397000000000219e+00 7.743672899999999970e+01
1.748056000000000054e+01 -3.892587999999999937e+00 7.748483299999999474e+01
1.845132100000000008e+01 -3.891080999999999790e+00 7.761820199999999659e+01
1.893667599999999851e+01 -3.890357999999999983e+00 7.768344100000000196e+01
1.958507000000000176e+01 -3.889564000000000021e+00 7.776254299999999375e+01
-2.559683000000000153e+00 5.998693000000000275e+00 7.189462299999999573e+01
4.945629999999999749e-01 5.985476000000000241e+00 7.300249499999999614e+01
1.779843000000000064e+00 5.980201000000000100e+00 7.343058800000000019e+01
2.417756999999999934e+00 5.977394000000000318e+00 7.366809100000000399e+01
3.536767000000000216e+00 5.972725999999999758e+00 7.405084200000000294e+01
4.173394000000000048e+00 5.969983000000000040e+00 7.428012099999999407e+01
5.453790999999999833e+00 5.964961999999999875e+00 7.467532300000000589e+01
6.094027999999999778e+00 5.962511000000000116e+00 7.486516600000000210e+01
7.215983999999999732e+00 5.958374000000000059e+00 7.517651399999999740e+01
7.857728999999999964e+00 5.956082999999999572e+00 7.534457399999999438e+01
8.502509999999999124e+00 5.953955999999999804e+00 7.549018100000000686e+01
9.142333000000000709e+00 5.951640000000000263e+00 7.566191899999999748e+01
1.090096100000000057e+01 5.945389999999999731e+00 7.611872099999999364e+01
1.154708399999999990e+01 5.943445999999999785e+00 7.623971600000000137e+01
1.218253900000000023e+01 5.941085000000000171e+00 7.641837300000000255e+01
1.329675499999999921e+01 5.937113000000000085e+00 7.670937299999999937e+01
1.395514400000000066e+01 5.935743000000000436e+00 7.675130500000000211e+01
1.427931099999999986e+01 5.934861999999999860e+00 7.679939299999999491e+01
1.460086800000000018e+01 5.933882999999999797e+00 7.686114499999999339e+01
1.522891300000000037e+01 5.931354999999999933e+00 7.706375099999999634e+01
1.554356800000000050e+01 5.930126999999999704e+00 7.716004200000000424e+01
1.586044899999999913e+01 5.928993000000000180e+00 7.724344600000000582e+01
1.635759699999999839e+01 5.928135000000000154e+00 7.725149500000000558e+01
1.668531799999999876e+01 5.927424000000000248e+00 7.727627599999999575e+01
1.684345799999999826e+01 5.926853000000000371e+00 7.731857300000000066e+01
1.700085400000000035e+01 5.926255000000000273e+00 7.736454799999999921e+01
1.731945400000000035e+01 5.925207999999999586e+00 7.743594400000000633e+01
1.747926500000000161e+01 5.924705999999999584e+00 7.746870400000000245e+01
1.763824800000000081e+01 5.924173999999999829e+00 7.750558499999999640e+01
1.795600100000000054e+01 5.923106999999999900e+00 7.757986499999999808e+01
1.827863100000000074e+01 5.922225000000000072e+00 7.762836500000000228e+01
1.860600300000000118e+01 5.921522000000000396e+00 7.765216800000000319e+01
1.877009599999999878e+01 5.921185999999999616e+00 7.766189599999999871e+01
1.893398099999999928e+01 5.920842999999999634e+00 7.767262300000000153e+01
1.909765200000000007e+01 5.920492000000000310e+00 7.768437199999999621e+01
1.926116199999999878e+01 5.920136000000000287e+00 7.769688399999999717e+01
1.942447500000000105e+01 5.919773000000000174e+00 7.771031200000000183e+01
1.975037800000000132e+01 5.919024000000000285e+00 7.774057799999999929e+01
1.991329400000000049e+01 5.918648000000000131e+00 7.775576800000000333e+01
2.007641200000000126e+01 5.918281000000000347e+00 7.776986700000000496e+01
2.023940800000000095e+01 5.917910000000000004e+00 7.778449999999999420e+01
2.040179099999999934e+01 5.917517000000000138e+00 7.780210900000000152e+01
-1.129083400000000026e+01 5.869879000000000069e+00 6.813841200000000242e+01
-1.112740999999999936e+01 5.869123000000000090e+00 6.820886199999999633e+01
-1.080069699999999955e+01 5.867615999999999943e+00 6.834909100000000137e+01
-1.031685200000000080e+01 5.864995000000000402e+00 6.861206799999999362e+01
-9.996074999999999378e+00 5.863164000000000264e+00 6.879977399999999932e+01
-9.833859999999999602e+00 5.862371999999999694e+00 6.887571699999999453e+01
-9.347853000000000634e+00 5.859982999999999720e+00 6.910520200000000557e+01
-9.187789999999999679e+00 5.859077000000000091e+00 6.919770099999999502e+01
-9.026953000000000671e+00 5.858225000000000016e+00 6.928248600000000579e+01
-8.864328000000000429e+00 5.857485999999999748e+00 6.935066199999999981e+01
-8.700283999999999907e+00 5.856836999999999627e+00 6.940569299999999942e+01
-8.372764999999999347e+00 5.855515999999999721e+00 6.951928700000000561e+01
-7.884960000000000413e+00 5.853354000000000390e+00 6.971607199999999693e+01
-7.722115999999999758e+00 5.852655000000000385e+00 6.977845000000000653e+01
-7.559662999999999577e+00 5.851937999999999640e+00 6.984365099999999416e+01
-7.077600000000000335e+00 5.849502000000000201e+00 7.008082600000000184e+01
-6.917155000000000165e+00 5.848684999999999690e+00 7.016061399999999537e+01
-6.592810000000000059e+00 5.847261999999999738e+00 7.028927600000000098e+01
-6.430023000000000266e+00 5.846592000000000233e+00 7.034768699999999342e+01
-6.268188000000000315e+00 5.845870999999999817e+00 7.041352100000000291e+01
-6.107610000000000205e+00 5.845082999999999807e+00 7.048920400000000086e+01
-5.787850999999999857e+00 5.843441000000000329e+00 7.065017699999999934e+01
-5.627031999999999812e+00 5.842679999999999652e+00 7.072200800000000243e+01
-5.465137999999999607e+00 5.841980999999999646e+00 7.078452299999999298e+01
-4.977446999999999733e+00 5.840018999999999849e+00 7.095288100000000497e+01
-4.653957000000000122e+00 5.838638000000000439e+00 7.107595799999999997e+01
-4.492766999999999733e+00 5.837921999999999834e+00 7.114117400000000657e+01
-4.331904999999999895e+00 5.837191999999999936e+00 7.120847299999999791e+01
-4.171260000000000190e+00 5.836453999999999809e+00 7.127695500000000095e+01
-4.010438999999999865e+00 5.835729999999999862e+00 7.134352099999999552e+01
-3.365295999999999843e+00 5.832964999999999733e+00 7.159027899999999534e+01
-3.204886000000000124e+00 5.832235999999999976e+00 7.165753899999999987e+01
-3.045717999999999925e+00 5.831445999999999685e+00 7.173381799999999942e+01
-2.887617999999999796e+00 5.830605000000000260e+00 7.181768800000000397e+01
-2.729226000000000152e+00 5.829781999999999798e+00 7.189870500000000675e+01
-2.568843999999999905e+00 5.829067000000000220e+00 7.196399700000000621e+01
-1.918557000000000068e+00 5.826687999999999867e+00 7.215475499999999442e+01
-1.759297000000000111e+00 5.825930999999999749e+00 7.222624999999999318e+01
-1.600305000000000089e+00 5.825164000000000009e+00 7.229921000000000220e+01
-1.440879999999999939e+00 5.824423000000000350e+00 7.236842300000000705e+01
-1.281533999999999951e+00 5.823681999999999803e+00 7.243771399999999971e+01
-9.652579999999999494e-01 5.822090000000000209e+00 7.259247600000000489e+01
-6.476539999999999520e-01 5.820578000000000252e+00 7.273535200000000600e+01
-4.860019999999999896e-01 5.819969000000000392e+00 7.278537000000000035e+01
-3.229850000000000221e-01 5.819428000000000267e+00 7.282516499999999837e+01
-1.597969999999999946e-01 5.818899000000000044e+00 7.286344900000000280e+01
3.255160000000000275e-01 5.817115000000000258e+00 7.300690500000000327e+01
4.855149999999999744e-01 5.816440000000000055e+00 7.306662000000000035e+01
6.445880000000000498e-01 5.815723000000000198e+00 7.313246200000000385e+01
8.031110000000000193e-01 5.814982999999999791e+00 7.320171399999999551e+01
1.445171999999999901e+00 5.812433999999999656e+00 7.341855599999999527e+01
1.607337000000000016e+00 5.811880999999999631e+00 7.346040299999999945e+01
1.768375999999999948e+00 5.811276999999999582e+00 7.350972699999999804e+01
1.928018000000000010e+00 5.810609999999999609e+00 7.356832900000000564e+01
2.086968000000000156e+00 5.809914000000000023e+00 7.363127900000000636e+01
2.246194000000000024e+00 5.809232999999999869e+00 7.369190999999999292e+01
2.406260000000000066e+00 5.808595000000000397e+00 7.374640700000000493e+01
3.045666999999999902e+00 5.806026000000000131e+00 7.396650699999999290e+01
3.204953999999999859e+00 5.805366000000000248e+00 7.402439900000000250e+01
3.364831000000000127e+00 5.804733999999999838e+00 7.407795699999999783e+01
3.524953000000000003e+00 5.804115000000000357e+00 7.412953199999999754e+01
3.844307000000000141e+00 5.802845999999999727e+00 7.423754900000000134e+01
4.003447000000000422e+00 5.802190999999999654e+00 7.429456299999999658e+01
4.162125999999999770e+00 5.801517999999999731e+00 7.435424000000000433e+01
4.320269999999999833e+00 5.800824999999999676e+00 7.441702300000000037e+01
4.796317000000000164e+00 5.798830999999999847e+00 7.459247600000000489e+01
5.118298000000000236e+00 5.797717999999999705e+00 7.467778800000000672e+01
5.441696999999999562e+00 5.796673000000000187e+00 7.475292199999999809e+01
5.764567000000000441e+00 5.795612000000000208e+00 7.483045199999999397e+01
6.085473000000000354e+00 5.794474000000000125e+00 7.491943399999999542e+01
6.408566000000000429e+00 5.793436999999999948e+00 7.499352299999999616e+01
6.887057999999999680e+00 5.791635000000000311e+00 7.514124300000000289e+01
7.203923999999999772e+00 5.790353999999999779e+00 7.525138099999999497e+01
7.524651000000000423e+00 5.789245000000000196e+00 7.533638799999999947e+01
7.845809000000000033e+00 5.788160000000000416e+00 7.541771699999999612e+01
8.167286999999999964e+00 5.787094999999999878e+00 7.549609399999999937e+01
8.490078999999999709e+00 5.786090999999999873e+00 7.556556700000000149e+01
8.809732000000000340e+00 5.784965999999999831e+00 7.565307599999999866e+01
9.446141000000000787e+00 5.782619999999999649e+00 7.584218599999999810e+01
9.761884000000000228e+00 5.781361000000000416e+00 7.594961499999999432e+01
1.023860799999999927e+01 5.779611000000000054e+00 7.609017199999999548e+01
1.056107899999999944e+01 5.778636999999999802e+00 7.615538800000000208e+01
1.088609899999999975e+01 5.777769000000000155e+00 7.620507000000000630e+01
1.121026999999999951e+01 5.776870999999999867e+00 7.625905600000000106e+01
1.185302100000000003e+01 5.774874999999999758e+00 7.639699600000000146e+01
1.216649699999999967e+01 5.773583000000000354e+00 7.650953699999999458e+01
1.280361699999999914e+01 5.771410000000000373e+00 7.667386600000000385e+01
1.312183800000000033e+01 5.770321000000000033e+00 7.675654600000000016e+01
1.361005800000000043e+01 5.769103999999999566e+00 7.681863400000000297e+01
1.393953100000000056e+01 5.768444999999999823e+00 7.683747099999999364e+01
1.426194699999999926e+01 5.767528000000000432e+00 7.689469099999999457e+01
1.489643200000000078e+01 5.765329999999999622e+00 7.706323199999999929e+01
1.520958300000000030e+01 5.764091999999999771e+00 7.716815900000000283e+01
1.552545499999999912e+01 5.762959999999999638e+00 7.725740100000000155e+01
1.584387599999999985e+01 5.761927000000000021e+00 7.733209999999999695e+01
1.617305199999999843e+01 5.761281000000000319e+00 7.734899900000000628e+01
1.666922399999999982e+01 5.760402000000000022e+00 7.736130500000000154e+01
1.698602299999999943e+01 5.759324999999999584e+00 7.744253500000000656e+01
1.762300700000000120e+01 5.757305999999999813e+00 7.758492300000000341e+01
1.793930599999999842e+01 5.756229000000000262e+00 7.766630600000000584e+01
1.826074799999999954e+01 5.755334000000000394e+00 7.772048200000000406e+01
1.858908800000000028e+01 5.754679999999999573e+00 7.773889200000000699e+01
1.891689099999999968e+01 5.754008999999999929e+00 7.775981099999999913e+01
1.972890699999999953e+01 5.752086000000000254e+00 7.784870100000000548e+01
2.005540099999999981e+01 5.751377999999999879e+00 7.787518300000000693e+01
2.037873300000000043e+01 5.750567000000000206e+00 7.791708400000000267e+01
-1.129889200000000038e+01 5.698374000000000272e+00 6.821421100000000592e+01
-1.081010700000000035e+01 5.696142000000000039e+00 6.843653100000000222e+01
-1.048600800000000000e+01 5.694571999999999967e+00 6.859764099999999587e+01
-1.016425399999999968e+01 5.692884000000000277e+00 6.877737399999999468e+01
-9.840654999999999930e+00 5.691324999999999967e+00 6.893704999999999927e+01
-9.516173999999999467e+00 5.689835000000000420e+00 6.908589899999999773e+01
-8.873675000000000423e+00 5.686541000000000068e+00 6.943310499999999763e+01
-8.544816000000000855e+00 5.685349000000000430e+00 6.953520199999999818e+01
-8.055562000000000111e+00 5.683360999999999663e+00 6.972007800000000088e+01
-7.729880999999999780e+00 5.682025000000000325e+00 6.984488699999999994e+01
-7.405121000000000286e+00 5.680654999999999788e+00 6.997544899999999757e+01
-7.084480000000000111e+00 5.679076000000000235e+00 7.013869499999999846e+01
-6.763506999999999714e+00 5.677533999999999637e+00 7.029644000000000403e+01
-6.438652000000000264e+00 5.676212999999999731e+00 7.041921999999999571e+01
-5.634570000000000078e+00 5.672551999999999595e+00 7.078324100000000385e+01
-5.311848000000000347e+00 5.671170000000000044e+00 7.091592400000000396e+01
-4.987168999999999741e+00 5.669902000000000442e+00 7.103074599999999350e+01
-4.341154000000000401e+00 5.667233000000000409e+00 7.128140999999999394e+01
-3.698477000000000015e+00 5.664450999999999681e+00 7.155032300000000589e+01
-3.376736000000000182e+00 5.663100000000000023e+00 7.167855799999999533e+01
-3.056937000000000015e+00 5.661666999999999561e+00 7.181974800000000414e+01
-2.251606999999999914e+00 5.658424000000000120e+00 7.211951399999999524e+01
-1.929419999999999913e+00 5.657149999999999679e+00 7.223587799999999959e+01
-1.294629999999999947e+00 5.654188000000000436e+00 7.253416400000000408e+01
-6.579620000000000468e-01 5.651368999999999865e+00 7.281018799999999658e+01
-3.324550000000000005e-01 5.650305999999999607e+00 7.289343300000000170e+01
-6.856000000000000115e-03 5.649253999999999998e+00 7.297482300000000066e+01
4.759939999999999727e-01 5.647442999999999991e+00 7.313410199999999861e+01
1.111825000000000063e+00 5.644711000000000034e+00 7.339704100000000153e+01
1.434593999999999925e+00 5.643575000000000230e+00 7.349205000000000609e+01
2.076635000000000009e+00 5.641179000000000165e+00 7.370212600000000691e+01
2.396109000000000044e+00 5.639927000000000135e+00 7.381555899999999326e+01
2.716848000000000152e+00 5.638740999999999559e+00 7.391889999999999361e+01
3.034629999999999939e+00 5.637438000000000393e+00 7.404073300000000302e+01
3.833337999999999912e+00 5.634402999999999828e+00 7.431014999999999304e+01
4.151436000000000348e+00 5.633148000000000266e+00 7.442455300000000307e+01
4.467503999999999920e+00 5.631820000000000270e+00 7.455071999999999832e+01
4.786348000000000269e+00 5.630614999999999704e+00 7.465724199999999655e+01
5.108799999999999564e+00 5.629565999999999626e+00 7.473911999999999978e+01
5.431036999999999892e+00 5.628514000000000017e+00 7.482132699999999659e+01
5.592335000000000278e+00 5.627998999999999974e+00 7.486088599999999360e+01
5.753726000000000340e+00 5.627487999999999602e+00 7.489960499999999399e+01
5.915138999999999925e+00 5.626979999999999649e+00 7.493792700000000195e+01
6.076891999999999960e+00 5.626488000000000156e+00 7.497385400000000288e+01
6.239063999999999943e+00 5.626013000000000375e+00 7.500691199999999981e+01
6.401042999999999594e+00 5.625531999999999755e+00 7.504097000000000151e+01
6.720336999999999783e+00 5.624391000000000140e+00 7.513760399999999606e+01
6.877666999999999753e+00 5.623732999999999649e+00 7.519991299999999512e+01
7.034886000000000195e+00 5.623072999999999766e+00 7.526252700000000573e+01
7.192940000000000111e+00 5.622448000000000334e+00 7.531958000000000197e+01
7.352191000000000365e+00 5.621871999999999758e+00 7.536888899999999580e+01
7.673051000000000066e+00 5.620815999999999590e+00 7.545211799999999869e+01
7.833642000000000216e+00 5.620296999999999876e+00 7.549236299999999744e+01
7.994200000000000195e+00 5.619778000000000162e+00 7.553256199999999865e+01
8.155224999999999724e+00 5.619278999999999691e+00 7.556967199999999707e+01
8.316660000000000608e+00 5.618796999999999819e+00 7.560406500000000563e+01
8.477767999999999304e+00 5.618303000000000047e+00 7.564022799999999336e+01
8.796872000000000469e+00 5.617204000000000086e+00 7.573061400000000276e+01
8.955887000000000597e+00 5.616635999999999740e+00 7.577861799999999448e+01
9.115175000000000693e+00 5.616081000000000323e+00 7.582469899999999541e+01
9.274347000000000563e+00 5.615522999999999598e+00 7.587120099999999923e+01
9.433007999999999171e+00 5.614949000000000190e+00 7.592046399999999551e+01
9.591153999999999513e+00 5.614357000000000042e+00 7.597248799999999846e+01
9.906753000000000142e+00 5.613152999999999615e+00 7.607970400000000666e+01
1.006462400000000024e+01 5.612555999999999656e+00 7.613241600000000631e+01
1.022314100000000003e+01 5.611985999999999919e+00 7.618103800000000092e+01
1.038296799999999998e+01 5.611464999999999925e+00 7.622171799999999564e+01
1.054435100000000070e+01 5.611002000000000045e+00 7.625309799999999427e+01
1.070715399999999917e+01 5.610592999999999719e+00 7.627603100000000325e+01
1.119680499999999945e+01 5.609414000000000122e+00 7.633688399999999774e+01
1.152052100000000046e+01 5.608534999999999826e+00 7.639241800000000637e+01
1.168060000000000009e+01 5.608032999999999824e+00 7.643010700000000668e+01
1.183870699999999943e+01 5.607461999999999946e+00 7.647881300000000238e+01
1.199522299999999930e+01 5.606836999999999627e+00 7.653628500000000656e+01
1.230918999999999919e+01 5.605627000000000137e+00 7.664497400000000482e+01
1.246849600000000002e+01 5.605106000000000144e+00 7.668576799999999594e+01
1.262885799999999925e+01 5.604624000000000272e+00 7.672040599999999699e+01
1.278924199999999978e+01 5.604143999999999792e+00 7.675471500000000447e+01
1.294893300000000025e+01 5.603640999999999650e+00 7.679270900000000211e+01
1.310821100000000072e+01 5.603125000000000355e+00 7.683279400000000692e+01
1.326819799999999994e+01 5.602634000000000114e+00 7.686870600000000309e+01
1.343027900000000052e+01 5.602218999999999838e+00 7.689281499999999880e+01
1.392314000000000007e+01 5.601202999999999932e+00 7.692792500000000189e+01
1.424416199999999932e+01 5.600270000000000081e+00 7.699229400000000112e+01
1.456197099999999978e+01 5.599232999999999905e+00 7.707343299999999431e+01
1.472037899999999944e+01 5.598700000000000010e+00 7.711636400000000435e+01
1.487807199999999952e+01 5.598143999999999565e+00 7.716293299999999533e+01
1.519299299999999953e+01 5.597021999999999942e+00 7.725781999999999528e+01
1.535130200000000045e+01 5.596491000000000327e+00 7.730032300000000589e+01
1.551001499999999922e+01 5.595976000000000283e+00 7.734043900000000349e+01
1.566903499999999916e+01 5.595472000000000001e+00 7.737869299999999839e+01
1.582917600000000036e+01 5.595006999999999842e+00 7.741077400000000353e+01
1.599194600000000044e+01 5.594630999999999688e+00 7.742871100000000695e+01
1.615785400000000038e+01 5.594357999999999720e+00 7.742991600000000574e+01
1.632525100000000151e+01 5.594134999999999636e+00 7.742323299999999620e+01
1.649115899999999968e+01 5.593861999999999668e+00 7.742442300000000444e+01
1.665354200000000162e+01 5.593473999999999613e+00 7.744415300000000002e+01
1.681281900000000107e+01 5.592985999999999791e+00 7.748007200000000694e+01
1.729024499999999875e+01 5.591514000000000095e+00 7.758878300000000650e+01
1.745014199999999960e+01 5.591050000000000075e+00 7.762072000000000571e+01
1.760896100000000075e+01 5.590551999999999744e+00 7.765807300000000168e+01
1.776677700000000115e+01 5.590023999999999660e+00 7.770041700000000162e+01
1.792468300000000170e+01 5.589500000000000135e+00 7.774208099999999888e+01
1.808401100000000028e+01 5.589023000000000074e+00 7.777620699999999943e+01
1.824569500000000133e+01 5.588621999999999979e+00 7.779807999999999879e+01
1.840955200000000147e+01 5.588290999999999897e+00 7.780873099999999454e+01
1.890121999999999858e+01 5.587303999999999604e+00 7.783980599999999583e+01
1.922238499999999917e+01 5.586439000000000377e+00 7.789364600000000394e+01
1.938314599999999999e+01 5.586013999999999591e+00 7.791946400000000494e+01
1.954514299999999949e+01 5.585628999999999955e+00 7.793893400000000327e+01
1.970838499999999982e+01 5.585282000000000302e+00 7.795205699999999638e+01
1.987208400000000097e+01 5.584951000000000221e+00 7.796282999999999674e+01
2.003519400000000061e+01 5.584601000000000148e+00 7.797647100000000364e+01
2.019688199999999867e+01 5.584208000000000283e+00 7.799713099999999599e+01
2.035719500000000082e+01 5.583774000000000015e+00 7.802451299999999890e+01
-1.147076799999999963e+01 5.527605000000000324e+00 6.822333500000000583e+01
-1.130771299999999968e+01 5.526898000000000089e+00 6.829724899999999366e+01
-1.098199699999999979e+01 5.525476000000000276e+00 6.844674700000000200e+01
-1.081937600000000010e+01 5.524758000000000280e+00 6.852265900000000443e+01
-1.065683699999999945e+01 5.524041000000000423e+00 6.859863300000000663e+01
-1.033258999999999972e+01 5.522572000000000259e+00 6.875618699999999706e+01
-1.017090199999999989e+01 5.521821000000000090e+00 6.883789099999999905e+01
-1.000898600000000016e+01 5.521086000000000382e+00 6.891676300000000310e+01
-9.684274999999999523e+00 5.519676999999999722e+00 6.906440000000000623e+01
-9.522923000000000471e+00 5.518925000000000303e+00 6.914629399999999748e+01
-9.363034000000000745e+00 5.518099999999999561e+00 6.924061600000000283e+01
-9.203900000000000858e+00 5.517241000000000284e+00 6.934085799999999722e+01
-9.043891000000000346e+00 5.516433000000000142e+00 6.943241100000000188e+01
-8.881799000000000888e+00 5.515737999999999808e+00 6.950467700000000093e+01
-8.717784999999999229e+00 5.515146999999999800e+00 6.955932599999999866e+01
-8.389091000000000520e+00 5.514007000000000325e+00 6.966136199999999690e+01
-8.225968999999999198e+00 5.513378000000000334e+00 6.972238900000000683e+01
-8.063321000000000183e+00 5.512729000000000212e+00 6.978700999999999510e+01
-7.900605999999999796e+00 5.512086000000000041e+00 6.985049399999999764e+01
-7.574788999999999994e+00 5.510829000000000200e+00 6.997251900000000546e+01
-7.412613999999999592e+00 5.510169999999999568e+00 7.003901700000000119e+01
-7.251598999999999684e+00 5.509454999999999991e+00 7.011482200000000375e+01
-6.931690999999999825e+00 5.507933000000000412e+00 7.028243299999999749e+01
-6.771137999999999657e+00 5.507207000000000185e+00 7.036016100000000506e+01
-6.609536000000000300e+00 5.506536999999999793e+00 7.042846699999999771e+01
-6.284892000000000145e+00 5.505277000000000420e+00 7.055142200000000230e+01
-6.123260000000000147e+00 5.504617999999999789e+00 7.061785100000000170e+01
-5.962450999999999723e+00 5.503923000000000343e+00 7.069051399999999319e+01
-5.802032999999999774e+00 5.503212000000000437e+00 7.076578499999999394e+01
-5.480903999999999776e+00 5.501816999999999958e+00 7.091212500000000318e+01
-5.319860000000000255e+00 5.501146999999999565e+00 7.098053000000000168e+01
-5.158222000000000307e+00 5.500509000000000093e+00 7.104357899999999404e+01
-4.833389999999999631e+00 5.499314000000000036e+00 7.115572400000000641e+01
-4.671255000000000379e+00 5.498706999999999567e+00 7.121337099999999509e+01
-4.510066000000000130e+00 5.498058999999999585e+00 7.127807599999999866e+01
-4.349738999999999578e+00 5.497374999999999901e+00 7.134909799999999791e+01
-4.189683999999999742e+00 5.496680999999999706e+00 7.142170699999999783e+01
-4.029380999999999879e+00 5.496002999999999972e+00 7.149179800000000284e+01
-3.868831999999999827e+00 5.495338000000000278e+00 7.155942500000000450e+01
-3.708342000000000027e+00 5.494673999999999836e+00 7.162698399999999310e+01
-3.548046999999999951e+00 5.494004999999999583e+00 7.169553399999999499e+01
-3.227864999999999984e+00 5.492657000000000345e+00 7.183421300000000542e+01
-3.068293999999999855e+00 5.491964000000000290e+00 7.190674599999999828e+01
-1.940579000000000054e+00 5.487676000000000442e+00 7.231921400000000233e+01
-1.306402000000000063e+00 5.484842999999999691e+00 7.262085000000000434e+01
-6.676849999999999730e-01 5.482255000000000322e+00 7.288076800000000333e+01
-1.820499999999999896e-02 5.480161999999999978e+00 7.305609900000000323e+01
1.102859999999999951e+00 5.475937000000000054e+00 7.345973200000000247e+01
1.748447000000000084e+00 5.473775999999999975e+00 7.364727000000000601e+01
3.023750000000000160e+00 5.468925999999999732e+00 7.411389900000000353e+01
4.777902000000000093e+00 5.462518000000000207e+00 7.471212800000000698e+01
5.421321999999999974e+00 5.460455999999999754e+00 7.488368199999999320e+01
6.066454000000000235e+00 5.458484999999999587e+00 7.504003899999999305e+01
6.710950999999999667e+00 5.456513000000000169e+00 7.519642600000000243e+01
7.820978000000000208e+00 5.452487999999999779e+00 7.557005300000000148e+01
9.101416000000000395e+00 5.448412000000000255e+00 7.590717300000000023e+01
9.735920999999999381e+00 5.446215999999999724e+00 7.610349999999999682e+01
1.085557700000000025e+01 5.442747999999999919e+00 7.638239299999999332e+01
1.150622599999999984e+01 5.441155000000000186e+00 7.647457900000000564e+01
1.213717199999999963e+01 5.438932000000000322e+00 7.667623899999999537e+01
1.277406200000000069e+01 5.436927999999999983e+00 7.684007300000000384e+01
1.390703700000000076e+01 5.434055999999999997e+00 7.701679199999999526e+01
1.454402100000000075e+01 5.432108000000000381e+00 7.717142499999999927e+01
1.517859699999999989e+01 5.430105000000000182e+00 7.733566299999999671e+01
1.581601399999999913e+01 5.428211000000000119e+00 7.748125500000000443e+01
1.647556099999999901e+01 5.427005000000000301e+00 7.750705000000000666e+01
1.695577799999999868e+01 5.425669000000000075e+00 7.760156299999999874e+01
1.759551400000000143e+01 5.423886000000000429e+00 7.772811900000000662e+01
1.823318499999999887e+01 5.422057999999999822e+00 7.786263999999999896e+01
1.888600900000000138e+01 5.420688000000000173e+00 7.791745000000000232e+01
1.952596700000000141e+01 5.418954000000000271e+00 7.803578199999999754e+01
2.001580799999999982e+01 5.417944999999999567e+00 7.807366899999999532e+01
-1.164216399999999929e+01 5.356866000000000128e+00 6.822791300000000092e+01
-1.099047499999999999e+01 5.354175999999999824e+00 6.852581800000000101e+01
-1.050180600000000020e+01 5.352192999999999756e+00 6.874294999999999334e+01
-9.209557999999999467e+00 5.346540000000000070e+00 6.939096800000000087e+01
-8.070909999999999584e+00 5.342168000000000028e+00 6.985246999999999673e+01
-7.420792999999999751e+00 5.339713999999999849e+00 7.010845199999999977e+01
-6.778533000000000364e+00 5.336952000000000140e+00 7.042190600000000700e+01
-6.131039999999999601e+00 5.334480000000000111e+00 7.068180099999999300e+01
-5.003555999999999671e+00 5.330021999999999593e+00 7.116187999999999647e+01
-3.717566999999999844e+00 5.324996999999999758e+00 7.169865400000000477e+01
-3.078551000000000037e+00 5.322390000000000398e+00 7.198529800000000023e+01
-2.758528999999999787e+00 5.321125000000000327e+00 7.212144499999999425e+01
-2.596950000000000092e+00 5.320560999999999652e+00 7.217684199999999350e+01
-2.434391999999999889e+00 5.320038000000000267e+00 7.222441100000000347e+01
-2.272139000000000131e+00 5.319505999999999624e+00 7.227392600000000300e+01
-1.951740000000000030e+00 5.318281999999999954e+00 7.240256499999999562e+01
-1.792926999999999937e+00 5.317618999999999652e+00 7.247650899999999297e+01
-1.634087999999999985e+00 5.316959999999999908e+00 7.254971299999999701e+01
-1.475003000000000064e+00 5.316314000000000206e+00 7.262055999999999756e+01
-1.156795999999999935e+00 5.315031000000000283e+00 7.276043699999999603e+01
-9.972860000000000058e-01 5.314409999999999634e+00 7.282662999999999442e+01
-8.370919999999999472e-01 5.313818000000000374e+00 7.288735200000000702e+01
-5.150599999999999623e-01 5.312706000000000373e+00 7.299557500000000232e+01
