1.739377800000000107e+01 1.108662000000000036e+00 7.878325700000000609e+01
1.771268099999999990e+01 1.108600000000000030e+00 7.884543600000000652e+01
1.851644900000000149e+01 1.108197000000000099e+00 7.896493499999999699e+01
1.899064399999999964e+01 1.108227999999999991e+00 7.907589699999999766e+01
1.979945899999999881e+01 1.107614000000000098e+00 7.916482499999999334e+01
2.027938800000000086e+01 1.107423000000000046e+00 7.924364500000000078e+01
2.092393099999999961e+01 1.106997000000000009e+00 7.932411999999999352e+01
2.157430799999999849e+01 1.106363999999999903e+00 7.937461899999999559e+01
2.221996299999999991e+01 1.105880999999999892e+00 7.944680800000000431e+01
2.270701000000000036e+01 1.105420000000000069e+00 7.948658000000000357e+01
2.336814100000000138e+01 1.104411000000000032e+00 7.948308600000000013e+01
2.383987199999999973e+01 1.104444999999999899e+00 7.959390999999999394e+01
2.464213900000000024e+01 1.103957999999999995e+00 7.970050799999999924e+01
-1.285513599999999990e+01 9.135659999999999892e-01 6.837627399999999511e+01
-1.133620999999999990e+00 9.437780000000000058e-01 7.504795099999999763e+01
7.339716000000000129e+00 9.487119999999999997e-01 7.750331900000000473e+01
2.092019799999999918e+01 9.416560000000000485e-01 7.934289599999999609e+01
-7.987773999999999930e+00 7.634400000000000075e-01 7.205340599999999540e+01
-1.759219699999999875e+01 5.583630000000000537e-01 6.587715099999999779e+01
-1.742940499999999915e+01 5.589840000000000364e-01 6.598331500000000460e+01
-1.693883100000000042e+01 5.605850000000000000e-01 6.626995100000000605e+01
-1.644561200000000056e+01 5.618680000000000341e-01 6.651785300000000234e+01
-1.628098100000000059e+01 5.622599999999999820e-01 6.659620700000000681e+01
-1.578813700000000075e+01 5.634909999999999641e-01 6.683756300000000294e+01
-1.513493300000000019e+01 5.653789999999999649e-01 6.718917799999999829e+01
-1.448584899999999998e+01 5.675029999999999797e-01 6.756915999999999656e+01
-1.399584800000000051e+01 5.687440000000000273e-01 6.781135600000000352e+01
-1.334212600000000037e+01 5.702760000000000051e-01 6.811912499999999682e+01
-1.285692300000000010e+01 5.717769999999999797e-01 6.839241800000000637e+01
-1.269428300000000043e+01 5.721889999999999477e-01 6.847280899999999804e+01
-1.204422600000000010e+01 5.738140000000000462e-01 6.879151899999999387e+01
-1.172289400000000015e+01 5.748830000000000329e-01 6.898175000000000523e+01
-1.156265699999999974e+01 5.754409999999999803e-01 6.907962000000000558e+01
-1.091417299999999990e+01 5.770129999999999981e-01 6.939144899999999438e+01
-1.042322700000000069e+01 5.777809999999999890e-01 6.957550000000000523e+01
-1.025984399999999930e+01 5.780480000000000063e-01 6.963816799999999319e+01
-9.610462000000000060e+00 5.793810000000000349e-01 6.992068500000000597e+01
-9.133321000000000467e+00 5.810579999999999634e-01 7.021421800000000246e+01
-8.550226999999999578e+00 5.870520000000000183e-01 7.105895999999999901e+01
-8.413318999999999548e+00 5.891549999999999843e-01 7.134297200000000316e+01
-8.276030000000000442e+00 5.912110000000000420e-01 7.162125399999999331e+01
-7.993299000000000376e+00 5.946839999999999904e-01 7.210054800000000341e+01
-7.845677000000000234e+00 5.959499999999999797e-01 7.228350100000000111e+01
-7.219991000000000270e+00 5.984310000000000462e-01 7.270313299999999401e+01
-6.582238000000000255e+00 5.999700000000000033e-01 7.300883500000000481e+01
-6.101579000000000086e+00 6.009109999999999729e-01 7.321235699999999724e+01
-5.941335999999999729e+00 6.012140000000000262e-01 7.327889999999999304e+01
-5.456309000000000076e+00 6.018090000000000384e-01 7.344064299999999434e+01
-4.813801999999999914e+00 6.028320000000000345e-01 7.368365500000000168e+01
-4.332618000000000080e+00 6.036030000000000006e-01 7.386638600000000565e+01
-4.172037000000000440e+00 6.038409999999999611e-01 7.392488899999999319e+01
-3.535614999999999952e+00 6.051320000000000032e-01 7.419990500000000111e+01
-2.895237999999999978e+00 6.061060000000000336e-01 7.443657699999999977e+01
-2.735885000000000122e+00 6.063870000000000093e-01 7.450023699999999849e+01
-2.416542999999999886e+00 6.068980000000000485e-01 7.462136099999999317e+01
-1.775276000000000076e+00 6.077169999999999517e-01 7.483911899999999662e+01
-1.136719999999999953e+00 6.086489999999999956e-01 7.507031299999999874e+01
-4.912679999999999825e-01 6.091149999999999620e-01 7.524525500000000022e+01
1.512350000000000083e-01 6.097139999999999782e-01 7.543613399999999558e+01
6.340959999999999930e-01 6.100769999999999804e-01 7.556886299999999324e+01
2.141124299999999891e+01 6.101670000000000149e-01 7.936577599999999677e+01
2.206332400000000149e+01 6.095390000000000530e-01 7.940726499999999533e+01
2.271272300000000044e+01 6.090130000000000265e-01 7.946072399999999902e+01
2.320352600000000010e+01 6.084619999999999473e-01 7.948226900000000228e+01
2.383707400000000121e+01 6.085500000000000353e-01 7.960858899999999494e+01
2.448145900000000097e+01 6.081929999999999836e-01 7.968199900000000468e+01
-1.416042099999999948e+01 3.971569999999999823e-01 6.774334000000000344e+01
-7.381046999999999692e+00 4.292830000000000257e-01 7.263839000000000112e+01
9.522140000000000049e-01 4.431840000000000224e-01 7.568218199999999740e+01
1.266575999999999924e+00 4.439069999999999960e-01 7.582001499999999794e+01
1.902595000000000036e+00 4.448630000000000084e-01 7.604019900000000121e+01
2.547714000000000034e+00 4.452269999999999839e-01 7.619306899999999416e+01
2.864929000000000059e+00 4.457119999999999971e-01 7.630377199999999505e+01
3.180925999999999920e+00 4.462559999999999860e-01 7.642111199999999371e+01
3.821454999999999824e+00 4.468079999999999830e-01 7.659508499999999742e+01
4.303401000000000032e+00 4.471069999999999767e-01 7.671249400000000662e+01
4.943297000000000274e+00 4.476289999999999991e-01 7.688283500000000004e+01
5.104008000000000322e+00 4.477119999999999989e-01 7.692001299999999731e+01
5.584368000000000443e+00 4.480480000000000018e-01 7.704137400000000468e+01
6.221065000000000289e+00 4.486749999999999905e-01 7.722334299999999985e+01
6.864392999999999745e+00 4.488989999999999925e-01 7.735969500000000210e+01
7.340584999999999916e+00 4.493909999999999849e-01 7.749845100000000286e+01
7.500772000000000439e+00 4.494710000000000094e-01 7.753521700000000294e+01
7.982522999999999591e+00 4.496350000000000069e-01 7.763694800000000384e+01
8.623682999999999765e+00 4.498929999999999874e-01 7.777675600000000600e+01
9.266085000000000349e+00 4.500560000000000116e-01 7.790585299999999336e+01
9.914282000000000039e+00 4.498920000000000141e-01 7.799791700000000105e+01
1.039137799999999956e+01 4.502229999999999843e-01 7.811811099999999897e+01
1.055028700000000086e+01 4.503349999999999853e-01 7.815842399999999657e+01
1.103399100000000033e+01 4.503050000000000108e-01 7.823787699999999745e+01
1.166913399999999967e+01 4.507410000000000028e-01 7.839730799999999533e+01
1.229927299999999946e+01 4.513940000000000174e-01 7.858126099999999781e+01
1.295382200000000061e+01 4.508090000000000153e-01 7.862542700000000195e+01
1.343978300000000026e+01 4.506060000000000065e-01 7.868514999999999304e+01
1.375710899999999981e+01 4.507889999999999953e-01 7.876086399999999799e+01
1.407591900000000074e+01 4.508929999999999882e-01 7.882764400000000649e+01
1.471067000000000036e+01 4.512209999999999832e-01 7.897450999999999510e+01
1.536319699999999955e+01 4.506780000000000230e-01 7.902324699999999780e+01
1.588405900000000059e+01 4.487820000000000142e-01 7.889229600000000175e+01
1.625253700000000023e+01 4.465330000000000132e-01 7.869409899999999425e+01
1.660059700000000049e+01 4.452530000000000099e-01 7.860501100000000463e+01
1.723681099999999944e+01 4.454810000000000159e-01 7.874055500000000052e+01
1.771694400000000158e+01 4.455000000000000071e-01 7.882504299999999375e+01
1.835908299999999826e+01 4.454179999999999806e-01 7.892562900000000070e+01
1.900133100000000042e+01 4.453139999999999876e-01 7.902357499999999391e+01
1.964102700000000112e+01 4.453050000000000064e-01 7.913228599999999346e+01
2.028087400000000073e+01 4.452720000000000011e-01 7.923805199999999616e+01
2.075989699999999871e+01 4.452720000000000011e-01 7.932022100000000364e+01
2.092066799999999915e+01 4.452220000000000066e-01 7.934195699999999363e+01
-1.726802400000000048e+01 -1.286930000000000018e-01 6.609970900000000427e+01
-1.661217299999999852e+01 -1.260670000000000124e-01 6.645574200000000076e+01
-1.644768499999999989e+01 -1.254949999999999954e-01 6.653649900000000628e+01
-1.562579999999999991e+01 -1.227020000000000055e-01 6.693324300000000449e+01
-1.497369400000000006e+01 -1.200350000000000028e-01 6.729276299999999367e+01
-1.400008000000000052e+01 -1.158359999999999945e-01 6.785125700000000393e+01
-1.317769599999999919e+01 -1.137190000000000006e-01 6.818093899999999508e+01
-1.187977899999999920e+01 -1.089019999999999988e-01 6.884784700000000157e+01
-1.155796699999999966e+01 -1.075170000000000015e-01 6.903213499999999669e+01
-1.074967099999999931e+01 -1.045630000000000032e-01 6.944288600000000145e+01
-1.026630699999999941e+01 -1.027290000000000009e-01 6.969518300000000011e+01
-8.981581000000000259e+00 -9.778199999999999392e-02 7.037311599999999601e+01
-8.277981000000000478e+00 -8.608999999999999986e-02 7.163632200000000694e+01
-7.851607999999999699e+00 -7.970099999999999407e-02 7.233260300000000598e+01
-7.385495999999999839e+00 -7.693700000000000538e-02 7.267482800000000509e+01
-6.904493999999999687e+00 -7.553500000000000492e-02 7.288396500000000344e+01
-6.582764000000000060e+00 -7.471899999999999376e-02 7.301170299999999713e+01
-5.460772999999999655e+00 -7.169100000000000472e-02 7.347540999999999656e+01
-4.334098000000000006e+00 -6.929599999999999649e-02 7.387696099999999433e+01
-4.174228000000000272e+00 -6.888500000000000179e-02 7.394101000000000568e+01
-3.378289999999999793e+00 -6.663399999999999879e-02 7.428013599999999883e+01
-2.897345000000000059e+00 -6.560900000000000065e-02 7.445178199999999435e+01
-2.577046999999999866e+00 -6.492199999999999360e-02 7.456655899999999804e+01
-2.094148999999999816e+00 -6.411100000000000132e-02 7.471725499999999442e+01
-1.774272000000000071e+00 -6.343300000000000327e-02 7.483107800000000509e+01
-9.737700000000000244e-01 -6.187100000000000238e-02 7.510250899999999774e+01
-4.929669999999999885e-01 -6.101800000000000279e-02 7.525707199999999375e+01
1.423527999999999905e+00 -5.745100000000000207e-02 7.588971700000000453e+01
1.904064999999999896e+00 -5.674099999999999977e-02 7.603011300000000006e+01
2.863531000000000049e+00 -5.529400000000000287e-02 7.631320200000000398e+01
3.180594999999999839e+00 -5.464800000000000213e-02 7.642340900000000659e+01
3.985275000000000123e+00 -5.390799999999999759e-02 7.661386899999999400e+01
4.304316000000000031e+00 -5.343900000000000039e-02 7.670673399999999731e+01
5.423892000000000380e+00 -5.208700000000000135e-02 7.700375400000000070e+01
5.585473999999999606e+00 -5.201200000000000268e-02 7.703466799999999637e+01
6.384678000000000075e+00 -5.110599999999999865e-02 7.724075299999999800e+01
6.863247999999999571e+00 -5.053300000000000153e-02 7.736721799999999405e+01
7.663216000000000250e+00 -4.977700000000000180e-02 7.755847900000000550e+01
7.983220000000000205e+00 -4.949300000000000227e-02 7.763324699999999723e+01
8.787964000000000553e+00 -4.911299999999999694e-02 7.778790300000000002e+01
9.266733999999999583e+00 -4.865799999999999986e-02 7.790262599999999793e+01
1.150870300000000057e+01 -4.725300000000000333e-02 7.836795800000000156e+01
1.166627300000000034e+01 -4.701600000000000223e-02 7.841436799999999607e+01
1.262940700000000049e+01 -4.667299999999999921e-02 7.858836399999999855e+01
1.295278599999999969e+01 -4.670699999999999852e-02 7.863207199999999375e+01
1.358955199999999941e+01 -4.621999999999999720e-02 7.877295700000000522e+01
1.407321600000000039e+01 -4.621900000000000314e-02 7.884335299999999336e+01
1.519776099999999985e+01 -4.603999999999999759e-02 7.902455100000000243e+01
1.536434900000000070e+01 -4.634800000000000031e-02 7.901814299999999491e+01
1.607234800000000163e+01 -4.985699999999999854e-02 7.877262100000000089e+01
1.625525499999999823e+01 -5.104899999999999716e-02 7.868086200000000474e+01
1.660162000000000049e+01 -5.236199999999999882e-02 7.860076100000000565e+01
1.755056599999999989e+01 -5.143299999999999955e-02 7.883093300000000170e+01
1.771268799999999999e+01 -5.149700000000000111e-02 7.884815999999999292e+01
1.852731899999999854e+01 -5.204099999999999698e-02 7.891247599999999807e+01
1.901595299999999966e+01 -5.236899999999999888e-02 7.895096599999999398e+01
2.044855300000000042e+01 -5.168199999999999877e-02 7.922734800000000632e+01
2.093356100000000097e+01 -5.186099999999999738e-02 7.928004500000000121e+01
2.141812900000000042e+01 -5.202600000000000280e-02 7.933407599999999604e+01
2.174042299999999983e+01 -5.210299999999999654e-02 7.937327600000000416e+01
2.239455200000000090e+01 -5.274399999999999922e-02 7.940467800000000409e+01
2.271540800000000004e+01 -5.275900000000000034e-02 7.944981400000000349e+01
2.336334199999999939e+01 -5.310900000000000343e-02 7.950928500000000554e+01
2.384624700000000175e+01 -5.322999999999999954e-02 7.956744399999999473e+01
2.498713499999999854e+01 -5.422400000000000136e-02 7.963452100000000655e+01
-1.448819800000000058e+01 -2.891230000000000189e-01 6.758906600000000253e+01
-1.416282600000000080e+01 -2.877449999999999730e-01 6.776457999999999515e+01
-1.269038499999999914e+01 -2.828620000000000023e-01 6.843052699999999788e+01
-1.042854999999999954e+01 -2.735859999999999959e-01 6.962159699999999418e+01
-9.615282999999999802e+00 -2.711850000000000094e-01 6.996142600000000300e+01
-8.548178000000000054e+00 -2.613679999999999892e-01 7.103853599999999346e+01
-8.410548999999999609e+00 -2.586350000000000038e-01 7.131639099999999587e+01
-7.992930999999999564e+00 -2.510220000000000229e-01 7.209511600000000442e+01
-6.096794000000000047e+00 -2.424250000000000016e-01 7.317135600000000295e+01
-5.937438000000000216e+00 -2.418760000000000077e-01 7.324535400000000607e+01
-4.817904999999999660e+00 -2.385519999999999863e-01 7.371482799999999713e+01
-1.130597000000000074e+00 -2.300999999999999990e-01 7.502499400000000662e+01
3.108279999999999932e-01 -2.272939999999999960e-01 7.548995999999999640e+01
6.307749999999999746e-01 -2.266849999999999976e-01 7.559188799999999731e+01
9.486200000000000188e-01 -2.259319999999999939e-01 7.570706199999999342e+01
2.543445000000000178e+00 -2.228239999999999943e-01 7.622190100000000257e+01
7.343506999999999785e+00 -2.165330000000000032e-01 7.748113299999999981e+01
1.006583200000000033e+01 -2.141530000000000100e-01 7.808284799999999848e+01
1.054697900000000033e+01 -2.138450000000000073e-01 7.817855099999999879e+01
1.965491499999999903e+01 -2.177840000000000054e-01 7.906452899999999318e+01
-1.759554500000000132e+01 -4.745300000000000074e-01 6.590855399999999520e+01
1.342709400000000031e+01 -3.777449999999999974e-01 7.875665300000000002e+01
-1.759348699999999965e+01 -6.470179999999999820e-01 6.588365899999999442e+01
-1.742898900000000140e+01 -6.462569999999999704e-01 6.597030599999999367e+01
-1.693697399999999931e+01 -6.438469999999999471e-01 6.624111899999999764e+01
-1.644520599999999888e+01 -6.415079999999999671e-01 6.650575999999999510e+01
-1.628041299999999936e+01 -6.408620000000000427e-01 6.658246599999999660e+01
-1.578509999999999991e+01 -6.391010000000000302e-01 6.679746199999999590e+01
-1.513174099999999989e+01 -6.360000000000000098e-01 6.714849900000000105e+01
-1.448385900000000071e+01 -6.323999999999999622e-01 6.754208400000000267e+01
-1.399402599999999985e+01 -6.302900000000000169e-01 6.778659100000000137e+01
-1.333810700000000082e+01 -6.279379999999999962e-01 6.807300600000000657e+01
-1.268465600000000038e+01 -6.254319999999999879e-01 6.837251999999999441e+01
-1.219759299999999946e+01 -6.232959999999999612e-01 6.861896500000000287e+01
-1.154959000000000024e+01 -6.204159999999999675e-01 6.895018799999999715e+01
-1.138910699999999920e+01 -6.195500000000000451e-01 6.904544799999999327e+01
-1.090632599999999996e+01 -6.171579999999999844e-01 6.931347700000000600e+01
-1.042428300000000085e+01 -6.147719999999999851e-01 6.958097100000000523e+01
-1.026320399999999999e+01 -6.140379999999999727e-01 6.966484800000000632e+01
-9.613320999999999117e+00 -6.117780000000000440e-01 6.994258899999999812e+01
-9.130012999999999934e+00 -6.097289999999999655e-01 7.018100699999999392e+01
1.709040600000000154e+01 -5.501719999999999944e-01 7.864337899999999593e+01
-1.513008400000000009e+01 -8.078100000000000280e-01 6.712993600000000072e+01
-1.268217199999999956e+01 -7.967159999999999798e-01 6.834726000000000568e+01
-9.127696000000000254e+00 -7.800669999999999549e-01 7.015982800000000452e+01
-8.971306999999999476e+00 -7.788500000000000423e-01 7.027983899999999551e+01
-8.527991000000000099e+00 -7.725130000000000052e-01 7.086018400000000383e+01
-8.105119999999999436e+00 -7.641980000000000439e-01 7.160260800000000359e+01
-7.817203000000000124e+00 -7.594070000000000542e-01 7.203565999999999292e+01
-7.202102000000000004e+00 -7.541259999999999630e-01 7.254891200000000140e+01
-6.880574000000000190e+00 -7.529879999999999907e-01 7.268221300000000440e+01
-6.557063000000000308e+00 -7.520780000000000243e-01 7.279684399999999300e+01
-6.072574999999999612e+00 -7.506779999999999564e-01 7.297166400000000408e+01
-5.437775000000000247e+00 -7.477869999999999795e-01 7.328847500000000537e+01
-4.796749000000000152e+00 -7.456209999999999782e-01 7.354582200000000114e+01
-4.150888000000000133e+00 -7.440130000000000354e-01 7.375731700000000046e+01
-3.830299999999999816e+00 -7.430160000000000098e-01 7.387879200000000424e+01
-3.512084999999999901e+00 -7.418190000000000062e-01 7.401669300000000362e+01
-3.035512000000000210e+00 -7.399999999999999911e-01 7.422534199999999771e+01
-2.395159000000000038e+00 -7.381140000000000478e-01 7.445930500000000052e+01
-1.751117999999999952e+00 -7.366439999999999655e-01 7.465905800000000170e+01
-1.105733999999999995e+00 -7.353650000000000464e-01 7.484317799999999465e+01
-4.697959999999999914e-01 -7.333180000000000254e-01 7.508995099999999923e+01
1.320400000000000046e-02 -7.323650000000000437e-01 7.522738599999999565e+01
6.496429999999999705e-01 -7.304990000000000094e-01 7.545920599999999467e+01
1.283419000000000088e+00 -7.284840000000000204e-01 7.570307900000000245e+01
1.923238000000000003e+00 -7.270550000000000068e-01 7.589900199999999586e+01
2.558410999999999991e+00 -7.253049999999999775e-01 7.612097199999999475e+01
3.199847999999999804e+00 -7.241370000000000307e-01 7.629534099999999341e+01
3.684197999999999862e+00 -7.235620000000000385e-01 7.640150500000000022e+01
4.322867999999999711e+00 -7.222659999999999636e-01 7.658621999999999730e+01
4.958406000000000091e+00 -7.207799999999999763e-01 7.678630800000000534e+01
5.602273000000000280e+00 -7.200029999999999486e-01 7.692842899999999418e+01
6.238367000000000218e+00 -7.186719999999999775e-01 7.711570000000000391e+01
6.718081999999999887e+00 -7.179119999999999946e-01 7.723665599999999642e+01
7.359759999999999636e+00 -7.170959999999999557e-01 7.738180499999999995e+01
7.835047999999999568e+00 -7.160670000000000091e-01 7.752466599999999630e+01
7.994805000000000383e+00 -7.158290000000000486e-01 7.756364399999999648e+01
8.639549000000000589e+00 -7.153279999999999639e-01 7.768295299999999770e+01
9.278622999999999621e+00 -7.144490000000000007e-01 7.783299300000000187e+01
9.914680000000000604e+00 -7.133960000000000301e-01 7.799716200000000299e+01
1.039735600000000026e+01 -7.130379999999999496e-01 7.808503699999999981e+01
1.071724099999999957e+01 -7.126759999999999762e-01 7.815373200000000509e+01
1.103443599999999947e+01 -7.121330000000000160e-01 7.823708299999999838e+01
1.167768099999999976e+01 -7.116989999999999705e-01 7.835062399999999627e+01
1.232395600000000080e+01 -7.115050000000000541e-01 7.844453400000000443e+01
1.296097400000000022e+01 -7.107059999999999489e-01 7.858775300000000641e+01
1.343210200000000043e+01 -7.096810000000000063e-01 7.872965999999999553e+01
1.408139500000000055e+01 -7.097750000000000448e-01 7.880002600000000257e+01
1.471478800000000042e+01 -7.088339999999999641e-01 7.895462799999999959e+01
1.537084100000000042e+01 -7.094200000000000506e-01 7.898486300000000426e+01
1.590343700000000027e+01 -7.125089999999999479e-01 7.879210700000000145e+01
1.608835399999999893e+01 -7.140109999999999513e-01 7.868945300000000032e+01
1.661452099999999987e+01 -7.166360000000000507e-01 7.853457600000000127e+01
1.709639200000000159e+01 -7.163950000000000040e-01 7.861260199999999543e+01
1.756861900000000176e+01 -7.155569999999999986e-01 7.873922000000000310e+01
1.773097399999999979e+01 -7.155960000000000099e-01 7.875550099999999532e+01
1.838126000000000104e+01 -7.158179999999999543e-01 7.881532300000000646e+01
1.902943199999999990e+01 -7.159250000000000336e-01 7.888453699999999458e+01
1.967213100000000026e+01 -7.157109999999999861e-01 7.897969100000000253e+01
2.015026900000000154e+01 -7.153279999999999639e-01 7.906908400000000370e+01
2.079272299999999873e+01 -7.151429999999999731e-01 7.916190299999999525e+01
2.143317400000000106e+01 -7.148590000000000222e-01 7.926261100000000681e+01
2.207719799999999921e+01 -7.148120000000000029e-01 7.934409300000000087e+01
2.273526999999999987e+01 -7.156120000000000259e-01 7.935678099999999802e+01
2.322286599999999979e+01 -7.158660000000000023e-01 7.939437100000000669e+01
2.386728300000000047e+01 -7.158839999999999648e-01 7.947047399999999584e+01
2.452436099999999897e+01 -7.166479999999999517e-01 7.948606900000000053e+01
-1.398731899999999939e+01 -9.737200000000000299e-01 6.771608700000000169e+01
-7.794993999999999978e+00 -9.309990000000000210e-01 7.184468099999999424e+01
-6.697358000000000366e+00 -9.236269999999999758e-01 7.256050899999999615e+01
-5.413242999999999583e+00 -9.188539999999999486e-01 7.309011800000000392e+01
-3.645985000000000031e+00 -9.131150000000000100e-01 7.375272400000000061e+01
-2.210675999999999863e+00 -9.079139999999999988e-01 7.433396899999999619e+01
-6.072999999999999510e-01 -9.034750000000000281e-01 7.487371799999999666e+01
1.467789999999999928e+00 -8.975849999999999662e-01 7.558395400000000564e+01
3.061570000000000125e+00 -8.933699999999999974e-01 7.610471300000000383e+01
3.707103000000000037e+00 -8.924779999999999935e-01 7.625051899999999705e+01
5.621801999999999744e+00 -8.883100000000000440e-01 7.680454299999999535e+01
8.013080000000000425e+00 -8.836500000000000465e-01 7.745293399999999906e+01
1.344527800000000006e+01 -8.764239999999999808e-01 7.865731800000000362e+01
1.409628999999999976e+01 -8.765910000000000091e-01 7.871910099999999488e+01
1.774308800000000019e+01 -8.821780000000000177e-01 7.869346600000000080e+01
2.224758900000000139e+01 -8.808500000000000218e-01 7.931948900000000435e+01
2.274136700000000033e+01 -8.814549999999999885e-01 7.932810999999999524e+01
-8.506525999999999144e+00 -1.114498999999999906e+00 7.067111199999999371e+01
-6.016160000000000174e+00 -1.094198999999999922e+00 7.250826299999999947e+01
-2.976186999999999916e+00 -1.082136999999999905e+00 7.377270500000000197e+01
-1.693310000000000093e+00 -1.078027999999999986e+00 7.423081999999999425e+01
-1.052642000000000078e+00 -1.076030000000000042e+00 7.445548999999999751e+01
6.632799999999999807e-02 -1.072524999999999951e+00 7.484896100000000274e+01
1.979908999999999919e+00 -1.066665999999999892e+00 7.551159699999999475e+01
4.377672999999999703e+00 -1.060783999999999949e+00 7.622955299999999568e+01
6.287117000000000289e+00 -1.055984999999999951e+00 7.681020399999999881e+01
8.686099000000000458e+00 -1.051717000000000013e+00 7.740418200000000581e+01
1.123670399999999958e+01 -1.047271000000000063e+00 7.802872499999999434e+01
1.575567400000000085e+01 -1.045069999999999943e+00 7.869855499999999893e+01
-1.758426700000000054e+01 -1.337385000000000046e+00 6.577267500000000666e+01
-1.709257900000000063e+01 -1.334321000000000090e+00 6.605212400000000628e+01
-1.676410100000000014e+01 -1.332453000000000110e+00 6.622558600000000695e+01
-1.643364700000000056e+01 -1.330934999999999979e+00 6.637332899999999825e+01
-1.610436100000000081e+01 -1.329285000000000050e+00 6.653065499999999588e+01
-1.561427499999999924e+01 -1.326330999999999927e+00 6.680181899999999473e+01
-1.512413199999999946e+01 -1.323501000000000039e+00 6.706381199999999865e+01
-1.479934100000000008e+01 -1.321393000000000040e+00 6.725465400000000216e+01
-1.447444999999999915e+01 -1.319352000000000080e+00 6.744051399999999319e+01
-1.398149500000000067e+01 -1.317171000000000092e+00 6.765464799999999457e+01
-1.365258399999999916e+01 -1.315803999999999974e+00 6.779101599999999905e+01
-1.316431399999999918e+01 -1.313126999999999933e+00 6.804145099999999502e+01
-1.267731500000000011e+01 -1.310378000000000043e+00 6.829707299999999748e+01
-1.235309200000000018e+01 -1.308542000000000094e+00 6.846770499999999515e+01
-1.202949699999999922e+01 -1.306667000000000023e+00 6.864112900000000650e+01
-1.154340200000000038e+01 -1.304029000000000105e+00 6.888841999999999643e+01
-1.138203999999999994e+01 -1.303083999999999909e+00 6.897566199999999981e+01
-1.073442599999999914e+01 -1.299687999999999954e+00 6.929637099999999350e+01
-1.025030300000000061e+01 -1.297045000000000003e+00 6.954382300000000328e+01
-9.926026000000000238e+00 -1.295522999999999980e+00 6.969114700000000084e+01
-9.600962000000000884e+00 -1.294133999999999896e+00 6.982870499999999936e+01
-9.118057000000000301e+00 -1.291541999999999968e+00 7.007230400000000259e+01
-8.802220999999999407e+00 -1.289125000000000076e+00 7.028506500000000301e+01
-8.341753000000000640e+00 -1.284010000000000096e+00 7.071324199999999394e+01
-8.038482999999999379e+00 -1.280243999999999938e+00 7.102470399999999984e+01
-7.886349000000000053e+00 -1.278445999999999971e+00 7.117416400000000465e+01
-7.580445000000000100e+00 -1.275091999999999892e+00 7.145533000000000357e+01
-7.110439999999999650e+00 -1.271465000000000067e+00 7.177423899999999435e+01
-6.626557000000000031e+00 -1.269524000000000097e+00 7.196960400000000391e+01
-6.301484000000000307e+00 -1.268548000000000009e+00 7.207662200000000041e+01
-5.816949000000000147e+00 -1.266782999999999992e+00 7.225900300000000698e+01
-5.338462999999999958e+00 -1.264410999999999952e+00 7.248580200000000673e+01
-5.018817000000000306e+00 -1.262942000000000009e+00 7.262875400000000070e+01
-4.696254999999999846e+00 -1.261819999999999942e+00 7.274626899999999807e+01
-4.212800999999999796e+00 -1.260140999999999956e+00 7.292215000000000202e+01
-3.253420999999999896e+00 -1.256156999999999968e+00 7.331961099999999476e+01
-2.935986999999999902e+00 -1.254637999999999920e+00 7.346606400000000292e+01
-2.135720000000000063e+00 -1.251651000000000069e+00 7.377266699999999844e+01
-1.814421999999999979e+00 -1.250620000000000065e+00 7.388328599999999824e+01
-1.015946999999999933e+00 -1.247662000000000049e+00 7.418758400000000108e+01
-5.379829999999999890e-01 -1.245846999999999927e+00 7.437300100000000214e+01
-5.630399999999999988e-02 -1.244448999999999916e+00 7.452792399999999873e+01
2.643099999999999894e-01 -1.243492000000000042e+00 7.463295700000000465e+01
7.423999999999999488e-01 -1.241822999999999899e+00 7.480762500000000159e+01
1.541954999999999965e+00 -1.239406999999999925e+00 7.507181500000000085e+01
1.862185999999999897e+00 -1.238513999999999893e+00 7.517215000000000202e+01
2.816027000000000058e+00 -1.235311000000000048e+00 7.551113100000000600e+01
3.134266999999999914e+00 -1.234310999999999936e+00 7.561915600000000381e+01
3.618787999999999894e+00 -1.233495999999999926e+00 7.573114800000000457e+01
3.939074000000000186e+00 -1.232723000000000013e+00 7.582250200000000007e+01
4.416248999999999647e+00 -1.231305000000000094e+00 7.597847699999999804e+01
5.053694000000000131e+00 -1.229583000000000093e+00 7.617398099999999772e+01
5.528392000000000195e+00 -1.228040000000000020e+00 7.633890499999999690e+01
6.323663999999999952e+00 -1.225913999999999948e+00 7.658112300000000516e+01
6.799901000000000195e+00 -1.224609000000000059e+00 7.672859200000000612e+01
7.758212000000000330e+00 -1.222596999999999934e+00 7.697980499999999893e+01
8.077349999999999142e+00 -1.221927999999999903e+00 7.706331600000000037e+01
8.720395999999999148e+00 -1.221025999999999945e+00 7.719870000000000232e+01
9.197124999999999773e+00 -1.219924000000000008e+00 7.733113099999999918e+01
9.355501000000000289e+00 -1.219519999999999937e+00 7.737791400000000408e+01
1.174965899999999941e+01 -1.215343000000000062e+00 7.794249000000000649e+01
1.255348599999999948e+01 -1.214539000000000035e+00 7.808768499999999335e+01
1.478448700000000038e+01 -1.211109999999999909e+00 7.857942199999999389e+01
1.840864200000000039e+01 -1.215001999999999915e+00 7.867682600000000548e+01
2.324624100000000126e+01 -1.213748000000000049e+00 7.928484299999999507e+01
-7.231899000000000299e+00 -1.446241000000000110e+00 7.137007900000000404e+01
-5.780077000000000353e+00 -1.440110000000000001e+00 7.195744299999999782e+01
-4.818004000000000175e+00 -1.435693000000000108e+00 7.237203999999999837e+01
-4.173290999999999862e+00 -1.433268999999999904e+00 7.261148099999999772e+01
-3.533183999999999880e+00 -1.430444000000000049e+00 7.287918100000000265e+01
-2.896952999999999889e+00 -1.427313999999999972e+00 7.316830400000000623e+01
-1.775301000000000018e+00 -1.422990999999999895e+00 7.359246799999999666e+01
3.021159999999999957e-01 -1.415173000000000014e+00 7.436462400000000628e+01
1.260898000000000074e+00 -1.411890000000000089e+00 7.469772299999999632e+01
1.902565000000000062e+00 -1.410049000000000108e+00 7.489519500000000107e+01
3.977793000000000134e+00 -1.403615999999999975e+00 7.556805400000000361e+01
5.565402999999999878e+00 -1.398408000000000095e+00 7.610328699999999458e+01
7.477320999999999884e+00 -1.393356999999999957e+00 7.666057600000000605e+01
7.954449999999999577e+00 -1.392109000000000041e+00 7.679869800000000168e+01
1.002575000000000038e+01 -1.387408999999999892e+00 7.734719800000000589e+01
1.050506400000000085e+01 -1.386516000000000082e+00 7.746018999999999721e+01
1.082632000000000083e+01 -1.386077000000000004e+00 7.752452099999999291e+01
1.114878599999999942e+01 -1.385747000000000062e+00 7.758114600000000394e+01
1.162724299999999999e+01 -1.384845000000000104e+00 7.769471699999999714e+01
1.242544200000000032e+01 -1.383463000000000109e+00 7.787538899999999842e+01
1.290905300000000011e+01 -1.383040000000000047e+00 7.795520000000000493e+01
1.370178399999999996e+01 -1.381337000000000037e+00 7.815829499999999541e+01
1.418044800000000016e+01 -1.380587000000000009e+00 7.826097900000000607e+01
1.482178399999999918e+01 -1.379863999999999979e+00 7.837844099999999514e+01
1.530873700000000071e+01 -1.379798999999999998e+00 7.843299100000000124e+01
1.614763800000000060e+01 -1.381775999999999893e+00 7.837750200000000689e+01
1.663923600000000036e+01 -1.382077000000000000e+00 7.840640999999999394e+01
1.729112599999999844e+01 -1.382222999999999979e+00 7.846274599999999566e+01
1.777755900000000011e+01 -1.382161999999999891e+00 7.851698299999999620e+01
1.857619299999999996e+01 -1.381208999999999909e+00 7.866699199999999337e+01
1.906002000000000152e+01 -1.380997999999999948e+00 7.873167399999999816e+01
1.970012499999999989e+01 -1.380381000000000080e+00 7.884136200000000372e+01
2.018452500000000072e+01 -1.380246000000000084e+00 7.890070299999999293e+01
2.097671700000000072e+01 -1.378988000000000103e+00 7.907188399999999717e+01
2.146181500000000142e+01 -1.378941999999999890e+00 7.912490800000000490e+01
2.226686899999999980e+01 -1.378652999999999906e+00 7.922808100000000309e+01
2.259563100000000091e+01 -1.379008000000000012e+00 7.923632000000000630e+01
2.341696200000000161e+01 -1.379864999999999897e+00 7.925920899999999847e+01
2.389818800000000110e+01 -1.379606000000000110e+00 7.932707200000000114e+01
2.422341199999999972e+01 -1.379734999999999934e+00 7.935112800000000277e+01
2.471314399999999978e+01 -1.380061999999999900e+00 7.937793000000000632e+01
-7.835796000000000205e+00 -1.624027000000000109e+00 7.073773199999999406e+01
-6.555657000000000068e+00 -1.616594000000000086e+00 7.137786900000000401e+01
-5.429070000000000285e+00 -1.611347000000000085e+00 7.185184499999999730e+01
-2.062408000000000019e+00 -1.596308999999999978e+00 7.322367099999999596e+01
-1.108027000000000095e+00 -1.591763000000000039e+00 7.363216400000000306e+01
6.546520000000000117e-01 -1.585415000000000019e+00 7.424501800000000173e+01
2.573589999999999822e+00 -1.578845000000000054e+00 7.488861799999999391e+01
4.327176999999999829e+00 -1.572940999999999923e+00 7.546986400000000117e+01
6.234871000000000052e+00 -1.566672999999999982e+00 7.609152199999999766e+01
6.871242999999999768e+00 -1.564775000000000027e+00 7.628550699999999551e+01
8.784402000000000044e+00 -1.559844000000000008e+00 7.681525399999999593e+01
1.102334600000000009e+01 -1.555350999999999928e+00 7.734695399999999665e+01
1.166071999999999953e+01 -1.553986000000000089e+00 7.750425699999999551e+01
1.373663499999999971e+01 -1.550256999999999996e+00 7.796696500000000185e+01
1.405379600000000018e+01 -1.549547999999999925e+00 7.804729500000000542e+01
1.906691000000000003e+01 -1.547306999999999988e+00 7.869728100000000381e+01
2.472194299999999956e+01 -1.546124000000000054e+00 7.933751700000000540e+01
-1.757696899999999829e+01 -1.855528999999999984e+00 6.568502800000000263e+01
-1.708327699999999894e+01 -1.852370000000000072e+00 6.594332900000000564e+01
-1.642753400000000141e+01 -1.847933999999999966e+00 6.630233800000000599e+01
-1.593721299999999985e+01 -1.844516000000000044e+00 6.657762900000000172e+01
-1.577320300000000053e+01 -1.843498999999999999e+00 6.666123199999999827e+01
-1.511376600000000003e+01 -1.840108000000000077e+00 6.695078999999999780e+01
-1.462588700000000053e+01 -1.836624999999999952e+00 6.723013299999999504e+01
-1.397174900000000086e+01 -1.832740999999999953e+00 6.755212400000000628e+01
-4.601429000000000435e+00 -1.779692000000000052e+00 7.199175999999999931e+01
-3.640858000000000150e+00 -1.774866999999999972e+00 7.240591399999999567e+01
-1.719562000000000035e+00 -1.766056000000000070e+00 7.317803200000000174e+01
-6.064450000000000118e-01 -1.760539999999999994e+00 7.365293900000000349e+01
1.479878000000000027e+00 -1.753209000000000017e+00 7.434181200000000445e+01
3.073364999999999903e+00 -1.747023999999999910e+00 7.490715799999999547e+01
5.302851000000000425e+00 -1.739138000000000073e+00 7.564687299999999937e+01
7.374572999999999823e+00 -1.732806000000000068e+00 7.626756299999999555e+01
9.288059000000000509e+00 -1.727702000000000071e+00 7.679116799999999898e+01
1.520939500000000066e+01 -1.716901000000000010e+00 7.807744599999999480e+01
1.536872400000000027e+01 -1.716604999999999936e+00 7.811242699999999672e+01
-1.331276800000000016e+01 -2.001062000000000118e+00 6.781177499999999725e+01
-1.266211799999999954e+01 -1.996852000000000071e+00 6.814419599999999377e+01
-1.217661999999999978e+01 -1.993448000000000109e+00 6.840928599999999449e+01
-1.152751800000000060e+01 -1.989352000000000009e+00 6.873419199999999307e+01
-1.104117500000000085e+01 -1.986331999999999987e+00 6.897444900000000700e+01
-1.087861299999999964e+01 -1.985414000000000012e+00 6.904885899999999310e+01
-1.023092199999999963e+01 -1.981478999999999990e+00 6.936321300000000178e+01
-9.746819000000000344e+00 -1.978407000000000027e+00 6.960665899999999340e+01
-9.096202999999999150e+00 -1.975181999999999993e+00 6.987535099999999488e+01
-8.454083000000000681e+00 -1.970938999999999997e+00 7.020912199999999359e+01
-7.809503999999999557e+00 -1.967203999999999953e+00 7.051030000000000086e+01
-7.001418000000000141e+00 -1.963063999999999920e+00 7.085266099999999767e+01
-6.679357999999999684e+00 -1.961316999999999977e+00 7.099545299999999770e+01
-6.039991999999999805e+00 -1.957317999999999891e+00 7.131315600000000643e+01
-5.718113999999999919e+00 -1.955659000000000036e+00 7.145022600000000068e+01
-5.394735999999999976e+00 -1.954223000000000043e+00 7.157292200000000548e+01
-4.748460999999999821e+00 -1.951383000000000090e+00 7.181629900000000077e+01
-4.266287000000000162e+00 -1.949017999999999917e+00 7.201378599999999608e+01
-4.106268000000000029e+00 -1.948158999999999974e+00 7.208412900000000434e+01
-3.628293000000000212e+00 -1.945378999999999969e+00 7.230807500000000232e+01
-2.990301000000000098e+00 -1.941877999999999993e+00 7.259344500000000266e+01
-2.829495999999999789e+00 -1.941178999999999988e+00 7.265347300000000530e+01
-2.344573000000000018e+00 -1.939421000000000062e+00 7.281194299999999942e+01
-1.704159999999999897e+00 -1.936447000000000029e+00 7.306344599999999900e+01
-1.227942000000000089e+00 -1.933820000000000094e+00 7.327731300000000658e+01
-1.069094999999999906e+00 -1.932973000000000052e+00 7.334677899999999795e+01
-5.906890000000000196e-01 -1.930689000000000100e+00 7.353865799999999808e+01
5.158299999999999691e-02 -1.928234000000000004e+00 7.375671400000000233e+01
3.728859999999999952e-01 -1.927060999999999913e+00 7.386223599999999578e+01
6.952169999999999739e-01 -1.926023999999999958e+00 7.395902999999999849e+01
1.336092999999999975e+00 -1.923600999999999894e+00 7.417489600000000394e+01
1.976210000000000022e+00 -1.921186999999999978e+00 7.439004500000000064e+01
2.295792000000000055e+00 -1.919964000000000004e+00 7.449867199999999912e+01
2.455102999999999813e+00 -1.919308999999999932e+00 7.455569500000000005e+01
3.089058000000000082e+00 -1.916406000000000054e+00 7.480200999999999567e+01
3.733089000000000102e+00 -1.914646000000000070e+00 7.497518200000000377e+01
4.051957999999999949e+00 -1.913469000000000086e+00 7.508073400000000674e+01
4.368248999999999604e+00 -1.912050000000000027e+00 7.520174400000000503e+01
5.001278000000000112e+00 -1.909327999999999914e+00 7.543621799999999666e+01
5.638228999999999935e+00 -1.907089000000000034e+00 7.563976300000000208e+01
5.797763999999999918e+00 -1.906571999999999933e+00 7.568795799999999474e+01
6.117280000000000051e+00 -1.905594999999999928e+00 7.578060899999999833e+01
6.757816000000000045e+00 -1.903840999999999894e+00 7.595307200000000591e+01
7.391469999999999985e+00 -1.901488999999999985e+00 7.616365100000000155e+01
7.865714999999999790e+00 -1.899682000000000093e+00 7.632429500000000644e+01
8.024292000000000868e+00 -1.899137000000000075e+00 7.637417600000000562e+01
8.663311999999999458e+00 -1.897447000000000106e+00 7.654235799999999301e+01
9.305619000000000085e+00 -1.896125999999999978e+00 7.668698899999999696e+01
9.943913000000000224e+00 -1.894489000000000090e+00 7.685176099999999622e+01
1.026413800000000087e+01 -1.893791000000000002e+00 7.692639900000000353e+01
1.042541100000000043e+01 -1.893553000000000042e+00 7.695662699999999745e+01
1.107313300000000034e+01 -1.892867000000000077e+00 7.706062300000000675e+01
1.171046899999999980e+01 -1.891291000000000055e+00 7.722135199999999600e+01
1.234495500000000057e+01 -1.889518000000000031e+00 7.739450100000000532e+01
1.282499100000000070e+01 -1.888594000000000106e+00 7.749849700000000041e+01
1.298518400000000028e+01 -1.888308000000000098e+00 7.753176899999999705e+01
1.346396299999999968e+01 -1.887310000000000043e+00 7.764040400000000375e+01
1.409978100000000012e+01 -1.885804000000000036e+00 7.779641700000000526e+01
1.474855499999999964e+01 -1.885451999999999906e+00 7.787891399999999464e+01
1.538730499999999957e+01 -1.884284000000000070e+00 7.801326000000000249e+01
1.602693899999999871e+01 -1.883234999999999992e+00 7.814004500000000064e+01
1.650912299999999888e+01 -1.882678999999999991e+00 7.822042799999999829e+01
1.715732600000000119e+01 -1.882400999999999991e+00 7.829805799999999749e+01
1.780098699999999923e+01 -1.881780999999999926e+00 7.839742999999999995e+01
1.844141199999999969e+01 -1.880932999999999966e+00 7.851123800000000585e+01
1.892098199999999864e+01 -1.880262000000000100e+00 7.859884599999999466e+01
1.955991600000000119e+01 -1.879359000000000002e+00 7.871604200000000162e+01
1.971883199999999903e+01 -1.879075000000000051e+00 7.874905400000000100e+01
2.020504800000000145e+01 -1.878978000000000037e+00 7.880008700000000488e+01
2.085074399999999883e+01 -1.878667000000000087e+00 7.887963899999999740e+01
2.149551400000000001e+01 -1.878309999999999924e+00 7.896209699999999998e+01
2.198033900000000074e+01 -1.878152999999999961e+00 7.901682300000000225e+01
2.262763199999999841e+01 -1.878030000000000088e+00 7.908438099999999338e+01
2.328973200000000077e+01 -1.879034000000000093e+00 7.908029200000000003e+01
2.392904300000000006e+01 -1.878349999999999964e+00 7.918340299999999843e+01
2.441803900000000027e+01 -1.878557000000000032e+00 7.921498900000000276e+01
-8.448339999999999961e+00 -2.141833999999999794e+00 7.015830200000000616e+01
-7.153482000000000340e+00 -2.134974000000000149e+00 7.070397900000000391e+01
1.043984599999999929e+01 -2.061617000000000033e+00 7.687275699999999290e+01
1.603635999999999839e+01 -2.050145999999999802e+00 7.809047700000000702e+01
-1.707002999999999915e+01 -2.371490999999999794e+00 6.578983300000000156e+01
-1.576024100000000061e+01 -2.361391999999999936e+00 6.651753999999999678e+01
-1.330341100000000054e+01 -2.345181000000000182e+00 6.771609499999999571e+01
-1.086626000000000047e+01 -2.328659000000000034e+00 6.893191500000000360e+01
-1.207751000000000019e+00 -2.273391000000000162e+00 7.312863199999999608e+01
7.149349999999999872e-01 -2.264756000000000213e+00 7.381994600000000162e+01
4.389235000000000220e+00 -2.249505999999999784e+00 7.506480399999999520e+01
6.302406000000000397e+00 -2.242318000000000033e+00 7.566715200000000152e+01
8.047594000000000136e+00 -2.235497000000000067e+00 7.623270399999999825e+01
2.022669399999999840e+01 -2.212298999999999793e+00 7.869345099999999604e+01
-1.789284299999999917e+01 -2.550066000000000166e+00 6.534854900000000555e+01
-1.756368300000000104e+01 -2.547508999999999801e+00 6.552719100000000196e+01
-1.640975200000000100e+01 -2.539432999999999829e+00 6.610092199999999707e+01
-1.559038400000000024e+01 -2.533214000000000077e+00 6.653694900000000700e+01
-1.509895900000000069e+01 -2.529634000000000160e+00 6.678962699999999586e+01
-1.428569300000000020e+01 -2.522940000000000182e+00 6.725328100000000120e+01
-1.395480599999999960e+01 -2.521348999999999840e+00 6.737493899999999769e+01
-1.313525500000000079e+01 -2.516242999999999785e+00 6.774515499999999690e+01
-1.280860099999999946e+01 -2.514089999999999936e+00 6.789970399999999984e+01
-1.151142600000000016e+01 -2.504436999999999802e+00 6.857865099999999359e+01
-1.069731400000000043e+01 -2.499372000000000149e+00 6.894605300000000625e+01
-1.053512899999999952e+01 -2.498292000000000179e+00 6.902340700000000595e+01
-1.021403500000000086e+01 -2.495655000000000179e+00 6.920613899999999319e+01
-9.242558999999999969e+00 -2.489323000000000174e+00 6.966152999999999906e+01
-9.080038000000000054e+00 -2.488399999999999945e+00 6.972965200000000152e+01
-8.277870999999999313e+00 -2.482380000000000031e+00 7.015248099999999454e+01
-8.117191000000000045e+00 -2.481250000000000178e+00 7.023271900000000301e+01
-7.792558999999999791e+00 -2.479505000000000070e+00 7.036294599999999377e+01
-6.980112000000000094e+00 -2.475429999999999797e+00 7.067164599999999552e+01
-6.341078000000000436e+00 -2.470775999999999861e+00 7.100009900000000584e+01
-5.859439000000000064e+00 -2.467735999999999930e+00 7.122003899999999987e+01
-5.374438999999999744e+00 -2.465250000000000163e+00 7.140743299999999749e+01
-4.408005000000000173e+00 -2.460021999999999931e+00 7.179715699999999856e+01
-4.248021999999999743e+00 -2.459033999999999942e+00 7.186891900000000533e+01
-3.450315999999999939e+00 -2.453942000000000068e+00 7.223654200000000003e+01
-2.967814000000000174e+00 -2.451506999999999881e+00 7.242074599999999407e+01
-1.997611999999999943e+00 -2.447510999999999992e+00 7.273788500000000568e+01
-1.678446000000000105e+00 -2.445694000000000035e+00 7.287191799999999375e+01
-1.040438999999999892e+00 -2.442118999999999929e+00 7.313651299999999367e+01
2.479505000000000070e+00 -2.425882999999999790e+00 7.438999200000000656e+01
1.126824799999999982e+01 -2.395887000000000100e+00 7.689634700000000578e+01
1.349493700000000018e+01 -2.389323000000000086e+00 7.747007800000000088e+01
1.653849400000000003e+01 -2.383516999999999886e+00 7.806705499999999631e+01
-1.706284300000000087e+01 -2.717503999999999920e+00 6.570612300000000516e+01
-1.656912000000000162e+01 -2.713788999999999785e+00 6.595953400000000499e+01
-1.574899199999999944e+01 -2.707390999999999881e+00 6.639346299999999701e+01
-1.329233999999999938e+01 -2.689795999999999854e+00 6.760317999999999472e+01
-1.215286000000000044e+01 -2.681440999999999963e+00 6.817546099999999853e+01
-1.182977999999999952e+01 -2.678755999999999915e+00 6.835588099999999656e+01
-9.726110999999999507e+00 -2.663259000000000043e+00 6.941650400000000332e+01
-6.654539999999999900e+00 -2.643745000000000012e+00 7.078616300000000194e+01
-5.369316000000000422e+00 -2.635470000000000201e+00 7.136558499999999583e+01
-3.762084000000000206e+00 -2.626100999999999797e+00 7.203391999999999484e+01
-2.310671000000000141e+00 -2.619063999999999837e+00 7.255561099999999897e+01
-2.330540000000000112e-01 -2.607546000000000141e+00 7.338544500000000426e+01
4.042910000000000115e-01 -2.604028000000000009e+00 7.363909099999999341e+01
7.275040000000000395e-01 -2.602879000000000165e+00 7.373124699999999621e+01
1.212506000000000084e+00 -2.601220000000000088e+00 7.386579100000000153e+01
1.533064999999999900e+00 -2.599801999999999946e+00 7.397315999999999292e+01
1.851147000000000098e+00 -2.598110000000000142e+00 7.409610000000000696e+01
2.806802999999999937e+00 -2.593373999999999846e+00 7.444548799999999744e+01
3.127190000000000136e+00 -2.592067000000000121e+00 7.454653899999999567e+01
3.930778999999999801e+00 -2.589202999999999921e+00 7.477606199999999603e+01
4.403804000000000052e+00 -2.586497000000000046e+00 7.496978000000000009e+01
4.721319000000000266e+00 -2.584976999999999858e+00 7.508279400000000692e+01
5.361946999999999797e+00 -2.582644000000000162e+00 7.526860800000000040e+01
5.522823999999999955e+00 -2.582155000000000200e+00 7.530971499999999708e+01
6.324705999999999939e+00 -2.579499999999999904e+00 7.552711499999999489e+01
6.803467999999999627e+00 -2.577703000000000078e+00 7.566903700000000299e+01
7.277511999999999759e+00 -2.575438999999999812e+00 7.583747900000000186e+01
7.754979999999999762e+00 -2.573598000000000052e+00 7.598186499999999910e+01
8.072751000000000232e+00 -2.572337999999999791e+00 7.607994800000000168e+01
8.709742999999999569e+00 -2.570034000000000152e+00 7.626385500000000661e+01
8.869087999999999639e+00 -2.569478999999999846e+00 7.630856300000000658e+01
9.188022000000000133e+00 -2.568411000000000222e+00 7.639572099999999466e+01
1.014904499999999921e+01 -2.565749999999999975e+00 7.662628899999999987e+01
1.046846999999999994e+01 -2.564801000000000109e+00 7.670668000000000575e+01
1.127733399999999975e+01 -2.563540999999999848e+00 7.684439799999999821e+01
1.160140099999999919e+01 -2.563109999999999999e+00 7.689538600000000201e+01
1.192238799999999976e+01 -2.562380000000000102e+00 7.696327999999999747e+01
1.255148200000000003e+01 -2.559682000000000013e+00 7.716912100000000407e+01
1.286747500000000066e+01 -2.558505999999999947e+00 7.726223799999999642e+01
1.366647399999999912e+01 -2.556522000000000183e+00 7.744081099999999651e+01
1.415166900000000005e+01 -2.555933000000000010e+00 7.751389299999999594e+01
1.511032699999999984e+01 -2.553701999999999916e+00 7.771957399999999438e+01
1.527000400000000013e+01 -2.553332000000000157e+00 7.775373100000000193e+01
1.606718800000000158e+01 -2.551416999999999824e+00 7.792815400000000636e+01
1.655051599999999823e+01 -2.550774000000000097e+00 7.800419599999999321e+01
1.751589399999999941e+01 -2.549431999999999920e+00 7.815927100000000394e+01
1.783846700000000141e+01 -2.549075000000000202e+00 7.820584900000000061e+01
1.848355499999999907e+01 -2.548382000000000147e+00 7.829783600000000376e+01
1.896553600000000017e+01 -2.547718999999999845e+00 7.837485499999999661e+01
1.993114299999999872e+01 -2.546600000000000197e+00 7.851715900000000659e+01
2.025351300000000165e+01 -2.546288000000000107e+00 7.856112699999999904e+01
2.105630899999999883e+01 -2.545269999999999921e+00 7.868447100000000205e+01
2.138513899999999879e+01 -2.545545000000000169e+00 7.869527399999999773e+01
