4.670612500099999842e+00 -4.806336654070000236e+01 2.893286774540000010e+02 0.000000000000000000e+00 0.000000000000000000e+00 0.000000000000000000e+00
3.636807792499999969e+00 -4.810233845909999673e+01 2.923183051891999753e+02 0.000000000000000000e+00 0.000000000000000000e+00 0.000000000000000000e+00
3.639247689599999891e+00 -4.806090264790000077e+01 2.933132629843000245e+02 0.000000000000000000e+00 0.000000000000000000e+00 0.000000000000000000e+00
3.995618255300000143e+00 -5.171930402219999934e+01 2.854869242721999854e+02 0.000000000000000000e+00 0.000000000000000000e+00 0.000000000000000000e+00
4.167246012699999724e+00 -4.754964574670000133e+01 2.908142661681999925e+02 0.000000000000000000e+00 0.000000000000000000e+00 0.000000000000000000e+00
2.225597800800000137e+00 -4.603847543319999858e+01 2.987783900974000062e+02 0.000000000000000000e+00 0.000000000000000000e+00 0.000000000000000000e+00
3.586782457199999996e+00 -4.747097964639999645e+01 2.956590893229000017e+02 0.000000000000000000e+00 0.000000000000000000e+00 0.000000000000000000e+00
6.244826294800000177e+00 -4.679599770050000274e+01 2.903869902399999887e+02 0.000000000000000000e+00 0.000000000000000000e+00 0.000000000000000000e+00
4.127724495999999910e+00 -4.250577184899999850e+01 2.998093766642999753e+02 0.000000000000000000e+00 0.000000000000000000e+00 0.000000000000000000e+00
5.847824111799999613e+00 -4.680167458300000050e+01 2.908728992608999988e+02 0.000000000000000000e+00 0.000000000000000000e+00 0.000000000000000000e+00
4.200156633199999767e+00 -4.703348790790000322e+01 2.918302507591000108e+02 0.000000000000000000e+00 0.000000000000000000e+00 0.000000000000000000e+00
4.251030864499999673e+00 -4.668774240810000009e+01 2.923625607884000033e+02 0.000000000000000000e+00 0.000000000000000000e+00 0.000000000000000000e+00
3.831905156599999973e+00 -4.670146581409999698e+01 2.928614450573999761e+02 0.000000000000000000e+00 0.000000000000000000e+00 0.000000000000000000e+00
3.599095558000000139e+00 -4.657716555420000049e+01 2.958021307929000159e+02 0.000000000000000000e+00 0.000000000000000000e+00 0.000000000000000000e+00
4.688086531799999790e+00 -4.605437353050000127e+01 2.932718830969999999e+02 0.000000000000000000e+00 0.000000000000000000e+00 0.000000000000000000e+00
4.714329044800000368e+00 -3.975067899359999757e+01 3.034316576863000137e+02 0.000000000000000000e+00 0.000000000000000000e+00 0.000000000000000000e+00
6.278091941399999598e+00 -4.575662132219999734e+01 2.924401322792999736e+02 0.000000000000000000e+00 0.000000000000000000e+00 0.000000000000000000e+00
5.192762277099999935e+00 -4.555764854849999779e+01 2.938103861124999980e+02 0.000000000000000000e+00 0.000000000000000000e+00 0.000000000000000000e+00
3.672453783099999924e+00 -4.556830383300000165e+01 2.957904478768999752e+02 0.000000000000000000e+00 0.000000000000000000e+00 0.000000000000000000e+00
3.592905229599999917e+00 -4.557093436539999942e+01 2.968808064149000074e+02 0.000000000000000000e+00 0.000000000000000000e+00 0.000000000000000000e+00
5.670540374999999855e+00 -4.696154209659999879e+01 2.908501353625999855e+02 0.000000000000000000e+00 0.000000000000000000e+00 0.000000000000000000e+00
7.181747853000000070e-01 -3.927372932659999805e+01 3.049815712325000163e+02 0.000000000000000000e+00 0.000000000000000000e+00 0.000000000000000000e+00
4.107485871199999750e+00 -4.497152565620000075e+01 2.957522960413999726e+02 0.000000000000000000e+00 0.000000000000000000e+00 0.000000000000000000e+00
3.539558592100000123e+00 -4.483692391839999658e+01 3.005791444166999895e+02 0.000000000000000000e+00 0.000000000000000000e+00 0.000000000000000000e+00
5.343299836299999939e+00 -4.073976840360000296e+01 3.015201508834999800e+02 0.000000000000000000e+00 0.000000000000000000e+00 0.000000000000000000e+00
4.676622636000000277e+00 -4.461113561020000162e+01 2.958408884835000094e+02 0.000000000000000000e+00 0.000000000000000000e+00 0.000000000000000000e+00
3.421945412799999975e+00 -4.460740557980000176e+01 2.982672728288000030e+02 0.000000000000000000e+00 0.000000000000000000e+00 0.000000000000000000e+00
3.268017631799999823e+00 -4.460490532450000245e+01 3.008681517693000274e+02 0.000000000000000000e+00 0.000000000000000000e+00 0.000000000000000000e+00
-1.252612162599999968e+00 -4.455443292609999872e+01 2.971342929723999760e+02 0.000000000000000000e+00 0.000000000000000000e+00 0.000000000000000000e+00
-2.362375242500000194e+00 -4.320861168079999715e+01 2.979050490855000248e+02 0.000000000000000000e+00 0.000000000000000000e+00 0.000000000000000000e+00
4.164998920799999560e+00 -4.406798059460000161e+01 2.972749417320000020e+02 0.000000000000000000e+00 0.000000000000000000e+00 0.000000000000000000e+00
4.706665005899999699e+00 -3.907465708290000350e+01 3.042856559108000170e+02 0.000000000000000000e+00 0.000000000000000000e+00 0.000000000000000000e+00
4.544832407200000368e+00 -4.886902676670000290e+01 2.877311157729000115e+02 0.000000000000000000e+00 0.000000000000000000e+00 0.000000000000000000e+00
5.758325704199999784e+00 -4.319971202339999650e+01 2.974210777115000042e+02 0.000000000000000000e+00 0.000000000000000000e+00 0.000000000000000000e+00
3.797123147499999796e+00 -4.310963942589999931e+01 2.993326188290999994e+02 0.000000000000000000e+00 0.000000000000000000e+00 0.000000000000000000e+00
5.651067400799999696e+00 -4.146534158339999721e+01 3.002779442097000242e+02 0.000000000000000000e+00 0.000000000000000000e+00 0.000000000000000000e+00
4.670808248600000212e+00 -4.252404678620000311e+01 2.993311454463000132e+02 0.000000000000000000e+00 0.000000000000000000e+00 0.000000000000000000e+00
-1.639715026399999998e+00 -3.939937088330000137e+01 3.041526464076000025e+02 0.000000000000000000e+00 0.000000000000000000e+00 0.000000000000000000e+00
4.700885834000000152e+00 -4.216955004340000102e+01 2.998792484348999778e+02 0.000000000000000000e+00 0.000000000000000000e+00 0.000000000000000000e+00
3.553714379300000115e+00 -4.207262651900000350e+01 3.022919261066999752e+02 0.000000000000000000e+00 0.000000000000000000e+00 0.000000000000000000e+00
3.510786993199999984e+00 -4.209310178629999655e+01 3.028390361845000029e+02 0.000000000000000000e+00 0.000000000000000000e+00 0.000000000000000000e+00
3.208695506200000214e+00 -4.960467281719999733e+01 2.913296971930000154e+02 0.000000000000000000e+00 0.000000000000000000e+00 0.000000000000000000e+00
2.766507498799999798e+00 -4.041957420279999980e+01 3.032586913798999717e+02 0.000000000000000000e+00 0.000000000000000000e+00 0.000000000000000000e+00
5.827895655599999891e+00 -4.119893610369999948e+01 3.004736145320999867e+02 0.000000000000000000e+00 0.000000000000000000e+00 0.000000000000000000e+00
4.719659577499999870e+00 -4.570552748099999718e+01 2.938660516824999718e+02 0.000000000000000000e+00 0.000000000000000000e+00 0.000000000000000000e+00
4.776520081500000181e+00 -4.074232766160000097e+01 3.019883743830000071e+02 0.000000000000000000e+00 0.000000000000000000e+00 0.000000000000000000e+00
4.245716619200000430e+00 -4.071993443419999892e+01 3.023906833998000252e+02 0.000000000000000000e+00 0.000000000000000000e+00 0.000000000000000000e+00
-7.697556682999999733e-01 -4.754046296429999785e+01 2.923609825490000276e+02 0.000000000000000000e+00 0.000000000000000000e+00 0.000000000000000000e+00
6.224333924699999798e+00 -4.004939526460000110e+01 3.017714464160999910e+02 0.000000000000000000e+00 0.000000000000000000e+00 0.000000000000000000e+00
5.221013030700000002e+00 -4.006120632780000079e+01 3.027947324414000150e+02 0.000000000000000000e+00 0.000000000000000000e+00 0.000000000000000000e+00
5.737491450300000295e+00 -3.967114266509999965e+01 3.028482671576999792e+02 0.000000000000000000e+00 0.000000000000000000e+00 0.000000000000000000e+00
2.190669788000000062e-01 -5.363623389570000199e+01 2.818271474087999877e+02 0.000000000000000000e+00 0.000000000000000000e+00 0.000000000000000000e+00
2.335338885000000086e-01 -4.312417212860000149e+01 3.033302742826999747e+02 0.000000000000000000e+00 0.000000000000000000e+00 0.000000000000000000e+00
-2.759774066299999884e+00 -5.143938213820000271e+01 2.807667514277999885e+02 0.000000000000000000e+00 0.000000000000000000e+00 0.000000000000000000e+00
-6.658776725999999702e-01 -5.209154244869999673e+01 2.847959289223999804e+02 0.000000000000000000e+00 0.000000000000000000e+00 0.000000000000000000e+00
1.712585711000000011e+00 -5.260229345900000197e+01 2.858046781644000021e+02 0.000000000000000000e+00 0.000000000000000000e+00 0.000000000000000000e+00
6.074000254699999601e+00 -4.446651504929999987e+01 2.951755997402000276e+02 0.000000000000000000e+00 0.000000000000000000e+00 0.000000000000000000e+00
4.235662240799999978e+00 -4.821286712180000222e+01 2.893298220898000181e+02 0.000000000000000000e+00 0.000000000000000000e+00 0.000000000000000000e+00
1.731789562999999921e-01 -5.277542545120000028e+01 2.853790830871000139e+02 0.000000000000000000e+00 0.000000000000000000e+00 0.000000000000000000e+00
1.201364107300000095e+00 -4.602158338249999758e+01 2.987942787438000209e+02 0.000000000000000000e+00 0.000000000000000000e+00 0.000000000000000000e+00
-6.310958731000000377e-01 -5.196782314080000020e+01 2.858258442919000117e+02 0.000000000000000000e+00 0.000000000000000000e+00 0.000000000000000000e+00
-4.256925306000000075e-01 -4.671911401069999670e+01 2.968880448053999999e+02 0.000000000000000000e+00 0.000000000000000000e+00 0.000000000000000000e+00
3.684151200600000120e+00 -4.312310328809999760e+01 2.997977213674000154e+02 0.000000000000000000e+00 0.000000000000000000e+00 0.000000000000000000e+00
5.691538171600000418e+00 -4.651202452399999743e+01 2.917620508764999840e+02 0.000000000000000000e+00 0.000000000000000000e+00 0.000000000000000000e+00
-2.701286426699999854e+00 -4.445435909969999955e+01 2.956775998362999758e+02 0.000000000000000000e+00 0.000000000000000000e+00 0.000000000000000000e+00
-1.754171038299999985e+00 -4.296782595570000041e+01 2.987775866334999932e+02 0.000000000000000000e+00 0.000000000000000000e+00 0.000000000000000000e+00
2.150195749999999906e-01 -5.252023439109999714e+01 2.798272108886999945e+02 0.000000000000000000e+00 0.000000000000000000e+00 0.000000000000000000e+00
2.716069582999999898e+00 -5.296603295519999932e+01 2.787723700225000130e+02 0.000000000000000000e+00 0.000000000000000000e+00 0.000000000000000000e+00
6.171999563099999975e+00 -4.048870982479999725e+01 3.012532764123000106e+02 0.000000000000000000e+00 0.000000000000000000e+00 0.000000000000000000e+00
-2.793969648000000028e+00 -4.665336921669999981e+01 2.913450628347999896e+02 0.000000000000000000e+00 0.000000000000000000e+00 0.000000000000000000e+00
5.159818251099999920e+00 -4.889130796450000105e+01 2.871372381689999997e+02 0.000000000000000000e+00 0.000000000000000000e+00 0.000000000000000000e+00
5.807320856499999628e+00 -4.575164263780000340e+01 2.928516080590999877e+02 0.000000000000000000e+00 0.000000000000000000e+00 0.000000000000000000e+00
2.227169174600000190e+00 -4.725300468190000203e+01 2.964172641307999925e+02 0.000000000000000000e+00 0.000000000000000000e+00 0.000000000000000000e+00
-1.826981575300000049e+00 -4.120349376979999789e+01 3.014196945094000171e+02 0.000000000000000000e+00 0.000000000000000000e+00 0.000000000000000000e+00
5.145376398199999812e+00 -4.592977663380000308e+01 2.931962362800999813e+02 0.000000000000000000e+00 0.000000000000000000e+00 0.000000000000000000e+00
-1.306501541200000061e+00 -4.918418417480000215e+01 2.873237501529999918e+02 0.000000000000000000e+00 0.000000000000000000e+00 0.000000000000000000e+00
5.173347879999999677e+00 -4.973747885280000247e+01 2.853446957938999731e+02 0.000000000000000000e+00 0.000000000000000000e+00 0.000000000000000000e+00
-9.606751573999999794e-01 -4.572099878769999748e+01 2.949290519799000094e+02 0.000000000000000000e+00 0.000000000000000000e+00 0.000000000000000000e+00
3.066502668900000117e+00 -4.165267855839999811e+01 3.032530898653999998e+02 0.000000000000000000e+00 0.000000000000000000e+00 0.000000000000000000e+00
2.504049776000000227e-01 -4.735534605339999814e+01 2.961228875872999993e+02 0.000000000000000000e+00 0.000000000000000000e+00 0.000000000000000000e+00
6.264264036100000155e+00 -5.121626993259999949e+01 2.808724997113999962e+02 0.000000000000000000e+00 0.000000000000000000e+00 0.000000000000000000e+00
6.051835162499999754e+00 -4.300298840180000326e+01 2.977223654643000259e+02 0.000000000000000000e+00 0.000000000000000000e+00 0.000000000000000000e+00
3.931295607000000025e+00 -4.917612037220000332e+01 2.880181776640999942e+02 0.000000000000000000e+00 0.000000000000000000e+00 0.000000000000000000e+00
4.697886462499999638e+00 -4.388178243610000351e+01 2.971302475005999781e+02 0.000000000000000000e+00 0.000000000000000000e+00 0.000000000000000000e+00
5.222553555100000189e+00 -4.859433708819999964e+01 2.878534152142000266e+02 0.000000000000000000e+00 0.000000000000000000e+00 0.000000000000000000e+00
4.651890016100000302e+00 -4.195486567639999720e+01 3.002837761283000191e+02 0.000000000000000000e+00 0.000000000000000000e+00 0.000000000000000000e+00
4.595886254899999912e+00 -4.536582624980000134e+01 2.946660349691999841e+02 0.000000000000000000e+00 0.000000000000000000e+00 0.000000000000000000e+00
5.667511188099999764e+00 -4.898501931140000210e+01 2.876929816333000076e+02 0.000000000000000000e+00 0.000000000000000000e+00 0.000000000000000000e+00
-1.307346815500000092e+00 -5.111777918330000148e+01 2.828030160545999934e+02 0.000000000000000000e+00 0.000000000000000000e+00 0.000000000000000000e+00
5.678993895199999642e+00 -5.064704886519999860e+01 2.827856981099999985e+02 0.000000000000000000e+00 0.000000000000000000e+00 0.000000000000000000e+00
-2.797700612999999947e+00 -4.954658799460000296e+01 2.853088788558999909e+02 0.000000000000000000e+00 0.000000000000000000e+00 0.000000000000000000e+00
2.005135113000000024e-01 -4.498026031050000029e+01 3.008223099449999722e+02 0.000000000000000000e+00 0.000000000000000000e+00 0.000000000000000000e+00
5.685245699800000274e+00 -4.959113744409999924e+01 2.852996552019999967e+02 0.000000000000000000e+00 0.000000000000000000e+00 0.000000000000000000e+00
-1.229276333200000071e+00 -4.094492225540000163e+01 3.021838152531000219e+02 0.000000000000000000e+00 0.000000000000000000e+00 0.000000000000000000e+00
3.272842515599999835e+00 -5.278699983119999928e+01 2.789644911528999955e+02 0.000000000000000000e+00 0.000000000000000000e+00 0.000000000000000000e+00
-1.800770975300000076e+00 -5.271783085559999904e+01 2.783086802318999844e+02 0.000000000000000000e+00 0.000000000000000000e+00 0.000000000000000000e+00
3.768803157299999818e+00 -5.096787010260000272e+01 2.887197506037999801e+02 0.000000000000000000e+00 0.000000000000000000e+00 0.000000000000000000e+00
2.251146350800000029e+00 -4.445496608060000199e+01 3.018539678149999759e+02 0.000000000000000000e+00 0.000000000000000000e+00 0.000000000000000000e+00
5.156007538399999923e+00 -4.846479808280000157e+01 2.882480870741999865e+02 0.000000000000000000e+00 0.000000000000000000e+00 0.000000000000000000e+00
5.732612814600000384e+00 -4.746919273470000178e+01 2.902487371876999873e+02 0.000000000000000000e+00 0.000000000000000000e+00 0.000000000000000000e+00
1.699968157100000044e+00 -5.107178405359999829e+01 2.888346699795999939e+02 0.000000000000000000e+00 0.000000000000000000e+00 0.000000000000000000e+00
-2.832815126399999883e+00 -4.828162375670000017e+01 2.880034799164999981e+02 0.000000000000000000e+00 0.000000000000000000e+00 0.000000000000000000e+00
-1.718057606799999970e+00 -5.098412995449999841e+01 2.828026846171999864e+02 0.000000000000000000e+00 0.000000000000000000e+00 0.000000000000000000e+00
4.761473611799999617e+00 -3.931308696539999659e+01 3.039236043710999979e+02 0.000000000000000000e+00 0.000000000000000000e+00 0.000000000000000000e+00
2.207267344999999936e-01 -4.719666127280000012e+01 2.963489279763999775e+02 0.000000000000000000e+00 0.000000000000000000e+00 0.000000000000000000e+00
5.237854669199999869e+00 -5.123927890510000083e+01 2.814552108766000060e+02 0.000000000000000000e+00 0.000000000000000000e+00 0.000000000000000000e+00
3.421240577599999888e+00 -4.753913492699999921e+01 2.928525550621999969e+02 0.000000000000000000e+00 0.000000000000000000e+00 0.000000000000000000e+00
3.663176227200000135e+00 -5.062840594810000283e+01 2.887945724371999745e+02 0.000000000000000000e+00 0.000000000000000000e+00 0.000000000000000000e+00
7.293503121000000089e-01 -4.703617242869999870e+01 2.968014860694000276e+02 0.000000000000000000e+00 0.000000000000000000e+00 0.000000000000000000e+00
1.237675928500000078e+00 -5.161150708969999812e+01 2.878114133020999930e+02 0.000000000000000000e+00 0.000000000000000000e+00 0.000000000000000000e+00
-1.805200785900000104e+00 -4.757148457249999751e+01 2.903066782846000251e+02 0.000000000000000000e+00 0.000000000000000000e+00 0.000000000000000000e+00
4.792930876399999818e+00 -5.127595376069999844e+01 2.819227160002999995e+02 0.000000000000000000e+00 0.000000000000000000e+00 0.000000000000000000e+00
6.598846226000000259e-01 -4.688472774280000266e+01 2.972002611094000031e+02 0.000000000000000000e+00 0.000000000000000000e+00 0.000000000000000000e+00
-4.559728589999999943e-02 -4.537442845089999821e+01 3.000793642006000255e+02 0.000000000000000000e+00 0.000000000000000000e+00 0.000000000000000000e+00
7.045652032000000453e-01 -4.737737974470000069e+01 2.961212307517000113e+02 0.000000000000000000e+00 0.000000000000000000e+00 0.000000000000000000e+00
4.606890062699999788e+00 -4.737204763340000113e+01 2.907497428377999995e+02 0.000000000000000000e+00 0.000000000000000000e+00 0.000000000000000000e+00
3.610673484499999919e+00 -4.510822243789999675e+01 2.973331422201999885e+02 0.000000000000000000e+00 0.000000000000000000e+00 0.000000000000000000e+00
6.584449730000000445e-01 -5.026207645920000289e+01 2.904105937151999797e+02 0.000000000000000000e+00 0.000000000000000000e+00 0.000000000000000000e+00
-2.814844376099999934e+00 -4.781786477400000024e+01 2.888512686427999938e+02 0.000000000000000000e+00 0.000000000000000000e+00 0.000000000000000000e+00
-1.360151185399999907e+00 -5.025091360249999894e+01 2.848870438275999959e+02 0.000000000000000000e+00 0.000000000000000000e+00 0.000000000000000000e+00
-1.321041171899999922e+00 -4.704970025059999728e+01 2.918439983792999897e+02 0.000000000000000000e+00 0.000000000000000000e+00 0.000000000000000000e+00
2.737993539100000095e+00 -4.921727406629999990e+01 2.924096213894000016e+02 0.000000000000000000e+00 0.000000000000000000e+00 0.000000000000000000e+00
3.590773924100000070e+00 -4.863265344679999913e+01 2.908321788815999867e+02 0.000000000000000000e+00 0.000000000000000000e+00 0.000000000000000000e+00
3.849947740500000215e+00 -4.270565439749999825e+01 2.998896153512999945e+02 0.000000000000000000e+00 0.000000000000000000e+00 0.000000000000000000e+00
1.540547013999999937e-01 -5.273305272239999653e+01 2.811399548064999863e+02 0.000000000000000000e+00 0.000000000000000000e+00 0.000000000000000000e+00
3.445732924900000160e+00 -4.512472100320000123e+01 2.982100679087000117e+02 0.000000000000000000e+00 0.000000000000000000e+00 0.000000000000000000e+00
-1.685581593500000031e+00 -5.190598691950000187e+01 2.813975814985000170e+02 0.000000000000000000e+00 0.000000000000000000e+00 0.000000000000000000e+00
-2.800589333400000047e+00 -4.306731321640000232e+01 2.978013172387999816e+02 0.000000000000000000e+00 0.000000000000000000e+00 0.000000000000000000e+00
5.463210985799999975e+00 -3.984296153249999861e+01 3.032253592155000206e+02 0.000000000000000000e+00 0.000000000000000000e+00 0.000000000000000000e+00
4.582689371399999878e+00 -5.086270062570000050e+01 2.831522213807999719e+02 0.000000000000000000e+00 0.000000000000000000e+00 0.000000000000000000e+00
5.779173713899999676e+00 -4.729480139009999817e+01 2.899132256037000275e+02 0.000000000000000000e+00 0.000000000000000000e+00 0.000000000000000000e+00
4.222940051000000139e+00 -4.967981905300000278e+01 2.863641765944000213e+02 0.000000000000000000e+00 0.000000000000000000e+00 0.000000000000000000e+00
6.202332793700000124e+00 -4.999657196879999788e+01 2.838416669892000073e+02 0.000000000000000000e+00 0.000000000000000000e+00 0.000000000000000000e+00
-2.176451742999999939e-01 -4.746193707209999957e+01 2.957289498434000166e+02 0.000000000000000000e+00 0.000000000000000000e+00 0.000000000000000000e+00
3.979642677300000209e+00 -5.137970405219999748e+01 2.826865255734999778e+02 0.000000000000000000e+00 0.000000000000000000e+00 0.000000000000000000e+00
4.369734240599999708e+00 -4.926080222030000044e+01 2.869328729395999744e+02 0.000000000000000000e+00 0.000000000000000000e+00 0.000000000000000000e+00
-8.945793788000000468e-01 -4.256805406830000038e+01 3.013147964452999759e+02 0.000000000000000000e+00 0.000000000000000000e+00 0.000000000000000000e+00
-1.682849204300000068e+00 -4.938792699969999944e+01 2.865885259478000080e+02 0.000000000000000000e+00 0.000000000000000000e+00 0.000000000000000000e+00
5.658844827600000293e+00 -3.952043492570000183e+01 3.032512710501999891e+02 0.000000000000000000e+00 0.000000000000000000e+00 0.000000000000000000e+00
4.094783224799999566e+00 -5.265535447610000119e+01 2.833707015467999781e+02 0.000000000000000000e+00 0.000000000000000000e+00 0.000000000000000000e+00
6.206143474000000104e+00 -4.702615535489999843e+01 2.902831903211999816e+02 0.000000000000000000e+00 0.000000000000000000e+00 0.000000000000000000e+00
-5.317255450000000216e-01 -5.072272869630000258e+01 2.885599154785999758e+02 0.000000000000000000e+00 0.000000000000000000e+00 0.000000000000000000e+00
5.353421180699999837e+00 -4.427044041450000122e+01 2.959168605530999798e+02 0.000000000000000000e+00 0.000000000000000000e+00 0.000000000000000000e+00
-1.045957168699999995e+00 -4.290829070739999906e+01 3.018841518241000017e+02 0.000000000000000000e+00 0.000000000000000000e+00 0.000000000000000000e+00
3.644069438699999886e+00 -5.007103209150000112e+01 2.873007943000999944e+02 0.000000000000000000e+00 0.000000000000000000e+00 0.000000000000000000e+00
-8.232228375000000264e-01 -5.220456255300000237e+01 2.802851532831999748e+02 0.000000000000000000e+00 0.000000000000000000e+00 0.000000000000000000e+00
6.711513688000000366e-01 -4.371523991160000122e+01 3.029744012209999937e+02 0.000000000000000000e+00 0.000000000000000000e+00 0.000000000000000000e+00
3.631231612800000175e+00 -4.604738974749999869e+01 2.963199819865000109e+02 0.000000000000000000e+00 0.000000000000000000e+00 0.000000000000000000e+00
-6.761547664999999485e-01 -5.391251415629999855e+01 2.826527174725999885e+02 0.000000000000000000e+00 0.000000000000000000e+00 0.000000000000000000e+00
6.121056989699999562e+00 -5.194036041759999733e+01 2.791881788916999767e+02 0.000000000000000000e+00 0.000000000000000000e+00 0.000000000000000000e+00
-2.205835523999999936e-01 -5.049565108750000064e+01 2.897720814933999804e+02 0.000000000000000000e+00 0.000000000000000000e+00 0.000000000000000000e+00
2.295935812999999881e-01 -5.400662433589999978e+01 2.818721904875000064e+02 0.000000000000000000e+00 0.000000000000000000e+00 0.000000000000000000e+00
3.607370200300000107e+00 -4.756055185049999778e+01 2.922840578900999731e+02 0.000000000000000000e+00 0.000000000000000000e+00 0.000000000000000000e+00
-2.526421647199999843e+00 -4.690801216250000039e+01 2.918459412990000033e+02 0.000000000000000000e+00 0.000000000000000000e+00 0.000000000000000000e+00
6.342234618400000024e+00 -4.024188903940000017e+01 3.014059265489000268e+02 0.000000000000000000e+00 0.000000000000000000e+00 0.000000000000000000e+00
-4.135575660999999958e-01 -4.725798533519999722e+01 2.953782368120000115e+02 0.000000000000000000e+00 0.000000000000000000e+00 0.000000000000000000e+00
4.788837825999999964e+00 -4.978215240539999797e+01 2.854702380173999927e+02 0.000000000000000000e+00 0.000000000000000000e+00 0.000000000000000000e+00
-2.216996764200000136e+00 -4.543993432229999740e+01 2.941948444760000143e+02 0.000000000000000000e+00 0.000000000000000000e+00 0.000000000000000000e+00
-2.940035889000000013e-01 -4.407135848610000295e+01 3.023432545847999791e+02 0.000000000000000000e+00 0.000000000000000000e+00 0.000000000000000000e+00
4.208625460899999560e+00 -4.455698601409999782e+01 2.963467386090999867e+02 0.000000000000000000e+00 0.000000000000000000e+00 0.000000000000000000e+00
-5.953018843999999810e-01 -4.304854452760000072e+01 3.027129989390999754e+02 0.000000000000000000e+00 0.000000000000000000e+00 0.000000000000000000e+00
4.763793983300000257e+00 -4.269818495079999821e+01 2.989271619364999992e+02 0.000000000000000000e+00 0.000000000000000000e+00 0.000000000000000000e+00
4.714509746600000106e+00 -4.300934016570000296e+01 3.013061886264999885e+02 0.000000000000000000e+00 0.000000000000000000e+00 0.000000000000000000e+00
-1.299622465999999976e+00 -3.904207962590000136e+01 3.048160130224000000e+02 0.000000000000000000e+00 0.000000000000000000e+00 0.000000000000000000e+00
2.184376642700000204e+00 -5.350309933540000173e+01 2.843119354324999790e+02 0.000000000000000000e+00 0.000000000000000000e+00 0.000000000000000000e+00
3.867722678899999877e+00 -4.872563255149999861e+01 2.888941735279000227e+02 0.000000000000000000e+00 0.000000000000000000e+00 0.000000000000000000e+00
7.427626934000000070e-01 -4.753177107209999974e+01 2.958328722146000018e+02 0.000000000000000000e+00 0.000000000000000000e+00 0.000000000000000000e+00
-2.791435742700000056e+00 -4.361401138810000333e+01 2.968549538533999907e+02 0.000000000000000000e+00 0.000000000000000000e+00 0.000000000000000000e+00
3.692192911899999874e+00 -5.210357572049999675e+01 2.823635439886999734e+02 0.000000000000000000e+00 0.000000000000000000e+00 0.000000000000000000e+00
-7.248904030999999692e-01 -4.912221890229999843e+01 2.903548607048999770e+02 0.000000000000000000e+00 0.000000000000000000e+00 0.000000000000000000e+00
6.216078506799999737e+00 -4.849758000420000315e+01 2.873026894184999946e+02 0.000000000000000000e+00 0.000000000000000000e+00 0.000000000000000000e+00
-2.829651805800000197e+00 -4.329050956590000254e+01 2.973686424758000157e+02 0.000000000000000000e+00 0.000000000000000000e+00 0.000000000000000000e+00
7.199081949000000202e-01 -3.950197113410000327e+01 3.047114154147000136e+02 0.000000000000000000e+00 0.000000000000000000e+00 0.000000000000000000e+00
5.465338106599999968e+00 -5.143809177280000000e+01 2.829462630378999961e+02 0.000000000000000000e+00 0.000000000000000000e+00 0.000000000000000000e+00
3.658469212199999987e+00 -5.049672768309999782e+01 2.892509527312000159e+02 0.000000000000000000e+00 0.000000000000000000e+00 0.000000000000000000e+00
-2.242812224200000148e+00 -4.644078126790000027e+01 2.922398475818000065e+02 0.000000000000000000e+00 0.000000000000000000e+00 0.000000000000000000e+00
3.335879209099999798e+00 -5.327129889340000091e+01 2.838871571592999885e+02 0.000000000000000000e+00 0.000000000000000000e+00 0.000000000000000000e+00
4.592269040099999700e+00 -4.844122770079999896e+01 2.886315253785999744e+02 0.000000000000000000e+00 0.000000000000000000e+00 0.000000000000000000e+00
3.748164892700000195e+00 -5.260824466399999721e+01 2.792762282144000210e+02 0.000000000000000000e+00 0.000000000000000000e+00 0.000000000000000000e+00
3.751150390899999909e+00 -3.948293812800000069e+01 3.042105775653000137e+02 0.000000000000000000e+00 0.000000000000000000e+00 0.000000000000000000e+00
5.240067201899999638e+00 -4.662882114090000130e+01 2.918637656157999913e+02 0.000000000000000000e+00 0.000000000000000000e+00 0.000000000000000000e+00
5.679245732800000113e+00 -4.914517321030000119e+01 2.863621887534999928e+02 0.000000000000000000e+00 0.000000000000000000e+00 0.000000000000000000e+00
6.247988104900000117e+00 -4.264743692060000058e+01 2.978767405219999773e+02 0.000000000000000000e+00 0.000000000000000000e+00 0.000000000000000000e+00
3.229124818199999858e+00 -5.303474748549999873e+01 2.783379224275000183e+02 0.000000000000000000e+00 0.000000000000000000e+00 0.000000000000000000e+00
3.647796867499999873e+00 -5.254775701380000186e+01 2.813125996462999865e+02 0.000000000000000000e+00 0.000000000000000000e+00 0.000000000000000000e+00
1.218703461500000085e+00 -4.313905100249999691e+01 3.033753977873000167e+02 0.000000000000000000e+00 0.000000000000000000e+00 0.000000000000000000e+00
-1.186923358700000097e+00 -4.351125876580000096e+01 2.988650165967000021e+02 0.000000000000000000e+00 0.000000000000000000e+00 0.000000000000000000e+00
3.237257144800000042e+00 -3.935927185810000140e+01 3.045931889479999768e+02 0.000000000000000000e+00 0.000000000000000000e+00 0.000000000000000000e+00
-9.346519543000000319e-01 -5.028097966739999691e+01 2.853289429554000094e+02 0.000000000000000000e+00 0.000000000000000000e+00 0.000000000000000000e+00
-1.015825012300000108e+00 -4.783072412799999995e+01 2.904551911981000103e+02 0.000000000000000000e+00 0.000000000000000000e+00 0.000000000000000000e+00
-7.807538536000000473e-01 -4.606645089269999715e+01 2.963083440532000168e+02 0.000000000000000000e+00 0.000000000000000000e+00 0.000000000000000000e+00
-2.261187833400000180e+00 -5.146101988270000049e+01 2.812858178199999770e+02 0.000000000000000000e+00 0.000000000000000000e+00 0.000000000000000000e+00
3.446534382399999874e+00 -4.451961043850000266e+01 2.987171090590999825e+02 0.000000000000000000e+00 0.000000000000000000e+00 0.000000000000000000e+00
4.211592818099999747e+00 -4.850337845789999847e+01 2.888173649702000034e+02 0.000000000000000000e+00 0.000000000000000000e+00 0.000000000000000000e+00
-8.990662905999999843e-01 -4.919995999089999827e+01 2.877948064526000280e+02 0.000000000000000000e+00 0.000000000000000000e+00 0.000000000000000000e+00
5.807502824600000224e+00 -4.227172694760000127e+01 2.988447706502000187e+02 0.000000000000000000e+00 0.000000000000000000e+00 0.000000000000000000e+00
1.727282936199999952e+00 -4.406962033370000142e+01 3.027252205438999795e+02 0.000000000000000000e+00 0.000000000000000000e+00 0.000000000000000000e+00
7.199888430999999978e-01 -4.254830300230000262e+01 3.032948523659999864e+02 0.000000000000000000e+00 0.000000000000000000e+00 0.000000000000000000e+00
-7.707799480000000480e-01 -4.906888437780000345e+01 2.892851744002999794e+02 0.000000000000000000e+00 0.000000000000000000e+00 0.000000000000000000e+00
-3.016969767199999986e+00 -4.678394759390000246e+01 2.910455884643999980e+02 0.000000000000000000e+00 0.000000000000000000e+00 0.000000000000000000e+00
-2.793147777500000206e+00 -4.054676644469999758e+01 3.017685992474999921e+02 0.000000000000000000e+00 0.000000000000000000e+00 0.000000000000000000e+00
6.271518014899999827e+00 -4.769369388279999811e+01 2.888467071408999800e+02 0.000000000000000000e+00 0.000000000000000000e+00 0.000000000000000000e+00
2.648022050699999852e+00 -4.637874870160000285e+01 2.981331627144999743e+02 0.000000000000000000e+00 0.000000000000000000e+00 0.000000000000000000e+00
6.172960525099999707e+00 -4.753985037790000234e+01 2.893061952373000167e+02 0.000000000000000000e+00 0.000000000000000000e+00 0.000000000000000000e+00
-1.282846311499999947e+00 -5.056102217520000153e+01 2.843458745442000009e+02 0.000000000000000000e+00 0.000000000000000000e+00 0.000000000000000000e+00
5.024475691700000191e+00 -4.284269496040000291e+01 2.986393393271999912e+02 0.000000000000000000e+00 0.000000000000000000e+00 0.000000000000000000e+00
5.205767144900000254e+00 -4.062257910630000168e+01 3.018769500128000232e+02 0.000000000000000000e+00 0.000000000000000000e+00 0.000000000000000000e+00
-1.250172919499999979e+00 -4.894342237749999924e+01 2.882347839985999940e+02 0.000000000000000000e+00 0.000000000000000000e+00 0.000000000000000000e+00
-2.249743508699999950e+00 -4.953346509789999885e+01 2.858278011844000162e+02 0.000000000000000000e+00 0.000000000000000000e+00 0.000000000000000000e+00
3.679253757500000166e+00 -4.806279855190000205e+01 2.937917896518000020e+02 0.000000000000000000e+00 0.000000000000000000e+00 0.000000000000000000e+00
4.731296952700000169e+00 -4.777969454050000309e+01 2.898495270815000140e+02 0.000000000000000000e+00 0.000000000000000000e+00 0.000000000000000000e+00
5.108106111999999754e+00 -5.040093154849999735e+01 2.837820349324999825e+02 0.000000000000000000e+00 0.000000000000000000e+00 0.000000000000000000e+00
6.677265717999999461e-01 -4.874255890879999953e+01 2.934126821431000280e+02 0.000000000000000000e+00 0.000000000000000000e+00 0.000000000000000000e+00
6.246405850899999557e+00 -4.360103690500000084e+01 2.963223764269000071e+02 0.000000000000000000e+00 0.000000000000000000e+00 0.000000000000000000e+00
-1.323177109800000029e+00 -4.417690574790000113e+01 2.972871577140999761e+02 0.000000000000000000e+00 0.000000000000000000e+00 0.000000000000000000e+00
3.438764084499999818e+00 -5.228062980920000058e+01 2.813936861500999953e+02 0.000000000000000000e+00 0.000000000000000000e+00 0.000000000000000000e+00
6.200095572200000404e+00 -4.591789711410000052e+01 2.927147042566999744e+02 0.000000000000000000e+00 0.000000000000000000e+00 0.000000000000000000e+00
-7.101844041000000551e-01 -4.856599800770000286e+01 2.923593129188000148e+02 0.000000000000000000e+00 0.000000000000000000e+00 0.000000000000000000e+00
5.677168052899999928e+00 -4.880833701560000293e+01 2.867956159953999986e+02 0.000000000000000000e+00 0.000000000000000000e+00 0.000000000000000000e+00
3.419684173699999885e+00 -4.405827882679999874e+01 2.993688344918999746e+02 0.000000000000000000e+00 0.000000000000000000e+00 0.000000000000000000e+00
3.706430014399999973e+00 -4.257573323260000109e+01 3.008157170809000149e+02 0.000000000000000000e+00 0.000000000000000000e+00 0.000000000000000000e+00
1.704752506700000003e+00 -4.424478162759999833e+01 3.023386733515999936e+02 0.000000000000000000e+00 0.000000000000000000e+00 0.000000000000000000e+00
6.146836718000000310e+00 -5.043088784929999946e+01 2.830888209039999879e+02 0.000000000000000000e+00 0.000000000000000000e+00 0.000000000000000000e+00
3.722800933899999887e+00 -4.908928320020000058e+01 2.888143826909000040e+02 0.000000000000000000e+00 0.000000000000000000e+00 0.000000000000000000e+00
4.042174822799999845e+00 -5.209515765919999808e+01 2.863502177056000164e+02 0.000000000000000000e+00 0.000000000000000000e+00 0.000000000000000000e+00
-1.682957785499999970e+00 -5.238604038030000254e+01 2.792929104396000071e+02 0.000000000000000000e+00 0.000000000000000000e+00 0.000000000000000000e+00
3.648118588100000004e+00 -5.253396393759999938e+01 2.852544907404999890e+02 0.000000000000000000e+00 0.000000000000000000e+00 0.000000000000000000e+00
-6.550307082999999864e-01 -4.942518172829999656e+01 2.912390117263000207e+02 0.000000000000000000e+00 0.000000000000000000e+00 0.000000000000000000e+00
2.232678845900000209e+00 -5.092122575479999824e+01 2.891535673770000017e+02 0.000000000000000000e+00 0.000000000000000000e+00 0.000000000000000000e+00
5.515794571999999896e+00 -5.187068953010000172e+01 2.800975434703000246e+02 0.000000000000000000e+00 0.000000000000000000e+00 0.000000000000000000e+00
2.297764481499999789e+00 -4.537947632299999867e+01 3.001038642593999839e+02 0.000000000000000000e+00 0.000000000000000000e+00 0.000000000000000000e+00
3.880755239900000042e+00 -5.177793955810000170e+01 2.819585531173000277e+02 0.000000000000000000e+00 0.000000000000000000e+00 0.000000000000000000e+00
-2.216257991700000041e+00 -4.246233583200000083e+01 2.992655690033000155e+02 0.000000000000000000e+00 0.000000000000000000e+00 0.000000000000000000e+00
1.163369806199999967e+00 -4.885561725219999829e+01 2.931701443407999932e+02 0.000000000000000000e+00 0.000000000000000000e+00 0.000000000000000000e+00
-8.531433581999999793e-01 -4.705975371510000116e+01 2.932844638194999902e+02 0.000000000000000000e+00 0.000000000000000000e+00 0.000000000000000000e+00
3.202773761500000038e+00 -4.641636159899999825e+01 2.977761902938000276e+02 0.000000000000000000e+00 0.000000000000000000e+00 0.000000000000000000e+00
6.207553625700000133e+00 -3.965420154419999932e+01 3.023547457633999898e+02 0.000000000000000000e+00 0.000000000000000000e+00 0.000000000000000000e+00
5.684677191099999582e+00 -3.897717420690000267e+01 3.042978888325000071e+02 0.000000000000000000e+00 0.000000000000000000e+00 0.000000000000000000e+00
3.201452315000000048e+00 -4.654049777010000355e+01 2.973580332418000012e+02 0.000000000000000000e+00 0.000000000000000000e+00 0.000000000000000000e+00
5.199492132599999650e+00 -4.814685578499999963e+01 2.888140228734000061e+02 0.000000000000000000e+00 0.000000000000000000e+00 0.000000000000000000e+00
6.240787530399999561e+00 -4.816733255329999963e+01 2.878607758425000043e+02 0.000000000000000000e+00 0.000000000000000000e+00 0.000000000000000000e+00
-1.132983356700000055e+00 -4.530723180439999709e+01 2.965935465700000009e+02 0.000000000000000000e+00 0.000000000000000000e+00 0.000000000000000000e+00
4.313762059500000134e+00 -4.129733693810000261e+01 3.014562627792000171e+02 0.000000000000000000e+00 0.000000000000000000e+00 0.000000000000000000e+00
6.198424689600000370e+00 -4.510758163620000261e+01 2.938399002768999821e+02 0.000000000000000000e+00 0.000000000000000000e+00 0.000000000000000000e+00
-7.360660125000000331e-01 -4.862968675239999783e+01 2.903354034253000009e+02 0.000000000000000000e+00 0.000000000000000000e+00 0.000000000000000000e+00
-6.833501202999999746e-01 -5.211736830049999725e+01 2.827924692961000233e+02 0.000000000000000000e+00 0.000000000000000000e+00 0.000000000000000000e+00
-8.429977724999999644e-01 -4.700311046230000045e+01 2.961715382638000165e+02 0.000000000000000000e+00 0.000000000000000000e+00 0.000000000000000000e+00
7.192551837999999753e-01 -4.851943383780000119e+01 2.938485052021999877e+02 0.000000000000000000e+00 0.000000000000000000e+00 0.000000000000000000e+00
3.728270987900000222e+00 -5.103867934769999692e+01 2.843488831316000187e+02 0.000000000000000000e+00 0.000000000000000000e+00 0.000000000000000000e+00
1.204490495199999955e+00 -4.009110202990000005e+01 3.043097119738000060e+02 0.000000000000000000e+00 0.000000000000000000e+00 0.000000000000000000e+00
5.227021618200000219e+00 -4.163555610579999922e+01 3.003237872618000210e+02 0.000000000000000000e+00 0.000000000000000000e+00 0.000000000000000000e+00
3.103369429899999865e+00 -5.338262082260000341e+01 2.841728717500000130e+02 0.000000000000000000e+00 0.000000000000000000e+00 0.000000000000000000e+00
4.704544839499999576e+00 -4.158645291079999851e+01 3.007928141038000263e+02 0.000000000000000000e+00 0.000000000000000000e+00 0.000000000000000000e+00
-2.766697510599999799e+00 -4.341261520799999829e+01 2.972498268452000048e+02 0.000000000000000000e+00 0.000000000000000000e+00 0.000000000000000000e+00
3.381370907700000039e+00 -5.260632266140000013e+01 2.818443844998000145e+02 0.000000000000000000e+00 0.000000000000000000e+00 0.000000000000000000e+00
5.745848691600000002e+00 -5.223301527760000340e+01 2.788337897261999956e+02 0.000000000000000000e+00 0.000000000000000000e+00 0.000000000000000000e+00
4.201549511899999700e+00 -5.203075035570000040e+01 2.807960021735000282e+02 0.000000000000000000e+00 0.000000000000000000e+00 0.000000000000000000e+00
3.694120038899999958e+00 -5.210760611300000278e+01 2.818428989436999927e+02 0.000000000000000000e+00 0.000000000000000000e+00 0.000000000000000000e+00
3.688259219599999916e+00 -5.211920143220000057e+01 2.828241433247999908e+02 0.000000000000000000e+00 0.000000000000000000e+00 0.000000000000000000e+00
3.618943104600000016e+00 -5.206770896679999794e+01 2.838321974547999957e+02 0.000000000000000000e+00 0.000000000000000000e+00 0.000000000000000000e+00
3.660614947300000033e+00 -5.210986418640000295e+01 2.848067904229000078e+02 0.000000000000000000e+00 0.000000000000000000e+00 0.000000000000000000e+00
3.606478923000000059e+00 -5.208976819949999992e+01 2.852956711924999809e+02 0.000000000000000000e+00 0.000000000000000000e+00 0.000000000000000000e+00
5.178823265600000170e+00 -4.610867343350000169e+01 2.928018768192000039e+02 0.000000000000000000e+00 0.000000000000000000e+00 0.000000000000000000e+00
6.281145061300000165e+00 -5.176204789389999661e+01 2.793714323564000210e+02 0.000000000000000000e+00 0.000000000000000000e+00 0.000000000000000000e+00
5.357004831700000302e+00 -4.761122775409999974e+01 2.908967025836000175e+02 0.000000000000000000e+00 0.000000000000000000e+00 0.000000000000000000e+00
-4.688212944999999854e-01 -5.274160708219999805e+01 2.842071875976000115e+02 0.000000000000000000e+00 0.000000000000000000e+00 0.000000000000000000e+00
5.729258331399999626e+00 -5.163201929520000277e+01 2.803212354423000079e+02 0.000000000000000000e+00 0.000000000000000000e+00 0.000000000000000000e+00
8.396580532999999846e-01 -4.787306975799999975e+01 2.951552842887999759e+02 0.000000000000000000e+00 0.000000000000000000e+00 0.000000000000000000e+00
4.203381407600000230e+00 -5.159070913869999941e+01 2.818143462391000185e+02 0.000000000000000000e+00 0.000000000000000000e+00 0.000000000000000000e+00
-2.175816363600000081e+00 -4.840710897099999954e+01 2.883269815805999770e+02 0.000000000000000000e+00 0.000000000000000000e+00 0.000000000000000000e+00
1.760579379900000019e+00 -4.449516368300000124e+01 3.018193924011999911e+02 0.000000000000000000e+00 0.000000000000000000e+00 0.000000000000000000e+00
-1.342433558900000046e+00 -4.327141772360000260e+01 2.984936347395000098e+02 0.000000000000000000e+00 0.000000000000000000e+00 0.000000000000000000e+00
2.998040820000000273e-01 -4.636228089589999968e+01 2.980914841677000027e+02 0.000000000000000000e+00 0.000000000000000000e+00 0.000000000000000000e+00
5.873476178399999803e+00 -5.118210743459999890e+01 2.809541986219999785e+02 0.000000000000000000e+00 0.000000000000000000e+00 0.000000000000000000e+00
5.764742979600000261e+00 -5.121992834859999988e+01 2.813702130382000064e+02 0.000000000000000000e+00 0.000000000000000000e+00 0.000000000000000000e+00
5.220158713000000006e+00 -5.115877535090000094e+01 2.818956987184000127e+02 0.000000000000000000e+00 0.000000000000000000e+00 0.000000000000000000e+00
4.690975775800000136e+00 -5.113717148960000003e+01 2.823382786546000034e+02 0.000000000000000000e+00 0.000000000000000000e+00 0.000000000000000000e+00
2.548146180699999874e+00 -4.836514879679999979e+01 2.941163050829999861e+02 0.000000000000000000e+00 0.000000000000000000e+00 0.000000000000000000e+00
4.282615163700000060e+00 -5.127563851250000226e+01 2.823872562439000262e+02 0.000000000000000000e+00 0.000000000000000000e+00 0.000000000000000000e+00
3.679473170500000112e+00 -5.105449020999999732e+01 2.848222273503999986e+02 0.000000000000000000e+00 0.000000000000000000e+00 0.000000000000000000e+00
3.625140758300000154e+00 -5.106346241850000212e+01 2.852797213950000241e+02 0.000000000000000000e+00 0.000000000000000000e+00 0.000000000000000000e+00
6.227920842399999657e+00 -5.028041111860000001e+01 2.828074773037000114e+02 0.000000000000000000e+00 0.000000000000000000e+00 0.000000000000000000e+00
3.669650492999999791e+00 -5.060252747050000011e+01 2.863668663765000133e+02 0.000000000000000000e+00 0.000000000000000000e+00 0.000000000000000000e+00
3.621653516699999908e+00 -5.063368400659999935e+01 2.878553414071000134e+02 0.000000000000000000e+00 0.000000000000000000e+00 0.000000000000000000e+00
2.713560955100000172e+00 -5.122660101900000029e+01 2.883457144079000045e+02 0.000000000000000000e+00 0.000000000000000000e+00 0.000000000000000000e+00
5.215106655399999624e+00 -5.011243851950000305e+01 2.843018527450000192e+02 0.000000000000000000e+00 0.000000000000000000e+00 0.000000000000000000e+00
4.678782738799999841e+00 -5.007371123589999939e+01 2.848418583577000049e+02 0.000000000000000000e+00 0.000000000000000000e+00 0.000000000000000000e+00
3.208568101000000006e+00 -5.316543232419999754e+01 2.843090886332000196e+02 0.000000000000000000e+00 0.000000000000000000e+00 0.000000000000000000e+00
3.797028107500000083e+00 -4.994232455049999686e+01 2.903514616792999732e+02 0.000000000000000000e+00 0.000000000000000000e+00 0.000000000000000000e+00
5.398013115200000378e+00 -4.969930662090000340e+01 2.849955246436999801e+02 0.000000000000000000e+00 0.000000000000000000e+00 0.000000000000000000e+00
4.326027855499999575e+00 -4.979282841639999901e+01 2.858981148678000181e+02 0.000000000000000000e+00 0.000000000000000000e+00 0.000000000000000000e+00
3.609566349800000129e+00 -5.007142487710000012e+01 2.878122448536000206e+02 0.000000000000000000e+00 0.000000000000000000e+00 0.000000000000000000e+00
3.652738478199999861e+00 -5.007458381539999692e+01 2.883230090541999857e+02 0.000000000000000000e+00 0.000000000000000000e+00 0.000000000000000000e+00
4.736645400099999570e+00 -4.966689694960000168e+01 2.858556977828000072e+02 0.000000000000000000e+00 0.000000000000000000e+00 0.000000000000000000e+00
5.226242002400000253e+00 -4.924945244890000140e+01 2.864110111856999765e+02 0.000000000000000000e+00 0.000000000000000000e+00 0.000000000000000000e+00
3.671544679500000186e+00 -4.949215445829999993e+01 2.912407817933000160e+02 0.000000000000000000e+00 0.000000000000000000e+00 0.000000000000000000e+00
3.546890535000000177e+00 -4.515584222439999706e+01 2.983339077127999985e+02 0.000000000000000000e+00 0.000000000000000000e+00 0.000000000000000000e+00
5.700701579499999561e+00 -4.103986161590000137e+01 3.008088240519999772e+02 0.000000000000000000e+00 0.000000000000000000e+00 0.000000000000000000e+00
6.290098869800000436e+00 -4.876504003390000008e+01 2.863534993028999907e+02 0.000000000000000000e+00 0.000000000000000000e+00 0.000000000000000000e+00
2.747778795099999893e+00 -5.023013205499999856e+01 2.903500052444999824e+02 0.000000000000000000e+00 0.000000000000000000e+00 0.000000000000000000e+00
6.248327893499999952e+00 -4.866009099400000082e+01 2.868237815177000130e+02 0.000000000000000000e+00 0.000000000000000000e+00 0.000000000000000000e+00
4.279352816500000323e+00 -4.872615968089999683e+01 2.883310336974000165e+02 0.000000000000000000e+00 0.000000000000000000e+00 0.000000000000000000e+00
3.756725486900000188e+00 -4.863390365800000126e+01 2.898067409564999934e+02 0.000000000000000000e+00 0.000000000000000000e+00 0.000000000000000000e+00
3.662296147899999799e+00 -4.860719938740000146e+01 2.903309995628000024e+02 0.000000000000000000e+00 0.000000000000000000e+00 0.000000000000000000e+00
3.596643232099999921e+00 -4.859882537219999676e+01 2.913180501145999983e+02 0.000000000000000000e+00 0.000000000000000000e+00 0.000000000000000000e+00
4.590222476999999968e-01 -4.039585046349999686e+01 3.037949649120999993e+02 0.000000000000000000e+00 0.000000000000000000e+00 0.000000000000000000e+00
5.656020463499999984e+00 -4.799665856650000251e+01 2.888002040031000206e+02 0.000000000000000000e+00 0.000000000000000000e+00 0.000000000000000000e+00
3.620505113300000133e+00 -4.805483543209999908e+01 2.928670714337000049e+02 0.000000000000000000e+00 0.000000000000000000e+00 0.000000000000000000e+00
5.293183937200000244e+00 -4.776059361160000094e+01 2.893852613103999829e+02 0.000000000000000000e+00 0.000000000000000000e+00 0.000000000000000000e+00
3.643937602199999848e+00 -4.759777153280000306e+01 2.943068176816000232e+02 0.000000000000000000e+00 0.000000000000000000e+00 0.000000000000000000e+00
-7.535331221000000079e-01 -4.606075875460000191e+01 2.957894342888000097e+02 0.000000000000000000e+00 0.000000000000000000e+00 0.000000000000000000e+00
4.106852477400000367e+00 -4.742177296250000040e+01 2.912634514946000195e+02 0.000000000000000000e+00 0.000000000000000000e+00 0.000000000000000000e+00
3.758181856899999840e+00 -4.757510443219999985e+01 2.917958885365000015e+02 0.000000000000000000e+00 0.000000000000000000e+00 0.000000000000000000e+00
3.697989319800000008e+00 -4.758032453149999697e+01 2.937519366289999994e+02 0.000000000000000000e+00 0.000000000000000000e+00 0.000000000000000000e+00
-2.841407068800000157e+00 -3.917187923430000041e+01 3.037890424465999786e+02 0.000000000000000000e+00 0.000000000000000000e+00 0.000000000000000000e+00
5.208900844200000435e+00 -4.710312400400000143e+01 2.908443349487999967e+02 0.000000000000000000e+00 0.000000000000000000e+00 0.000000000000000000e+00
3.574876640299999853e+00 -4.708101696570000172e+01 2.957876513141999908e+02 0.000000000000000000e+00 0.000000000000000000e+00 0.000000000000000000e+00
