2.256583215100000039e+00 7.312481850870000244e+01 2.383406004441999926e+02 0.000000000000000000e+00 0.000000000000000000e+00 0.000000000000000000e+00
5.701304917499999902e+00 7.348949430140000061e+01 2.557867253102000120e+02 0.000000000000000000e+00 0.000000000000000000e+00 0.000000000000000000e+00
4.084127208800000020e+00 7.489431541769999967e+01 2.567934592189999989e+02 0.000000000000000000e+00 0.000000000000000000e+00 0.000000000000000000e+00
-1.453243374799999987e+00 7.404000761490000571e+01 2.588060337758000173e+02 0.000000000000000000e+00 0.000000000000000000e+00 0.000000000000000000e+00
3.355633877799999887e+00 7.541922494259999610e+01 2.418405274495000015e+02 0.000000000000000000e+00 0.000000000000000000e+00 0.000000000000000000e+00
4.330606363200000253e+00 7.412554789390000565e+01 2.533052009365000004e+02 0.000000000000000000e+00 0.000000000000000000e+00 0.000000000000000000e+00
-2.881472041399999906e+00 7.405573717949999946e+01 2.433324618706000138e+02 0.000000000000000000e+00 0.000000000000000000e+00 0.000000000000000000e+00
1.638217960299999998e+00 7.337599688829999423e+01 2.397832562073000133e+02 0.000000000000000000e+00 0.000000000000000000e+00 0.000000000000000000e+00
2.176714158099999796e+00 7.379482997959999580e+01 2.617932865025999831e+02 0.000000000000000000e+00 0.000000000000000000e+00 0.000000000000000000e+00
3.453459187900000060e+00 7.495682729550000545e+01 2.423533709994999867e+02 0.000000000000000000e+00 0.000000000000000000e+00 0.000000000000000000e+00
4.719549019599999617e+00 7.387281134650000070e+01 2.448264787189999936e+02 0.000000000000000000e+00 0.000000000000000000e+00 0.000000000000000000e+00
5.728839088299999993e+00 7.289348750659999610e+01 2.393109817017000012e+02 0.000000000000000000e+00 0.000000000000000000e+00 0.000000000000000000e+00
-3.344798573199999847e+00 7.349675694190000286e+01 2.458036052950000112e+02 0.000000000000000000e+00 0.000000000000000000e+00 0.000000000000000000e+00
2.732394883400000030e+00 7.310348521859999948e+01 2.383400491747999865e+02 0.000000000000000000e+00 0.000000000000000000e+00 0.000000000000000000e+00
3.691228783900000199e+00 7.390271052800000007e+01 2.408366735625999979e+02 0.000000000000000000e+00 0.000000000000000000e+00 0.000000000000000000e+00
2.667552633100000126e+00 7.494593708540000421e+01 2.411271950215000004e+02 0.000000000000000000e+00 0.000000000000000000e+00 0.000000000000000000e+00
4.743124514199999808e+00 7.405237965499999575e+01 2.498217213419999894e+02 0.000000000000000000e+00 0.000000000000000000e+00 0.000000000000000000e+00
-1.849905091599999940e+00 7.351472056289999557e+01 2.603517965088000210e+02 0.000000000000000000e+00 0.000000000000000000e+00 0.000000000000000000e+00
1.079047442300000048e+00 7.562509161580000239e+01 2.588646526768000058e+02 0.000000000000000000e+00 0.000000000000000000e+00 0.000000000000000000e+00
-3.222904484999999930e+00 7.361764555659999587e+01 2.528700435304999985e+02 0.000000000000000000e+00 0.000000000000000000e+00 0.000000000000000000e+00
3.658607670899999942e+00 7.591485212579999597e+01 2.587803222708000135e+02 0.000000000000000000e+00 0.000000000000000000e+00 0.000000000000000000e+00
3.386975370200000057e+00 7.541222050659999354e+01 2.518522272131000079e+02 0.000000000000000000e+00 0.000000000000000000e+00 0.000000000000000000e+00
3.538120271199999944e+00 7.441341099640000323e+01 2.423192029056999957e+02 0.000000000000000000e+00 0.000000000000000000e+00 0.000000000000000000e+00
3.856256429000000097e+00 7.517732789219999745e+01 2.517843445913999858e+02 0.000000000000000000e+00 0.000000000000000000e+00 0.000000000000000000e+00
-7.257866130000000249e-01 7.626327337540000428e+01 2.493173699340999860e+02 0.000000000000000000e+00 0.000000000000000000e+00 0.000000000000000000e+00
-8.091776817000000399e-01 7.605515965669999900e+01 2.443542040885999995e+02 0.000000000000000000e+00 0.000000000000000000e+00 0.000000000000000000e+00
3.737297142000000072e+00 7.352925834040000552e+01 2.402879001583999923e+02 0.000000000000000000e+00 0.000000000000000000e+00 0.000000000000000000e+00
3.780655494099999903e+00 7.397586123530000179e+01 2.428174254157999883e+02 0.000000000000000000e+00 0.000000000000000000e+00 0.000000000000000000e+00
4.767360054100000077e+00 7.308690618200000699e+01 2.622859389527000076e+02 0.000000000000000000e+00 0.000000000000000000e+00 0.000000000000000000e+00
1.225749164400000035e+00 7.636031462149999527e+01 2.448300448495000126e+02 0.000000000000000000e+00 0.000000000000000000e+00 0.000000000000000000e+00
2.195729500999999972e-01 7.319015105569999946e+01 2.378362596361000101e+02 0.000000000000000000e+00 0.000000000000000000e+00 0.000000000000000000e+00
1.223417674700000068e+00 7.487122036389999380e+01 2.411238485398000080e+02 0.000000000000000000e+00 0.000000000000000000e+00 0.000000000000000000e+00
-1.136751646500000046e+00 7.589218354300000158e+01 2.478055774537999980e+02 0.000000000000000000e+00 0.000000000000000000e+00 0.000000000000000000e+00
5.775358444700000149e+00 7.354858742099999347e+01 2.453034234245999983e+02 0.000000000000000000e+00 0.000000000000000000e+00 0.000000000000000000e+00
3.408210780600000156e+00 7.546123461519999864e+01 2.482817466687000092e+02 0.000000000000000000e+00 0.000000000000000000e+00 0.000000000000000000e+00
2.183186502999999945e+00 7.632493773180000574e+01 2.432971755943000005e+02 0.000000000000000000e+00 0.000000000000000000e+00 0.000000000000000000e+00
4.721366831900000172e+00 7.408840935630000502e+01 2.478190313107999998e+02 0.000000000000000000e+00 0.000000000000000000e+00 0.000000000000000000e+00
1.706079943600000037e+00 7.485073166220000473e+01 2.402274533352000105e+02 0.000000000000000000e+00 0.000000000000000000e+00 0.000000000000000000e+00
2.709876066400000116e+00 7.639687305930000605e+01 2.493175685075999866e+02 0.000000000000000000e+00 0.000000000000000000e+00 0.000000000000000000e+00
2.710473748000000072e+00 7.384785201309999536e+01 2.405532324044000063e+02 0.000000000000000000e+00 0.000000000000000000e+00 0.000000000000000000e+00
3.655781245800000079e+00 7.449240599889999714e+01 2.591528491866000081e+02 0.000000000000000000e+00 0.000000000000000000e+00 0.000000000000000000e+00
2.639386672999999850e-01 7.434399948620000487e+01 2.594277011757000082e+02 0.000000000000000000e+00 0.000000000000000000e+00 0.000000000000000000e+00
3.332138551099999901e+00 7.592820209580000324e+01 2.488014517496999929e+02 0.000000000000000000e+00 0.000000000000000000e+00 0.000000000000000000e+00
5.638678037300000057e+00 7.376896374369999876e+01 2.482813435822000088e+02 0.000000000000000000e+00 0.000000000000000000e+00 0.000000000000000000e+00
4.636142983300000076e+00 7.374816191339999705e+01 2.433339711275000070e+02 0.000000000000000000e+00 0.000000000000000000e+00 0.000000000000000000e+00
-3.650461454399999806e+00 7.368229704930000423e+01 2.483234108482000124e+02 0.000000000000000000e+00 0.000000000000000000e+00 0.000000000000000000e+00
-3.556238610699999914e+00 7.379830009130000690e+01 2.522669731293999860e+02 0.000000000000000000e+00 0.000000000000000000e+00 0.000000000000000000e+00
7.426381521999999569e-01 7.639066926930000534e+01 2.483201865219000126e+02 0.000000000000000000e+00 0.000000000000000000e+00 0.000000000000000000e+00
3.745482709500000063e+00 7.355638691629999926e+01 2.608032032218000040e+02 0.000000000000000000e+00 0.000000000000000000e+00 0.000000000000000000e+00
5.209810216400000193e+00 7.385006483019999735e+01 2.543287781216999974e+02 0.000000000000000000e+00 0.000000000000000000e+00 0.000000000000000000e+00
3.792004046699999797e+00 7.364747750889999622e+01 2.406196115424000084e+02 0.000000000000000000e+00 0.000000000000000000e+00 0.000000000000000000e+00
6.701087245000000303e-01 7.445805535099999872e+01 2.600896062205000021e+02 0.000000000000000000e+00 0.000000000000000000e+00 0.000000000000000000e+00
3.205037525499999873e+00 7.630844951119999564e+01 2.467791034097000136e+02 0.000000000000000000e+00 0.000000000000000000e+00 0.000000000000000000e+00
4.530263619300000322e+00 7.373777378890000023e+01 2.592849107587999811e+02 0.000000000000000000e+00 0.000000000000000000e+00 0.000000000000000000e+00
3.358867481499999919e+00 7.544753236799999740e+01 2.568201032466000129e+02 0.000000000000000000e+00 0.000000000000000000e+00 0.000000000000000000e+00
2.257738281399999991e+00 7.644580724610000289e+01 2.503289278116000105e+02 0.000000000000000000e+00 0.000000000000000000e+00 0.000000000000000000e+00
3.333287600899999870e+00 7.591693425649999938e+01 2.498220861402000139e+02 0.000000000000000000e+00 0.000000000000000000e+00 0.000000000000000000e+00
3.598387672199999887e+00 7.433036152219999337e+01 2.588002175093999995e+02 0.000000000000000000e+00 0.000000000000000000e+00 0.000000000000000000e+00
-2.803190568999999743e-01 7.643079693389999818e+01 2.538473585346000050e+02 0.000000000000000000e+00 0.000000000000000000e+00 0.000000000000000000e+00
5.176979536000000159e+00 7.388381665369999496e+01 2.468406496862000097e+02 0.000000000000000000e+00 0.000000000000000000e+00 0.000000000000000000e+00
3.426676265099999785e+00 7.499163115529999857e+01 2.543328243518000136e+02 0.000000000000000000e+00 0.000000000000000000e+00 0.000000000000000000e+00
4.707547556699999802e+00 7.337863889550000351e+01 2.603290066582999884e+02 0.000000000000000000e+00 0.000000000000000000e+00 0.000000000000000000e+00
1.979167926000000022e-01 7.552096836619999465e+01 2.588911420817000248e+02 0.000000000000000000e+00 0.000000000000000000e+00 0.000000000000000000e+00
5.181726539999999659e+00 7.389652908060000414e+01 2.532887002340000038e+02 0.000000000000000000e+00 0.000000000000000000e+00 0.000000000000000000e+00
1.749042711400000005e+00 7.633134852169999363e+01 2.591737438173000214e+02 0.000000000000000000e+00 0.000000000000000000e+00 0.000000000000000000e+00
4.744656320199999833e+00 7.407091011679999326e+01 2.518445503908999967e+02 0.000000000000000000e+00 0.000000000000000000e+00 0.000000000000000000e+00
3.738036737999999914e+00 7.337519880930000227e+01 2.398193621348999898e+02 0.000000000000000000e+00 0.000000000000000000e+00 0.000000000000000000e+00
2.239647788400000117e+00 7.415080277650000085e+01 2.407440690948999986e+02 0.000000000000000000e+00 0.000000000000000000e+00 0.000000000000000000e+00
1.158915740499999902e+00 7.437599737099999686e+01 2.408510636245999876e+02 0.000000000000000000e+00 0.000000000000000000e+00 0.000000000000000000e+00
5.036822966599999951e+00 7.385165481859999659e+01 2.587824096685000086e+02 0.000000000000000000e+00 0.000000000000000000e+00 0.000000000000000000e+00
3.592096189199999845e+00 7.441278082339999855e+01 2.433337659171999974e+02 0.000000000000000000e+00 0.000000000000000000e+00 0.000000000000000000e+00
-6.886798941999999757e-01 7.404453719910000586e+01 2.595627551193999807e+02 0.000000000000000000e+00 0.000000000000000000e+00 0.000000000000000000e+00
-2.425129104599999863e+00 7.365187520560000678e+01 2.579414834260999783e+02 0.000000000000000000e+00 0.000000000000000000e+00 0.000000000000000000e+00
4.046478733799999894e+00 7.425145090399999503e+01 2.442730316422000101e+02 0.000000000000000000e+00 0.000000000000000000e+00 0.000000000000000000e+00
2.769346838100000152e+00 7.662506256929999893e+01 2.573081939817000148e+02 0.000000000000000000e+00 0.000000000000000000e+00 0.000000000000000000e+00
-1.172846090900000027e+00 7.593706226090000655e+01 2.563244695084000000e+02 0.000000000000000000e+00 0.000000000000000000e+00 0.000000000000000000e+00
-8.240644951000000162e-01 7.600714987579999615e+01 2.438261845947000097e+02 0.000000000000000000e+00 0.000000000000000000e+00 0.000000000000000000e+00
-1.102868941299999905e+00 7.543377512399999318e+01 2.419005615766000119e+02 0.000000000000000000e+00 0.000000000000000000e+00 0.000000000000000000e+00
1.189833496799999946e+00 7.345118127710000522e+01 2.392840415976999964e+02 0.000000000000000000e+00 0.000000000000000000e+00 0.000000000000000000e+00
5.185108364799999592e+00 7.349388757699999530e+01 2.582739037819999908e+02 0.000000000000000000e+00 0.000000000000000000e+00 0.000000000000000000e+00
-2.196289257100000114e+00 7.493136710849999815e+01 2.518221958352000058e+02 0.000000000000000000e+00 0.000000000000000000e+00 0.000000000000000000e+00
-3.246472073500000111e+00 7.359319858130000114e+01 2.488171659386999863e+02 0.000000000000000000e+00 0.000000000000000000e+00 0.000000000000000000e+00
-1.214043639700000066e+00 7.592661953939999364e+01 2.578323680698999851e+02 0.000000000000000000e+00 0.000000000000000000e+00 0.000000000000000000e+00
3.598702396799999814e+00 7.439995403410000563e+01 2.568309662671999831e+02 0.000000000000000000e+00 0.000000000000000000e+00 0.000000000000000000e+00
1.718065389800000009e+00 7.648711658989999762e+01 2.588160504694000110e+02 0.000000000000000000e+00 0.000000000000000000e+00 0.000000000000000000e+00
-1.126101929400000090e+00 7.584088589680000325e+01 2.443368955425000024e+02 0.000000000000000000e+00 0.000000000000000000e+00 0.000000000000000000e+00
5.750727271599999746e+00 7.338221361909999985e+01 2.573398524130000169e+02 0.000000000000000000e+00 0.000000000000000000e+00 0.000000000000000000e+00
-8.592231714000000409e-01 7.441377866649999362e+01 2.598606941442999982e+02 0.000000000000000000e+00 0.000000000000000000e+00 0.000000000000000000e+00
7.115981232000000434e-01 7.342971520970000654e+01 2.392836892656999908e+02 0.000000000000000000e+00 0.000000000000000000e+00 0.000000000000000000e+00
-2.287538545099999876e+00 7.373183047039999849e+01 2.453042510827000058e+02 0.000000000000000000e+00 0.000000000000000000e+00 0.000000000000000000e+00
3.492449686000000053e+00 7.595909074089999535e+01 2.556530802942000093e+02 0.000000000000000000e+00 0.000000000000000000e+00 0.000000000000000000e+00
3.198123995100000005e+00 7.352845582310000339e+01 2.623531544250000138e+02 0.000000000000000000e+00 0.000000000000000000e+00 0.000000000000000000e+00
1.652122067599999911e+00 7.398817110609999759e+01 2.397515720730999931e+02 0.000000000000000000e+00 0.000000000000000000e+00 0.000000000000000000e+00
4.529979658900000317e+00 7.451453591160000656e+01 2.508497443722999947e+02 0.000000000000000000e+00 0.000000000000000000e+00 0.000000000000000000e+00
-1.306719421099999945e+00 7.488663903840000557e+01 2.582886949589999972e+02 0.000000000000000000e+00 0.000000000000000000e+00 0.000000000000000000e+00
3.639143415299999962e+00 7.493632218540000167e+01 2.428352846079000074e+02 0.000000000000000000e+00 0.000000000000000000e+00 0.000000000000000000e+00
3.634275581899999885e+00 7.372500004789999650e+01 2.603061371092999821e+02 0.000000000000000000e+00 0.000000000000000000e+00 0.000000000000000000e+00
-7.660757275999999782e-01 7.629440387859999362e+01 2.573114740620000020e+02 0.000000000000000000e+00 0.000000000000000000e+00 0.000000000000000000e+00
5.632183724299999916e+00 7.318082541469999569e+01 2.597300675170000090e+02 0.000000000000000000e+00 0.000000000000000000e+00 0.000000000000000000e+00
4.670889195500000035e+00 7.390451917369999535e+01 2.422960191319000103e+02 0.000000000000000000e+00 0.000000000000000000e+00 0.000000000000000000e+00
3.347605370100000144e+00 7.541693593300000487e+01 2.563329426706999925e+02 0.000000000000000000e+00 0.000000000000000000e+00 0.000000000000000000e+00
5.294499057900000416e+00 7.360809264130000429e+01 2.437835515378000082e+02 0.000000000000000000e+00 0.000000000000000000e+00 0.000000000000000000e+00
5.727365662300000437e+00 7.354173000039999408e+01 2.448173534233999931e+02 0.000000000000000000e+00 0.000000000000000000e+00 0.000000000000000000e+00
3.405914882299999835e+00 7.543058952350000368e+01 2.422896445691000054e+02 0.000000000000000000e+00 0.000000000000000000e+00 0.000000000000000000e+00
5.692728452399999917e+00 7.349278366260000439e+01 2.568146639327999878e+02 0.000000000000000000e+00 0.000000000000000000e+00 0.000000000000000000e+00
3.786431898900000093e+00 7.395230586290000474e+01 2.423379879915000004e+02 0.000000000000000000e+00 0.000000000000000000e+00 0.000000000000000000e+00
4.221425905600000306e+00 7.386080035189999649e+01 2.573449855559999833e+02 0.000000000000000000e+00 0.000000000000000000e+00 0.000000000000000000e+00
4.231921372499999556e+00 7.386633487730000525e+01 2.578349544388000254e+02 0.000000000000000000e+00 0.000000000000000000e+00 0.000000000000000000e+00
3.604141872300000049e+00 7.433668816479999464e+01 2.409606867155000032e+02 0.000000000000000000e+00 0.000000000000000000e+00 0.000000000000000000e+00
4.195653840500000342e+00 7.422090418880000584e+01 2.448301567178999960e+02 0.000000000000000000e+00 0.000000000000000000e+00 0.000000000000000000e+00
4.776214209799999999e+00 7.407360144630000320e+01 2.493621740268000053e+02 0.000000000000000000e+00 0.000000000000000000e+00 0.000000000000000000e+00
4.712661696499999664e+00 7.404524514620000275e+01 2.507789722720999919e+02 0.000000000000000000e+00 0.000000000000000000e+00 0.000000000000000000e+00
4.233607275799999847e+00 7.378021650339999837e+01 2.593101360476999844e+02 0.000000000000000000e+00 0.000000000000000000e+00 0.000000000000000000e+00
3.658433041799999952e+00 7.441393943890000173e+01 2.448368739564999998e+02 0.000000000000000000e+00 0.000000000000000000e+00 0.000000000000000000e+00
3.686781195600000061e+00 7.444185172790000138e+01 2.473267935016999957e+02 0.000000000000000000e+00 0.000000000000000000e+00 0.000000000000000000e+00
4.083791467700000233e+00 7.427937651829999766e+01 2.482799242503000130e+02 0.000000000000000000e+00 0.000000000000000000e+00 0.000000000000000000e+00
4.163959107400000192e+00 7.435979996540000059e+01 2.493169625284999995e+02 0.000000000000000000e+00 0.000000000000000000e+00 0.000000000000000000e+00
4.118314283900000206e+00 7.427773445799999763e+01 2.507916725169000074e+02 0.000000000000000000e+00 0.000000000000000000e+00 0.000000000000000000e+00
4.074102844599999607e+00 7.431377066890000549e+01 2.518555411886999877e+02 0.000000000000000000e+00 0.000000000000000000e+00 0.000000000000000000e+00
3.732625091100000070e+00 7.444385900010000512e+01 2.532962519920999966e+02 0.000000000000000000e+00 0.000000000000000000e+00 0.000000000000000000e+00
3.402188589400000129e+00 7.544594229850000033e+01 2.472993474271999901e+02 0.000000000000000000e+00 0.000000000000000000e+00 0.000000000000000000e+00
3.390875491600000124e+00 7.541346552730000496e+01 2.493300898585999903e+02 0.000000000000000000e+00 0.000000000000000000e+00 0.000000000000000000e+00
3.393250050599999845e+00 7.544399103640000703e+01 2.543180364675000078e+02 0.000000000000000000e+00 0.000000000000000000e+00 0.000000000000000000e+00
3.363381320099999794e+00 7.541407090510000444e+01 2.583537618587000111e+02 0.000000000000000000e+00 0.000000000000000000e+00 0.000000000000000000e+00
4.260867617099999727e+00 7.410322347579999303e+01 2.463740485607000039e+02 0.000000000000000000e+00 0.000000000000000000e+00 0.000000000000000000e+00
3.471772801599999791e+00 7.491504542890000096e+01 2.422512573147000126e+02 0.000000000000000000e+00 0.000000000000000000e+00 0.000000000000000000e+00
3.589273052999999880e+00 7.486319264070000656e+01 2.543314534744000071e+02 0.000000000000000000e+00 0.000000000000000000e+00 0.000000000000000000e+00
4.206908086200000341e+00 7.290888672399999848e+01 2.378354670662000103e+02 0.000000000000000000e+00 0.000000000000000000e+00 0.000000000000000000e+00
2.729268242699999902e+00 7.649694962099999884e+01 2.503579964984000128e+02 0.000000000000000000e+00 0.000000000000000000e+00 0.000000000000000000e+00
-3.404232887800000107e+00 7.364337782200000504e+01 2.472239947600000107e+02 0.000000000000000000e+00 0.000000000000000000e+00 0.000000000000000000e+00
-1.829609051000000042e+00 7.510066871829999968e+01 2.467511058936999859e+02 0.000000000000000000e+00 0.000000000000000000e+00 0.000000000000000000e+00
3.495434996300000208e+00 7.632958103219999657e+01 2.564738496185000258e+02 0.000000000000000000e+00 0.000000000000000000e+00 0.000000000000000000e+00
3.243327754200000079e+00 7.440475178939999523e+01 2.407734974452999950e+02 0.000000000000000000e+00 0.000000000000000000e+00 0.000000000000000000e+00
3.613548542899999827e+00 7.491037599029999683e+01 2.482831637468999872e+02 0.000000000000000000e+00 0.000000000000000000e+00 0.000000000000000000e+00
2.176739336999999885e+00 7.535999247600000217e+01 2.597049777354999947e+02 0.000000000000000000e+00 0.000000000000000000e+00 0.000000000000000000e+00
-3.474408415700000141e+00 7.310979839050000351e+01 2.583951704189000225e+02 0.000000000000000000e+00 0.000000000000000000e+00 0.000000000000000000e+00
3.598087965800000010e+00 7.445428632789999313e+01 2.413068002880000051e+02 0.000000000000000000e+00 0.000000000000000000e+00 0.000000000000000000e+00
-1.132576723999999979e+00 7.586211031630000434e+01 2.447941370339000002e+02 0.000000000000000000e+00 0.000000000000000000e+00 0.000000000000000000e+00
-8.081537422000000248e-01 7.335014508650000664e+01 2.392825965328999871e+02 0.000000000000000000e+00 0.000000000000000000e+00 0.000000000000000000e+00
4.575214817600000039e+00 7.439454587950000075e+01 2.458481795666999972e+02 0.000000000000000000e+00 0.000000000000000000e+00 0.000000000000000000e+00
4.368694034799999848e+00 7.412380036129999894e+01 2.513916177041000140e+02 0.000000000000000000e+00 0.000000000000000000e+00 0.000000000000000000e+00
-2.544603740299999917e+00 7.418100813460000609e+01 2.411998604068000134e+02 0.000000000000000000e+00 0.000000000000000000e+00 0.000000000000000000e+00
2.749867086100000080e+00 7.648321871810000516e+01 2.533075986828000055e+02 0.000000000000000000e+00 0.000000000000000000e+00 0.000000000000000000e+00
-1.522383736199999893e+00 7.437802101789999654e+01 2.601476542322999990e+02 0.000000000000000000e+00 0.000000000000000000e+00 0.000000000000000000e+00
-2.619494129000000116e-01 7.628421166409999898e+01 2.428263221519000012e+02 0.000000000000000000e+00 0.000000000000000000e+00 0.000000000000000000e+00
5.182835634399999947e+00 7.387159814519999657e+01 2.538565070864999882e+02 0.000000000000000000e+00 0.000000000000000000e+00 0.000000000000000000e+00
2.474645860999999947e+00 7.627399357000000180e+01 2.589072007570999858e+02 0.000000000000000000e+00 0.000000000000000000e+00 0.000000000000000000e+00
-1.879464532599999904e+00 7.413937010230000624e+01 2.513080219907000128e+02 0.000000000000000000e+00 0.000000000000000000e+00 0.000000000000000000e+00
-1.203413401800000004e+00 7.493846679829999857e+01 2.453022796660999916e+02 0.000000000000000000e+00 0.000000000000000000e+00 0.000000000000000000e+00
-1.362933922300000100e+00 7.430147837600000571e+01 2.400379286904999958e+02 0.000000000000000000e+00 0.000000000000000000e+00 0.000000000000000000e+00
7.442455304999999743e-01 7.642549993980000522e+01 2.488463854054000137e+02 0.000000000000000000e+00 0.000000000000000000e+00 0.000000000000000000e+00
-3.823533730499999894e+00 7.356803264959999922e+01 2.502909541289000117e+02 0.000000000000000000e+00 0.000000000000000000e+00 0.000000000000000000e+00
-1.347013132999999918e+00 7.360020871599999737e+01 2.608366930326000102e+02 0.000000000000000000e+00 0.000000000000000000e+00 0.000000000000000000e+00
3.304632000599999841e+00 7.587327491909999821e+01 2.518517343736000100e+02 0.000000000000000000e+00 0.000000000000000000e+00 0.000000000000000000e+00
-4.714848409999999879e-02 7.367349742769999921e+01 2.405486517957000103e+02 0.000000000000000000e+00 0.000000000000000000e+00 0.000000000000000000e+00
6.546198163999999986e-01 7.538195472089999782e+01 2.414078464904999919e+02 0.000000000000000000e+00 0.000000000000000000e+00 0.000000000000000000e+00
-1.149070747899999967e+00 7.595011240860000612e+01 2.503230359949999979e+02 0.000000000000000000e+00 0.000000000000000000e+00 0.000000000000000000e+00
-1.939987131200000103e+00 7.360141177949999758e+01 2.427977069165000046e+02 0.000000000000000000e+00 0.000000000000000000e+00 0.000000000000000000e+00
5.081476344100000375e+00 7.323269188109999561e+01 2.608028968323000072e+02 0.000000000000000000e+00 0.000000000000000000e+00 0.000000000000000000e+00
2.805492172300000142e+00 7.611870200010000076e+01 2.583474503393999839e+02 0.000000000000000000e+00 0.000000000000000000e+00 0.000000000000000000e+00
-1.774772577500000059e+00 7.517150531119999357e+01 2.469808457986999883e+02 0.000000000000000000e+00 0.000000000000000000e+00 0.000000000000000000e+00
-1.663223180299999937e+00 7.423934757659999661e+01 2.527929699869000046e+02 0.000000000000000000e+00 0.000000000000000000e+00 0.000000000000000000e+00
-7.948322764999999901e-01 7.334183815459999778e+01 2.398068728414999953e+02 0.000000000000000000e+00 0.000000000000000000e+00 0.000000000000000000e+00
-1.101852534400000083e+00 7.587264555810000388e+01 2.472882795728999952e+02 0.000000000000000000e+00 0.000000000000000000e+00 0.000000000000000000e+00
5.760231078100000346e+00 7.361243264150000698e+01 2.542924702255000113e+02 0.000000000000000000e+00 0.000000000000000000e+00 0.000000000000000000e+00
3.358039171000000156e+00 7.592703535649999935e+01 2.472696904206999875e+02 0.000000000000000000e+00 0.000000000000000000e+00 0.000000000000000000e+00
3.487285273699999966e+00 7.633460120889999700e+01 2.555787388020999913e+02 0.000000000000000000e+00 0.000000000000000000e+00 0.000000000000000000e+00
5.227229283999999865e+00 7.331743519910000373e+01 2.598223427179000282e+02 0.000000000000000000e+00 0.000000000000000000e+00 0.000000000000000000e+00
1.746280207000000084e+00 7.637256253179999987e+01 2.468414199931999917e+02 0.000000000000000000e+00 0.000000000000000000e+00 0.000000000000000000e+00
3.579569958300000021e+00 7.429828727119999598e+01 2.583134712770000192e+02 0.000000000000000000e+00 0.000000000000000000e+00 0.000000000000000000e+00
-1.791855713599999955e+00 7.380510402669999337e+01 2.582993592652999837e+02 0.000000000000000000e+00 0.000000000000000000e+00 0.000000000000000000e+00
3.474197189299999877e+00 7.548338452849999669e+01 2.557132508926999890e+02 0.000000000000000000e+00 0.000000000000000000e+00 0.000000000000000000e+00
3.763186050099999846e+00 7.393439375009999992e+01 2.417748586529000079e+02 0.000000000000000000e+00 0.000000000000000000e+00 0.000000000000000000e+00
1.783864734400000041e+00 7.379259651200000292e+01 2.613194483314999843e+02 0.000000000000000000e+00 0.000000000000000000e+00 0.000000000000000000e+00
3.538331803899999795e+00 7.570549782109999626e+01 2.414810862328000098e+02 0.000000000000000000e+00 0.000000000000000000e+00 0.000000000000000000e+00
4.184530104500000292e+00 7.400419270860000154e+01 2.448404212270999949e+02 0.000000000000000000e+00 0.000000000000000000e+00 0.000000000000000000e+00
1.694484510699999946e+00 7.377074283269999455e+01 2.617960451544000193e+02 0.000000000000000000e+00 0.000000000000000000e+00 0.000000000000000000e+00
7.546041069000000157e-01 7.644211354739999820e+01 2.513292479362000051e+02 0.000000000000000000e+00 0.000000000000000000e+00 0.000000000000000000e+00
-2.332388065199999971e+00 7.310545036540000297e+01 2.402822092044999920e+02 0.000000000000000000e+00 0.000000000000000000e+00 0.000000000000000000e+00
4.029644171600000213e+00 7.496957841660000099e+01 2.563089389066000194e+02 0.000000000000000000e+00 0.000000000000000000e+00 0.000000000000000000e+00
2.796023983900000065e+00 7.360274418090000381e+01 2.618195492671000011e+02 0.000000000000000000e+00 0.000000000000000000e+00 0.000000000000000000e+00
2.357338670999999941e-01 7.411263899349999917e+01 2.407401872202999868e+02 0.000000000000000000e+00 0.000000000000000000e+00 0.000000000000000000e+00
5.633711862700000239e+00 7.371922420789999819e+01 2.532834729612000046e+02 0.000000000000000000e+00 0.000000000000000000e+00 0.000000000000000000e+00
3.526429863200000181e+00 7.442780388289999394e+01 2.417863933408999912e+02 0.000000000000000000e+00 0.000000000000000000e+00 0.000000000000000000e+00
3.349147550500000126e+00 7.592723753159999944e+01 2.568140316146000259e+02 0.000000000000000000e+00 0.000000000000000000e+00 0.000000000000000000e+00
-2.598610732400000067e+00 7.439939681959999973e+01 2.584312138523999920e+02 0.000000000000000000e+00 0.000000000000000000e+00 0.000000000000000000e+00
2.794476921799999847e+00 7.461542069210000250e+01 2.599454043348999903e+02 0.000000000000000000e+00 0.000000000000000000e+00 0.000000000000000000e+00
1.190880137399999983e+00 7.649182392689999688e+01 2.528306682163000119e+02 0.000000000000000000e+00 0.000000000000000000e+00 0.000000000000000000e+00
-3.269263905899999934e+00 7.359251454399999659e+01 2.497620670652999877e+02 0.000000000000000000e+00 0.000000000000000000e+00 0.000000000000000000e+00
-3.452319472700000169e+00 7.331921315089999780e+01 2.408200743980000027e+02 0.000000000000000000e+00 0.000000000000000000e+00 0.000000000000000000e+00
5.831859936499999897e+00 7.314998117829999558e+01 2.584805892868000115e+02 0.000000000000000000e+00 0.000000000000000000e+00 0.000000000000000000e+00
2.159324679000000080e-01 7.341366150140000002e+01 2.392763169337999898e+02 0.000000000000000000e+00 0.000000000000000000e+00 0.000000000000000000e+00
-1.253205696199999997e+00 7.487531278199999463e+01 2.568032001302000253e+02 0.000000000000000000e+00 0.000000000000000000e+00 0.000000000000000000e+00
4.690619257399999853e+00 7.381518751389999977e+01 2.437974394564000136e+02 0.000000000000000000e+00 0.000000000000000000e+00 0.000000000000000000e+00
3.696740684099999896e+00 7.322992679739999744e+01 2.383585115218999988e+02 0.000000000000000000e+00 0.000000000000000000e+00 0.000000000000000000e+00
3.170406543999999993e+00 7.320627003369999386e+01 2.378508589122000103e+02 0.000000000000000000e+00 0.000000000000000000e+00 0.000000000000000000e+00
-2.182004447000000180e+00 7.494840705590000596e+01 2.527880935283000099e+02 0.000000000000000000e+00 0.000000000000000000e+00 0.000000000000000000e+00
3.746578469400000166e+00 7.403223529260000646e+01 2.578166876610999907e+02 0.000000000000000000e+00 0.000000000000000000e+00 0.000000000000000000e+00
-1.807359027099999960e+00 7.349160220029999380e+01 2.613367689569000163e+02 0.000000000000000000e+00 0.000000000000000000e+00 0.000000000000000000e+00
2.071635708000000020e-01 7.446043319669999505e+01 2.400372956919999865e+02 0.000000000000000000e+00 0.000000000000000000e+00 0.000000000000000000e+00
3.664283055899999919e+00 7.492326562520000266e+01 2.522590348815000141e+02 0.000000000000000000e+00 0.000000000000000000e+00 0.000000000000000000e+00
7.019194299000000026e-01 7.633582748409999397e+01 2.432999960429000055e+02 0.000000000000000000e+00 0.000000000000000000e+00 0.000000000000000000e+00
3.446245691600000161e+00 7.493191810179999379e+01 2.428191825208000125e+02 0.000000000000000000e+00 0.000000000000000000e+00 0.000000000000000000e+00
3.509658546699999881e+00 7.485976047100000130e+01 2.558217630476000011e+02 0.000000000000000000e+00 0.000000000000000000e+00 0.000000000000000000e+00
-1.212329091199999986e+00 7.434767210009999872e+01 2.428000408377000099e+02 0.000000000000000000e+00 0.000000000000000000e+00 0.000000000000000000e+00
-2.276546070000000088e-01 7.325877983549999328e+01 2.383043132567999862e+02 0.000000000000000000e+00 0.000000000000000000e+00 0.000000000000000000e+00
2.234017507899999977e+00 7.650665327980000541e+01 2.548114788750999935e+02 0.000000000000000000e+00 0.000000000000000000e+00 0.000000000000000000e+00
2.222365081700000022e+00 7.635198423970000192e+01 2.453125366856000085e+02 0.000000000000000000e+00 0.000000000000000000e+00 0.000000000000000000e+00
-2.879947905899999938e+00 7.363343564369999683e+01 2.563067784581999717e+02 0.000000000000000000e+00 0.000000000000000000e+00 0.000000000000000000e+00
-2.260662283000000050e-01 7.364649224990000675e+01 2.614454423852000104e+02 0.000000000000000000e+00 0.000000000000000000e+00 0.000000000000000000e+00
2.236660097600000174e+00 7.302616164020000156e+01 2.378454435934000060e+02 0.000000000000000000e+00 0.000000000000000000e+00 0.000000000000000000e+00
5.221315971200000128e+00 7.297414580039999521e+01 2.392706688600999883e+02 0.000000000000000000e+00 0.000000000000000000e+00 0.000000000000000000e+00
-1.743264433100000010e+00 7.347918290920000572e+01 2.413112007617999950e+02 0.000000000000000000e+00 0.000000000000000000e+00 0.000000000000000000e+00
2.694156710999999760e-01 7.326893767420000358e+01 2.383157485339999937e+02 0.000000000000000000e+00 0.000000000000000000e+00 0.000000000000000000e+00
2.525806409999999946e-01 7.483549258579999730e+01 2.402276066633999960e+02 0.000000000000000000e+00 0.000000000000000000e+00 0.000000000000000000e+00
5.692455452299999941e+00 7.378150306579999551e+01 2.502954398196000056e+02 0.000000000000000000e+00 0.000000000000000000e+00 0.000000000000000000e+00
2.739457658900000148e+00 7.390342057690000388e+01 2.399257941644000027e+02 0.000000000000000000e+00 0.000000000000000000e+00 0.000000000000000000e+00
1.787973868399999944e+00 7.644459922880000136e+01 2.488195919220999883e+02 0.000000000000000000e+00 0.000000000000000000e+00 0.000000000000000000e+00
1.668843294199999994e+00 7.652719088409999415e+01 2.553521283233000077e+02 0.000000000000000000e+00 0.000000000000000000e+00 0.000000000000000000e+00
3.483248576499999860e+00 7.570147403369999495e+01 2.452844200183000112e+02 0.000000000000000000e+00 0.000000000000000000e+00 0.000000000000000000e+00
3.501370898499999829e+00 7.601530526780000230e+01 2.503186879261000115e+02 0.000000000000000000e+00 0.000000000000000000e+00 0.000000000000000000e+00
1.687273495899999975e+00 7.306025324019999800e+01 2.378739575532000003e+02 0.000000000000000000e+00 0.000000000000000000e+00 0.000000000000000000e+00
-8.342065967999999776e-01 7.299532217249999633e+01 2.378458437186999959e+02 0.000000000000000000e+00 0.000000000000000000e+00 0.000000000000000000e+00
4.759097722599999969e+00 7.360337032760000398e+01 2.423268950599000107e+02 0.000000000000000000e+00 0.000000000000000000e+00 0.000000000000000000e+00
4.386812221799999634e+00 7.414626864529999750e+01 2.522958159083999874e+02 0.000000000000000000e+00 0.000000000000000000e+00 0.000000000000000000e+00
3.180007994799999960e+00 7.374535956859999430e+01 2.608000828543999887e+02 0.000000000000000000e+00 0.000000000000000000e+00 0.000000000000000000e+00
3.442517039300000192e+00 7.501204504010000562e+01 2.514389539452000122e+02 0.000000000000000000e+00 0.000000000000000000e+00 0.000000000000000000e+00
2.753551351800000102e+00 7.613640479410000239e+01 2.527947080456999913e+02 0.000000000000000000e+00 0.000000000000000000e+00 0.000000000000000000e+00
5.234304514599999791e+00 7.305985481669999615e+01 2.402919706781000002e+02 0.000000000000000000e+00 0.000000000000000000e+00 0.000000000000000000e+00
-2.084673479600000157e+00 7.367998938629999373e+01 2.439861450216999970e+02 0.000000000000000000e+00 0.000000000000000000e+00 0.000000000000000000e+00
-1.309136847800000059e+00 7.440038367030000188e+01 2.443369856045000006e+02 0.000000000000000000e+00 0.000000000000000000e+00 0.000000000000000000e+00
-3.285229316900000196e+00 7.323397192950000090e+01 2.422631041376000098e+02 0.000000000000000000e+00 0.000000000000000000e+00 0.000000000000000000e+00
4.132237423900000373e+00 7.429171434449999367e+01 2.488582888930000081e+02 0.000000000000000000e+00 0.000000000000000000e+00 0.000000000000000000e+00
4.725475853299999862e+00 7.399089666150000255e+01 2.463407029009999860e+02 0.000000000000000000e+00 0.000000000000000000e+00 0.000000000000000000e+00
-3.571047917900000090e+00 7.378446976440000071e+01 2.487342265810999891e+02 0.000000000000000000e+00 0.000000000000000000e+00 0.000000000000000000e+00
5.461355555399999950e+00 7.364036302249999721e+01 2.446468388216999870e+02 0.000000000000000000e+00 0.000000000000000000e+00 0.000000000000000000e+00
3.714390692099999836e+00 7.445257095670000069e+01 2.478173833804000026e+02 0.000000000000000000e+00 0.000000000000000000e+00 0.000000000000000000e+00
-1.032588006199999908e+00 7.364403859589999968e+01 2.604651924359999953e+02 0.000000000000000000e+00 0.000000000000000000e+00 0.000000000000000000e+00
-1.214732447700000106e+00 7.484891077919999702e+01 2.498265548839999894e+02 0.000000000000000000e+00 0.000000000000000000e+00 0.000000000000000000e+00
-3.384838538699999955e+00 7.371625541470000087e+01 2.447942344687000116e+02 0.000000000000000000e+00 0.000000000000000000e+00 0.000000000000000000e+00
-2.757347868300000115e+00 7.392030520539999827e+01 2.518096712438000111e+02 0.000000000000000000e+00 0.000000000000000000e+00 0.000000000000000000e+00
-3.695244164700000056e+00 7.273691098460000148e+01 2.623314194993000115e+02 0.000000000000000000e+00 0.000000000000000000e+00 0.000000000000000000e+00
5.241902897100000125e+00 7.383452831850000564e+01 2.548050635225000065e+02 0.000000000000000000e+00 0.000000000000000000e+00 0.000000000000000000e+00
-1.175689855599999945e+00 7.548683745549999458e+01 2.472994540809999933e+02 0.000000000000000000e+00 0.000000000000000000e+00 0.000000000000000000e+00
-1.219057867799999917e+00 7.591796177450000016e+01 2.588154750156999739e+02 0.000000000000000000e+00 0.000000000000000000e+00 0.000000000000000000e+00
3.608067134100000128e+00 7.368092555699999480e+01 2.615896305023999844e+02 0.000000000000000000e+00 0.000000000000000000e+00 0.000000000000000000e+00
4.619362309599999605e+00 7.400043969989999937e+01 2.543362624055000083e+02 0.000000000000000000e+00 0.000000000000000000e+00 0.000000000000000000e+00
3.703373616199999940e+00 7.446532293570000149e+01 2.507872965484000076e+02 0.000000000000000000e+00 0.000000000000000000e+00 0.000000000000000000e+00
6.809121126999999607e-01 7.652229274840000528e+01 2.553502586657999984e+02 0.000000000000000000e+00 0.000000000000000000e+00 0.000000000000000000e+00
4.112765003099999817e+00 7.427155738049999911e+01 2.463215203944999985e+02 0.000000000000000000e+00 0.000000000000000000e+00 0.000000000000000000e+00
-3.149956301999999875e-01 7.437596070989999930e+01 2.593440740399000219e+02 0.000000000000000000e+00 0.000000000000000000e+00 0.000000000000000000e+00
4.073068319999999964e+00 7.436681589379999480e+01 2.593021069238999985e+02 0.000000000000000000e+00 0.000000000000000000e+00 0.000000000000000000e+00
4.704029223100000046e+00 7.385972879930000090e+01 2.557935248279999882e+02 0.000000000000000000e+00 0.000000000000000000e+00 0.000000000000000000e+00
3.643323149900000057e+00 7.496312456420000103e+01 2.478457644673999880e+02 0.000000000000000000e+00 0.000000000000000000e+00 0.000000000000000000e+00
3.603061215999999956e+00 7.485645214630000055e+01 2.538550950025999953e+02 0.000000000000000000e+00 0.000000000000000000e+00 0.000000000000000000e+00
-2.393246011800000073e+00 7.468035944199999676e+01 2.489310680549000097e+02 0.000000000000000000e+00 0.000000000000000000e+00 0.000000000000000000e+00
3.441277222400000113e+00 7.493274325989999340e+01 2.433277074208000101e+02 0.000000000000000000e+00 0.000000000000000000e+00 0.000000000000000000e+00
2.742591600399999940e+00 7.609964120940000498e+01 2.478201476497000044e+02 0.000000000000000000e+00 0.000000000000000000e+00 0.000000000000000000e+00
2.175980829999999866e+00 7.595623829570000396e+01 2.587125707637999881e+02 0.000000000000000000e+00 0.000000000000000000e+00 0.000000000000000000e+00
3.859178706199999809e+00 7.517915007729999388e+01 2.523604544611999927e+02 0.000000000000000000e+00 0.000000000000000000e+00 0.000000000000000000e+00
-1.231011561899999940e+00 7.544184421529999440e+01 2.528392027232999908e+02 0.000000000000000000e+00 0.000000000000000000e+00 0.000000000000000000e+00
-2.273925234000000017e+00 7.434742159770000569e+01 2.589101322331000006e+02 0.000000000000000000e+00 0.000000000000000000e+00 0.000000000000000000e+00
3.581892200199999987e+00 7.484918488850000529e+01 2.552081013631000133e+02 0.000000000000000000e+00 0.000000000000000000e+00 0.000000000000000000e+00
3.843235015699999924e+00 7.520778677229999687e+01 2.528394847732000130e+02 0.000000000000000000e+00 0.000000000000000000e+00 0.000000000000000000e+00
4.061950817699999661e+00 7.420442629459999750e+01 2.458071962630000087e+02 0.000000000000000000e+00 0.000000000000000000e+00 0.000000000000000000e+00
-1.267574971599999989e+00 7.438622338589999572e+01 2.448216769217000035e+02 0.000000000000000000e+00 0.000000000000000000e+00 0.000000000000000000e+00
3.835397942899999801e+00 7.520299193380000702e+01 2.513033048023000049e+02 0.000000000000000000e+00 0.000000000000000000e+00 0.000000000000000000e+00
4.663852723999999839e+00 7.282862143900000262e+01 2.378551268049000100e+02 0.000000000000000000e+00 0.000000000000000000e+00 0.000000000000000000e+00
-7.449356810999999690e-01 7.627719742349999876e+01 2.578653562118000195e+02 0.000000000000000000e+00 0.000000000000000000e+00 0.000000000000000000e+00
-1.457963906999999892e+00 7.582327718839999875e+01 2.597131896102000042e+02 0.000000000000000000e+00 0.000000000000000000e+00 0.000000000000000000e+00
2.132216255999999921e-01 7.637488832239999681e+01 2.457856263610999861e+02 0.000000000000000000e+00 0.000000000000000000e+00 0.000000000000000000e+00
-2.061525372100000197e+00 7.417981706960000565e+01 2.402319707949999952e+02 0.000000000000000000e+00 0.000000000000000000e+00 0.000000000000000000e+00
3.371974189099999908e+00 7.591828048470000567e+01 2.572859297392000144e+02 0.000000000000000000e+00 0.000000000000000000e+00 0.000000000000000000e+00
3.647464223800000127e+00 7.490327192329999662e+01 2.547680327820999935e+02 0.000000000000000000e+00 0.000000000000000000e+00 0.000000000000000000e+00
4.091432346999999581e+00 7.432328036730000065e+01 2.503208574848999888e+02 0.000000000000000000e+00 0.000000000000000000e+00 0.000000000000000000e+00
5.160995219600000183e+00 7.393813165189999381e+01 2.518372935111999880e+02 0.000000000000000000e+00 0.000000000000000000e+00 0.000000000000000000e+00
3.506325067300000153e+00 7.536939642580000509e+01 2.429352573506999988e+02 0.000000000000000000e+00 0.000000000000000000e+00 0.000000000000000000e+00
3.625349093800000144e+00 7.488085582150000619e+01 2.493011486023000032e+02 0.000000000000000000e+00 0.000000000000000000e+00 0.000000000000000000e+00
1.082850380700000059e+00 7.316128476769999622e+01 2.386300556147000123e+02 0.000000000000000000e+00 0.000000000000000000e+00 0.000000000000000000e+00
-2.550838316999999855e-01 7.579724288010000066e+01 2.408624041552000108e+02 0.000000000000000000e+00 0.000000000000000000e+00 0.000000000000000000e+00
3.376665448299999817e+00 7.584917176989999632e+01 2.478471151363999923e+02 0.000000000000000000e+00 0.000000000000000000e+00 0.000000000000000000e+00
-2.161999848299999805e+00 7.496741848850000167e+01 2.572988543467999989e+02 0.000000000000000000e+00 0.000000000000000000e+00 0.000000000000000000e+00
-1.446725772500000007e+00 7.404216459680000639e+01 2.583695803522999768e+02 0.000000000000000000e+00 0.000000000000000000e+00 0.000000000000000000e+00
1.726434835899999909e+00 7.365127407849999486e+01 2.618835328489000176e+02 0.000000000000000000e+00 0.000000000000000000e+00 0.000000000000000000e+00
3.588176091899999864e+00 7.491593262259999619e+01 2.448509790448999865e+02 0.000000000000000000e+00 0.000000000000000000e+00 0.000000000000000000e+00
3.747163996899999905e+00 7.403210565089999307e+01 2.582974517338000169e+02 0.000000000000000000e+00 0.000000000000000000e+00 0.000000000000000000e+00
-1.664161853299999994e+00 7.529755996810000340e+01 2.583034761544000162e+02 0.000000000000000000e+00 0.000000000000000000e+00 0.000000000000000000e+00
-2.316667425899999966e+00 7.399080295240000282e+01 2.517918410711999968e+02 0.000000000000000000e+00 0.000000000000000000e+00 0.000000000000000000e+00
4.201978526000000436e+00 7.383253327730000137e+01 2.588386960890999831e+02 0.000000000000000000e+00 0.000000000000000000e+00 0.000000000000000000e+00
-1.090456551299999965e+00 7.582450377109999806e+01 2.433161702115999958e+02 0.000000000000000000e+00 0.000000000000000000e+00 0.000000000000000000e+00
4.082191920399999674e+00 7.425071503479999535e+01 2.478318571648999864e+02 0.000000000000000000e+00 0.000000000000000000e+00 0.000000000000000000e+00
-2.154145740999999781e+00 7.498365081609999550e+01 2.533664164580000033e+02 0.000000000000000000e+00 0.000000000000000000e+00 0.000000000000000000e+00
-1.199664975999999994e+00 7.543304141820000552e+01 2.457979174161000060e+02 0.000000000000000000e+00 0.000000000000000000e+00 0.000000000000000000e+00
-1.239125762100000028e+00 7.483487050479999425e+01 2.538262012991000063e+02 0.000000000000000000e+00 0.000000000000000000e+00 0.000000000000000000e+00
4.115237715400000162e+00 7.419147654889999899e+01 2.563395812676999981e+02 0.000000000000000000e+00 0.000000000000000000e+00 0.000000000000000000e+00
1.226659192400000098e+00 7.651682241919999683e+01 2.567721782680000047e+02 0.000000000000000000e+00 0.000000000000000000e+00 0.000000000000000000e+00
2.769226031200000104e+00 7.602358155660000705e+01 2.443773437995999984e+02 0.000000000000000000e+00 0.000000000000000000e+00 0.000000000000000000e+00
-7.490254181000000067e-01 7.626508342430000198e+01 2.583437275910999915e+02 0.000000000000000000e+00 0.000000000000000000e+00 0.000000000000000000e+00
-2.881195623000000205e-01 7.444320483619999607e+01 2.400372951482999895e+02 0.000000000000000000e+00 0.000000000000000000e+00 0.000000000000000000e+00
4.291767486600000403e+00 7.410868727109999554e+01 2.538643818269000008e+02 0.000000000000000000e+00 0.000000000000000000e+00 0.000000000000000000e+00
-2.286450593000000087e-01 7.546554001149999635e+01 2.406084225376000063e+02 0.000000000000000000e+00 0.000000000000000000e+00 0.000000000000000000e+00
-1.426536327300000018e+00 7.440333078150000290e+01 2.548680325859000106e+02 0.000000000000000000e+00 0.000000000000000000e+00 0.000000000000000000e+00
3.671318107399999864e+00 7.333024014110000621e+01 2.387946654053999964e+02 0.000000000000000000e+00 0.000000000000000000e+00 0.000000000000000000e+00
6.562410212000000520e-01 7.648852042789999928e+01 2.538223399318999896e+02 0.000000000000000000e+00 0.000000000000000000e+00 0.000000000000000000e+00
2.713572481199999942e+00 7.628204225380000025e+01 2.414301008719000095e+02 0.000000000000000000e+00 0.000000000000000000e+00 0.000000000000000000e+00
-1.382322638700000050e+00 7.444192049800000177e+01 2.483401468330999933e+02 0.000000000000000000e+00 0.000000000000000000e+00 0.000000000000000000e+00
3.408222801199999985e+00 7.502472501980000175e+01 2.533057862196000087e+02 0.000000000000000000e+00 0.000000000000000000e+00 0.000000000000000000e+00
3.534641271499999959e+00 7.589197140689999799e+01 2.473612626402999979e+02 0.000000000000000000e+00 0.000000000000000000e+00 0.000000000000000000e+00
3.492870998599999943e+00 7.569401116509999383e+01 2.467386189043000115e+02 0.000000000000000000e+00 0.000000000000000000e+00 0.000000000000000000e+00
3.417987233099999855e+00 7.496489642209999715e+01 2.527886095268999895e+02 0.000000000000000000e+00 0.000000000000000000e+00 0.000000000000000000e+00
2.177960426499999880e+00 7.631560601869999516e+01 2.423116926213999989e+02 0.000000000000000000e+00 0.000000000000000000e+00 0.000000000000000000e+00
3.346871575599999815e+00 7.588984669719999943e+01 2.513193896262000067e+02 0.000000000000000000e+00 0.000000000000000000e+00 0.000000000000000000e+00
-1.291316598799999937e+00 7.486461551829999905e+01 2.558237010096000006e+02 0.000000000000000000e+00 0.000000000000000000e+00 0.000000000000000000e+00
3.260810746499999802e+00 7.441676619349999555e+01 2.588716678902000012e+02 0.000000000000000000e+00 0.000000000000000000e+00 0.000000000000000000e+00
-3.315284106999999980e-01 7.313107270999999798e+01 2.386787969648000001e+02 0.000000000000000000e+00 0.000000000000000000e+00 0.000000000000000000e+00
4.716725241699999849e+00 7.386768897540000012e+01 2.568113053841000237e+02 0.000000000000000000e+00 0.000000000000000000e+00 0.000000000000000000e+00
3.557452300100000020e+00 7.482056273329999385e+01 2.533103471812999885e+02 0.000000000000000000e+00 0.000000000000000000e+00 0.000000000000000000e+00
3.655560740599999914e+00 7.491571861570000124e+01 2.463295951883999919e+02 0.000000000000000000e+00 0.000000000000000000e+00 0.000000000000000000e+00
5.596776964600000071e+00 7.271478192120000017e+01 2.378397900564999929e+02 0.000000000000000000e+00 0.000000000000000000e+00 0.000000000000000000e+00
