-1.454895506399999983e+00 -5.079625270100000201e+00 3.284519197994000024e+02 0.000000000000000000e+00 0.000000000000000000e+00 0.000000000000000000e+00
-1.395642612400000093e+00 -5.052938800099999739e+00 3.293142112108999982e+02 0.000000000000000000e+00 0.000000000000000000e+00 0.000000000000000000e+00
-1.380477569900000034e+00 -6.576574734100000263e+00 3.283575791439999989e+02 0.000000000000000000e+00 0.000000000000000000e+00 0.000000000000000000e+00
-1.319629867099999965e+00 -8.102823805199999896e+00 3.293366708513000276e+02 0.000000000000000000e+00 0.000000000000000000e+00 0.000000000000000000e+00
-1.661151727000000022e+00 -8.108680802600000348e+00 3.296275445339999806e+02 0.000000000000000000e+00 0.000000000000000000e+00 0.000000000000000000e+00
-2.825323940200000106e+00 -1.057570643230000051e+01 3.258995932668000250e+02 0.000000000000000000e+00 0.000000000000000000e+00 0.000000000000000000e+00
-2.768845068800000142e+00 -1.110330080249999973e+01 3.257835420096000121e+02 0.000000000000000000e+00 0.000000000000000000e+00 0.000000000000000000e+00
-1.386756899100000107e+00 -8.584251193700000115e+00 3.288242307782999774e+02 0.000000000000000000e+00 0.000000000000000000e+00 0.000000000000000000e+00
-3.166754150200000062e+00 -1.208147121840000082e+01 3.251608646206000230e+02 0.000000000000000000e+00 0.000000000000000000e+00 0.000000000000000000e+00
-1.334873462700000069e+00 -9.009612023000000747e+00 3.283402496731999918e+02 0.000000000000000000e+00 0.000000000000000000e+00 0.000000000000000000e+00
-1.707209459200000001e+00 -9.560008256299999729e+00 3.292589993040999730e+02 0.000000000000000000e+00 0.000000000000000000e+00 0.000000000000000000e+00
-1.321869896199999950e+00 -1.012389653870000039e+01 3.292269998523000254e+02 0.000000000000000000e+00 0.000000000000000000e+00 0.000000000000000000e+00
-1.714315616299999956e+00 -1.100628574019999917e+01 3.267304492790000268e+02 0.000000000000000000e+00 0.000000000000000000e+00 0.000000000000000000e+00
-3.045364322200000196e+00 9.758559694400000595e+00 3.281000625788000207e+02 0.000000000000000000e+00 0.000000000000000000e+00 0.000000000000000000e+00
-1.361456044100000096e+00 -1.159158112479999936e+01 3.288053965076999816e+02 0.000000000000000000e+00 0.000000000000000000e+00 0.000000000000000000e+00
-1.318118591600000000e+00 -1.303782252919999962e+01 3.277705340974000023e+02 0.000000000000000000e+00 0.000000000000000000e+00 0.000000000000000000e+00
-1.395046238900000013e+00 -1.361650006640000043e+01 3.257552944162999893e+02 0.000000000000000000e+00 0.000000000000000000e+00 0.000000000000000000e+00
-1.340906142699999970e+00 -1.304155278560000042e+01 3.268247359896000148e+02 0.000000000000000000e+00 0.000000000000000000e+00 0.000000000000000000e+00
-1.332892446500000050e+00 -1.410970037519999920e+01 3.257669069066000134e+02 0.000000000000000000e+00 0.000000000000000000e+00 0.000000000000000000e+00
-2.155610650199999867e+00 -1.604600707539999860e+01 3.241295361429999957e+02 0.000000000000000000e+00 0.000000000000000000e+00 0.000000000000000000e+00
-1.911009645500000076e+00 -1.565036537790000004e+01 3.244238871631000052e+02 0.000000000000000000e+00 0.000000000000000000e+00 0.000000000000000000e+00
-1.263733451200000024e+00 -1.460397694839999971e+01 3.282991409582999722e+02 0.000000000000000000e+00 0.000000000000000000e+00 0.000000000000000000e+00
-8.586950036999999591e-01 -1.524517435909999996e+01 3.254264606791999768e+02 0.000000000000000000e+00 0.000000000000000000e+00 0.000000000000000000e+00
-3.302433022999999856e-01 -1.547478236909999971e+01 3.262964988713999901e+02 0.000000000000000000e+00 0.000000000000000000e+00 0.000000000000000000e+00
9.838836439999999739e-02 -1.592052157320000028e+01 3.288325854422000134e+02 0.000000000000000000e+00 0.000000000000000000e+00 0.000000000000000000e+00
-2.868450119000000020e-01 -1.764165542110000118e+01 3.238878489170999728e+02 0.000000000000000000e+00 0.000000000000000000e+00 0.000000000000000000e+00
1.609870296500000020e+00 -1.584908934249999923e+01 3.284950587661999748e+02 0.000000000000000000e+00 0.000000000000000000e+00 0.000000000000000000e+00
-1.608030563400000057e+00 -1.011274892079999965e+01 3.292742493448000118e+02 0.000000000000000000e+00 0.000000000000000000e+00 0.000000000000000000e+00
-3.199214074999999768e-01 1.099464663510000051e+01 3.324108798680999826e+02 0.000000000000000000e+00 0.000000000000000000e+00 0.000000000000000000e+00
2.798772104100000213e+00 -1.755724149779999976e+01 3.241812333414000022e+02 0.000000000000000000e+00 0.000000000000000000e+00 0.000000000000000000e+00
-1.655468198599999941e+00 1.942670819800000004e+00 3.307968919562999872e+02 0.000000000000000000e+00 0.000000000000000000e+00 0.000000000000000000e+00
2.168029159400000072e+00 9.181401354999999542e-01 3.312856330024000044e+02 0.000000000000000000e+00 0.000000000000000000e+00 0.000000000000000000e+00
-1.922191326599999917e+00 -2.540005627899999840e+00 3.284794862568999747e+02 0.000000000000000000e+00 0.000000000000000000e+00 0.000000000000000000e+00
2.161566827100000143e+00 -1.585459730499999997e+00 3.308143692058999932e+02 0.000000000000000000e+00 0.000000000000000000e+00 0.000000000000000000e+00
-1.248177967199999960e+00 -9.053613062400000189e+00 3.293127540437000107e+02 0.000000000000000000e+00 0.000000000000000000e+00 0.000000000000000000e+00
-2.446920148299999820e+00 -1.473580563330000004e+01 3.245322021947000053e+02 0.000000000000000000e+00 0.000000000000000000e+00 0.000000000000000000e+00
2.156639066299999907e+00 -6.568975297999999796e+00 3.302203901940000037e+02 0.000000000000000000e+00 0.000000000000000000e+00 0.000000000000000000e+00
-1.972990026299999977e+00 2.935951043000000205e+00 3.288955962227000214e+02 0.000000000000000000e+00 0.000000000000000000e+00 0.000000000000000000e+00
2.699339233699999951e+00 -9.080240650300000382e+00 3.298592511882000053e+02 0.000000000000000000e+00 0.000000000000000000e+00 0.000000000000000000e+00
-1.242860127900000000e+00 -7.514901093599999804e+00 3.296433230461000221e+02 0.000000000000000000e+00 0.000000000000000000e+00 0.000000000000000000e+00
-1.637639473799999967e+00 -1.156878262929999934e+01 3.272051275713000109e+02 0.000000000000000000e+00 0.000000000000000000e+00 0.000000000000000000e+00
-1.553130587300000087e+00 3.869841790699999784e+00 3.298409317861999739e+02 0.000000000000000000e+00 0.000000000000000000e+00 0.000000000000000000e+00
-3.223282499999999828e+00 1.187782785309999944e+01 3.277445182824000085e+02 0.000000000000000000e+00 0.000000000000000000e+00 0.000000000000000000e+00
1.628770004800000004e+00 2.133184339600000090e+00 3.315814857625999821e+02 0.000000000000000000e+00 0.000000000000000000e+00 0.000000000000000000e+00
2.703509810399999935e+00 -4.086475563499999630e+00 3.304619297802000233e+02 0.000000000000000000e+00 0.000000000000000000e+00 0.000000000000000000e+00
1.269183221300000053e+00 4.886420472700000239e+00 3.318888387299999749e+02 0.000000000000000000e+00 0.000000000000000000e+00 0.000000000000000000e+00
-1.467914393100000048e+00 1.092851158739999917e+01 3.303010569261999763e+02 0.000000000000000000e+00 0.000000000000000000e+00 0.000000000000000000e+00
-2.232428944000000026e+00 3.383975459100000194e+00 3.287843515075999790e+02 0.000000000000000000e+00 0.000000000000000000e+00 0.000000000000000000e+00
-2.749986677299999904e+00 -5.599741281000000237e-01 3.281683618118000254e+02 0.000000000000000000e+00 0.000000000000000000e+00 0.000000000000000000e+00
-1.728488711800000077e+00 -6.033422843400000346e+00 3.282501467770999852e+02 0.000000000000000000e+00 0.000000000000000000e+00 0.000000000000000000e+00
1.716797405399999921e+00 -1.736488321639999910e+01 3.241035099151999930e+02 0.000000000000000000e+00 0.000000000000000000e+00 0.000000000000000000e+00
-1.667452427900000034e+00 6.888924273099999773e+00 3.296345993002000228e+02 0.000000000000000000e+00 0.000000000000000000e+00 0.000000000000000000e+00
-1.677328123299999918e+00 6.940166400999999929e+00 3.318482775264999987e+02 0.000000000000000000e+00 0.000000000000000000e+00 0.000000000000000000e+00
-1.633498190200000089e+00 6.368596074300000076e+00 3.313897557245999792e+02 0.000000000000000000e+00 0.000000000000000000e+00 0.000000000000000000e+00
-2.263289144399999842e+00 4.449964129799999668e+00 3.287607764238999835e+02 0.000000000000000000e+00 0.000000000000000000e+00 0.000000000000000000e+00
-1.760646095700000080e+00 4.421650595400000050e+00 3.292714005151000265e+02 0.000000000000000000e+00 0.000000000000000000e+00 0.000000000000000000e+00
-1.552119823600000004e+00 2.865383428799999965e+00 3.297177514539999947e+02 0.000000000000000000e+00 0.000000000000000000e+00 0.000000000000000000e+00
-1.712123807700000055e+00 2.921177095000000001e+00 3.308361865021000199e+02 0.000000000000000000e+00 0.000000000000000000e+00 0.000000000000000000e+00
-2.763604502899999815e+00 9.279770508000000362e-01 3.282465736335000202e+02 0.000000000000000000e+00 0.000000000000000000e+00 0.000000000000000000e+00
-2.745034248300000090e+00 -9.895524740000000152e-02 3.281905684972999779e+02 0.000000000000000000e+00 0.000000000000000000e+00 0.000000000000000000e+00
-3.302861664699999977e+00 -1.574141921400000088e+00 3.276689558648000116e+02 0.000000000000000000e+00 0.000000000000000000e+00 0.000000000000000000e+00
-2.696666814999999939e+00 -1.093418597699999939e+00 3.281247840573000190e+02 0.000000000000000000e+00 0.000000000000000000e+00 0.000000000000000000e+00
-3.292775516499999888e+00 -2.619521181000000087e+00 3.274870162624999921e+02 0.000000000000000000e+00 0.000000000000000000e+00 0.000000000000000000e+00
-2.831270706499999790e+00 -2.036434804299999790e+00 3.278936431112999799e+02 0.000000000000000000e+00 0.000000000000000000e+00 0.000000000000000000e+00
-1.261712236799999998e+00 -7.096262076000000363e+00 3.297170880140000122e+02 0.000000000000000000e+00 0.000000000000000000e+00 0.000000000000000000e+00
-1.401000255900000102e+00 -1.079698800889999966e+01 3.270602362833000143e+02 0.000000000000000000e+00 0.000000000000000000e+00 0.000000000000000000e+00
-7.556808551999999457e-01 -5.074888238199999790e+00 3.303118340220000277e+02 0.000000000000000000e+00 0.000000000000000000e+00 0.000000000000000000e+00
1.717898281100000091e+00 3.952970413200000088e+00 3.316493075807999844e+02 0.000000000000000000e+00 0.000000000000000000e+00 0.000000000000000000e+00
4.781844768900000098e+00 -1.066148532010000061e+01 3.260089326154999867e+02 0.000000000000000000e+00 0.000000000000000000e+00 0.000000000000000000e+00
-3.081892231999999732e-01 -1.062025328650000056e+01 3.297402196776999972e+02 0.000000000000000000e+00 0.000000000000000000e+00 0.000000000000000000e+00
-1.025988539499999908e+00 1.465103687400000076e+01 3.285532633171999919e+02 0.000000000000000000e+00 0.000000000000000000e+00 0.000000000000000000e+00
7.018529611999999585e-01 -7.100212138299999864e+00 3.302396708261999834e+02 0.000000000000000000e+00 0.000000000000000000e+00 0.000000000000000000e+00
-1.635960160100000005e+00 7.490376101999999925e+00 3.319019820071000026e+02 0.000000000000000000e+00 0.000000000000000000e+00 0.000000000000000000e+00
-1.656964383400000074e+00 5.498795811699999980e+00 3.316737771314000156e+02 0.000000000000000000e+00 0.000000000000000000e+00 0.000000000000000000e+00
-1.629702262899999976e+00 2.393120204800000206e+00 3.308164947933000235e+02 0.000000000000000000e+00 0.000000000000000000e+00 0.000000000000000000e+00
-2.905753762299999821e+00 -1.590621088100000025e+00 3.278956340399000169e+02 0.000000000000000000e+00 0.000000000000000000e+00 0.000000000000000000e+00
-2.752845928000000164e+00 -2.563948236099999889e+00 3.278499260256999719e+02 0.000000000000000000e+00 0.000000000000000000e+00 0.000000000000000000e+00
-7.322626302000000420e-01 -1.567498492170000013e+01 3.287138658888999885e+02 0.000000000000000000e+00 0.000000000000000000e+00 0.000000000000000000e+00
-1.556036180900000065e+00 -1.012641788050000002e+01 3.277581002196999975e+02 0.000000000000000000e+00 0.000000000000000000e+00 0.000000000000000000e+00
-1.684289421399999931e+00 2.373227868199999868e+00 3.311775014251999778e+02 0.000000000000000000e+00 0.000000000000000000e+00 0.000000000000000000e+00
-1.531297348999999919e+00 1.399093649499999925e+00 3.311125951751000116e+02 0.000000000000000000e+00 0.000000000000000000e+00 0.000000000000000000e+00
-1.677834635099999971e+00 -6.489551091999999910e-01 3.291931020754000201e+02 0.000000000000000000e+00 0.000000000000000000e+00 0.000000000000000000e+00
-9.535467767999999955e-01 -1.058486597259999940e+01 3.295099592711000014e+02 0.000000000000000000e+00 0.000000000000000000e+00 0.000000000000000000e+00
-1.516328214000000063e+00 -8.014322985799999799e+00 3.297257827323999777e+02 0.000000000000000000e+00 0.000000000000000000e+00 0.000000000000000000e+00
-1.234912488600000025e+00 -1.549333410400000055e+01 3.278170824241000219e+02 0.000000000000000000e+00 0.000000000000000000e+00 0.000000000000000000e+00
2.161798653399999992e+00 -2.593082598300000097e+00 3.307475858485000231e+02 0.000000000000000000e+00 0.000000000000000000e+00 0.000000000000000000e+00
4.261538498500000216e+00 1.492142037150000000e+01 3.278818318808999948e+02 0.000000000000000000e+00 0.000000000000000000e+00 0.000000000000000000e+00
-1.838765558999999883e-01 -1.568495165140000047e+01 3.258710390568999742e+02 0.000000000000000000e+00 0.000000000000000000e+00 0.000000000000000000e+00
7.364696235000000035e-01 -1.607480334650000131e+01 3.263379547223000259e+02 0.000000000000000000e+00 0.000000000000000000e+00 0.000000000000000000e+00
-8.008730640000000234e-01 -1.593618391460000083e+01 3.273395310499000175e+02 0.000000000000000000e+00 0.000000000000000000e+00 0.000000000000000000e+00
4.259412427000000001e+00 1.546644057580000009e+01 3.278156252403999815e+02 0.000000000000000000e+00 0.000000000000000000e+00 0.000000000000000000e+00
1.170352258000000090e+00 -1.606306975500000078e+01 3.257838570179999920e+02 0.000000000000000000e+00 0.000000000000000000e+00 0.000000000000000000e+00
2.701296671000000260e-01 -1.593530100569999952e+01 3.263611224204000223e+02 0.000000000000000000e+00 0.000000000000000000e+00 0.000000000000000000e+00
2.768677635400000003e+00 -1.111404946839999930e+01 3.295253352368000037e+02 0.000000000000000000e+00 0.000000000000000000e+00 0.000000000000000000e+00
3.072633394999999989e+00 6.478123604800000379e+00 3.316356326604999936e+02 0.000000000000000000e+00 0.000000000000000000e+00 0.000000000000000000e+00
-2.804131298100000169e+00 1.296195348970000083e+01 3.279354610355999853e+02 0.000000000000000000e+00 0.000000000000000000e+00 0.000000000000000000e+00
-2.339895661899999979e+00 1.191387692950000066e+01 3.283411365219999993e+02 0.000000000000000000e+00 0.000000000000000000e+00 0.000000000000000000e+00
-1.866335984800000070e+00 1.089163619630000035e+01 3.288283141173000104e+02 0.000000000000000000e+00 0.000000000000000000e+00 0.000000000000000000e+00
-3.026737967899999937e+00 8.372460078499999625e+00 3.279976662014000226e+02 0.000000000000000000e+00 0.000000000000000000e+00 0.000000000000000000e+00
-3.263913931699999882e+00 9.103183965000000155e-01 3.278753962839999758e+02 0.000000000000000000e+00 0.000000000000000000e+00 0.000000000000000000e+00
1.719169403700000043e+00 -1.624513070900000145e+01 3.258127041445000032e+02 0.000000000000000000e+00 0.000000000000000000e+00 0.000000000000000000e+00
-2.952811729200000013e+00 -1.616172173560000047e+01 3.235102078570000117e+02 0.000000000000000000e+00 0.000000000000000000e+00 0.000000000000000000e+00
-2.375347170700000010e+00 1.041099314989999947e+01 3.284453308483999763e+02 0.000000000000000000e+00 0.000000000000000000e+00 0.000000000000000000e+00
1.696673017499999991e+00 -1.063970485119999942e+01 3.297251411798999925e+02 0.000000000000000000e+00 0.000000000000000000e+00 0.000000000000000000e+00
-2.803417113800000138e+00 2.403542680999999792e+00 3.283442467588999989e+02 0.000000000000000000e+00 0.000000000000000000e+00 0.000000000000000000e+00
-8.259557853000000227e-01 5.898699227399999856e+00 3.319868469973999936e+02 0.000000000000000000e+00 0.000000000000000000e+00 0.000000000000000000e+00
1.313444951099999924e+00 9.443724541899999991e+00 3.325162749709999730e+02 0.000000000000000000e+00 0.000000000000000000e+00 0.000000000000000000e+00
-3.014589937899999850e+00 9.599610665900000228e+00 3.279544939264000050e+02 0.000000000000000000e+00 0.000000000000000000e+00 0.000000000000000000e+00
2.298383118799999902e+00 1.247462587040000059e+01 3.289122011965999945e+02 0.000000000000000000e+00 0.000000000000000000e+00 0.000000000000000000e+00
1.270559711800000047e+00 1.090265206329999970e+01 3.323520707842000093e+02 0.000000000000000000e+00 0.000000000000000000e+00 0.000000000000000000e+00
7.282310428999999585e-01 4.686864359999999841e-01 3.313052497908000191e+02 0.000000000000000000e+00 0.000000000000000000e+00 0.000000000000000000e+00
-2.799794282999999995e-01 8.561875947000000542e-01 3.313482915411000249e+02 0.000000000000000000e+00 0.000000000000000000e+00 0.000000000000000000e+00
-7.867166021000000509e-01 -1.130157891999999942e+00 3.309924513675999833e+02 0.000000000000000000e+00 0.000000000000000000e+00 0.000000000000000000e+00
-2.853880338300000208e+00 1.286883930539999987e+01 3.282616497546000005e+02 0.000000000000000000e+00 0.000000000000000000e+00 0.000000000000000000e+00
-2.828774325399999956e+00 1.242883319469999925e+01 3.279552877205999835e+02 0.000000000000000000e+00 0.000000000000000000e+00 0.000000000000000000e+00
-2.173112601999999782e+00 1.181593183440000061e+01 3.287285733639000114e+02 0.000000000000000000e+00 0.000000000000000000e+00 0.000000000000000000e+00
-1.453374308799999959e+00 1.143677460730000028e+01 3.297873118901999874e+02 0.000000000000000000e+00 0.000000000000000000e+00 0.000000000000000000e+00
-3.486780734299999907e+00 1.103591468800000008e+01 3.274668907152000088e+02 0.000000000000000000e+00 0.000000000000000000e+00 0.000000000000000000e+00
-2.099082933700000098e+00 1.087711178650000043e+01 3.286420777763000274e+02 0.000000000000000000e+00 0.000000000000000000e+00 0.000000000000000000e+00
-1.749474833200000079e+00 1.070722237420000056e+01 3.322710590048999961e+02 0.000000000000000000e+00 0.000000000000000000e+00 0.000000000000000000e+00
-2.747719169599999844e+00 9.897896390399999689e+00 3.282546270108999806e+02 0.000000000000000000e+00 0.000000000000000000e+00 0.000000000000000000e+00
-1.856476172500000077e+00 9.945416747399999480e+00 3.289571064332999981e+02 0.000000000000000000e+00 0.000000000000000000e+00 0.000000000000000000e+00
-1.679336416399999976e+00 9.939588138599999567e+00 3.322429760074999763e+02 0.000000000000000000e+00 0.000000000000000000e+00 0.000000000000000000e+00
-2.483868329699999933e+00 8.452154675199999190e+00 3.285081431892999717e+02 0.000000000000000000e+00 0.000000000000000000e+00 0.000000000000000000e+00
-1.966906801599999977e+00 5.911658215100000113e+00 3.288764175005999846e+02 0.000000000000000000e+00 0.000000000000000000e+00 0.000000000000000000e+00
-2.821571364299999995e+00 4.947917433499999795e+00 3.283657784449999895e+02 0.000000000000000000e+00 0.000000000000000000e+00 0.000000000000000000e+00
-1.517358702799999959e+00 -1.329659377400000064e+00 3.289487261718999775e+02 0.000000000000000000e+00 0.000000000000000000e+00 0.000000000000000000e+00
-1.620625008700000036e+00 -3.640465712400000164e+00 3.298530231335000167e+02 0.000000000000000000e+00 0.000000000000000000e+00 0.000000000000000000e+00
-1.772488172200000101e+00 -6.130780986899999618e+00 3.296935750284999926e+02 0.000000000000000000e+00 0.000000000000000000e+00 0.000000000000000000e+00
-2.869151521900000112e+00 -1.009530775410000025e+01 3.259912796006000235e+02 0.000000000000000000e+00 0.000000000000000000e+00 0.000000000000000000e+00
1.542801689000000032e+00 -1.623463655169999953e+01 3.261543432174000259e+02 0.000000000000000000e+00 0.000000000000000000e+00 0.000000000000000000e+00
-3.217124115599999890e+00 3.476204295700000113e+00 3.281287228671000094e+02 0.000000000000000000e+00 0.000000000000000000e+00 0.000000000000000000e+00
1.660131857999999905e-01 -2.103250613999999796e+00 3.309008576543999993e+02 0.000000000000000000e+00 0.000000000000000000e+00 0.000000000000000000e+00
1.194139433099999925e+00 -1.621421414630000157e+01 3.252634184827999775e+02 0.000000000000000000e+00 0.000000000000000000e+00 0.000000000000000000e+00
-8.361182654000000047e-01 1.393115856470000047e+01 3.287440042599999970e+02 0.000000000000000000e+00 0.000000000000000000e+00 0.000000000000000000e+00
-1.600175531899999948e+00 7.922722081199999877e+00 3.320742317205999825e+02 0.000000000000000000e+00 0.000000000000000000e+00 0.000000000000000000e+00
3.234999093099999889e+00 -7.586924208700000172e+00 3.294494614631000218e+02 0.000000000000000000e+00 0.000000000000000000e+00 0.000000000000000000e+00
-2.428004090499999990e+00 -1.681893363469999869e+01 3.235392439418000095e+02 0.000000000000000000e+00 0.000000000000000000e+00 0.000000000000000000e+00
-6.295309521999999935e-01 2.900743255800000142e+00 3.316288567496999917e+02 0.000000000000000000e+00 0.000000000000000000e+00 0.000000000000000000e+00
-1.177253101200000041e+00 1.237953744020000002e+01 3.304347929167000188e+02 0.000000000000000000e+00 0.000000000000000000e+00 0.000000000000000000e+00
1.690095569699999967e+00 1.184103290770000072e+01 3.313542192926000212e+02 0.000000000000000000e+00 0.000000000000000000e+00 0.000000000000000000e+00
-8.084484169000000220e-01 7.926600209500000105e+00 3.322433519754000031e+02 0.000000000000000000e+00 0.000000000000000000e+00 0.000000000000000000e+00
2.660046615000000170e-01 1.338536381589999991e+01 3.289270959684000104e+02 0.000000000000000000e+00 0.000000000000000000e+00 0.000000000000000000e+00
3.111373878899999834e+00 1.290599085440000060e+01 3.286790622030000009e+02 0.000000000000000000e+00 0.000000000000000000e+00 0.000000000000000000e+00
3.172302035800000031e+00 1.496173057040000032e+01 3.283335649864000061e+02 0.000000000000000000e+00 0.000000000000000000e+00 0.000000000000000000e+00
-8.061776333000000294e-01 8.387490878599999533e+00 3.323411989626999912e+02 0.000000000000000000e+00 0.000000000000000000e+00 0.000000000000000000e+00
-7.118271621999999743e-01 1.144668605200000044e+01 3.313276494610000213e+02 0.000000000000000000e+00 0.000000000000000000e+00 0.000000000000000000e+00
-1.486747382299999920e+00 8.379395690000000840e+00 3.293740238661999911e+02 0.000000000000000000e+00 0.000000000000000000e+00 0.000000000000000000e+00
4.451757247499999792e+00 1.255190572659999937e+01 3.280561460720999776e+02 0.000000000000000000e+00 0.000000000000000000e+00 0.000000000000000000e+00
1.742357371400000021e+00 1.213454160989999941e+01 3.294909149365000189e+02 0.000000000000000000e+00 0.000000000000000000e+00 0.000000000000000000e+00
-2.829689208700000069e+00 1.491141921760000066e+01 3.277025778775999925e+02 0.000000000000000000e+00 0.000000000000000000e+00 0.000000000000000000e+00
-3.153915374599999932e+00 1.387478585040000034e+01 3.277939835596000080e+02 0.000000000000000000e+00 0.000000000000000000e+00 0.000000000000000000e+00
-3.167982684300000074e+00 1.344821886929999977e+01 3.277853367774999924e+02 0.000000000000000000e+00 0.000000000000000000e+00 0.000000000000000000e+00
-3.166930963700000046e+00 1.242219102870000036e+01 3.277358618686999989e+02 0.000000000000000000e+00 0.000000000000000000e+00 0.000000000000000000e+00
-2.754661735800000066e+00 1.234733997470000055e+01 3.282522436793000224e+02 0.000000000000000000e+00 0.000000000000000000e+00 0.000000000000000000e+00
-2.797446639099999910e+00 1.145621330430000029e+01 3.280288148350999791e+02 0.000000000000000000e+00 0.000000000000000000e+00 0.000000000000000000e+00
-2.341521828199999877e+00 1.140830255470000054e+01 3.284004278447000047e+02 0.000000000000000000e+00 0.000000000000000000e+00 0.000000000000000000e+00
-2.103985140899999884e+00 1.138582140289999955e+01 3.286153436019000083e+02 0.000000000000000000e+00 0.000000000000000000e+00 0.000000000000000000e+00
-1.480204401399999981e+00 1.144358001720000040e+01 3.294087925811999753e+02 0.000000000000000000e+00 0.000000000000000000e+00 0.000000000000000000e+00
-1.360726267600000039e+00 1.143525733719999948e+01 3.302946702936000065e+02 0.000000000000000000e+00 0.000000000000000000e+00 0.000000000000000000e+00
-3.234512633900000100e+00 1.094820403639999995e+01 3.278164601063999726e+02 0.000000000000000000e+00 0.000000000000000000e+00 0.000000000000000000e+00
-1.823470469200000110e+00 1.036036837700000035e+01 3.288817154038000012e+02 0.000000000000000000e+00 0.000000000000000000e+00 0.000000000000000000e+00
-1.847195310500000076e+00 1.035113006019999915e+01 3.322951127251999992e+02 0.000000000000000000e+00 0.000000000000000000e+00 0.000000000000000000e+00
-3.237176307299999944e+00 1.039591502350000063e+01 3.278641867053000283e+02 0.000000000000000000e+00 0.000000000000000000e+00 0.000000000000000000e+00
-2.830097405200000082e+00 1.044525892919999954e+01 3.280167890252000120e+02 0.000000000000000000e+00 0.000000000000000000e+00 0.000000000000000000e+00
-3.288512620900000183e+00 8.948607720200000060e+00 3.278690731918999859e+02 0.000000000000000000e+00 0.000000000000000000e+00 0.000000000000000000e+00
-2.712527656599999837e+00 8.940675927199999151e+00 3.283036797770000135e+02 0.000000000000000000e+00 0.000000000000000000e+00 0.000000000000000000e+00
-1.811596772599999960e+00 8.956220781300000766e+00 3.289194645733999778e+02 0.000000000000000000e+00 0.000000000000000000e+00 0.000000000000000000e+00
-2.728807177300000220e+00 7.885488991899999967e+00 3.283268772989999889e+02 0.000000000000000000e+00 0.000000000000000000e+00 0.000000000000000000e+00
-3.307839642199999819e+00 7.417404841299999774e+00 3.279451254452999933e+02 0.000000000000000000e+00 0.000000000000000000e+00 0.000000000000000000e+00
-1.507841577800000055e+00 7.379851399599999695e+00 3.294818258780999827e+02 0.000000000000000000e+00 0.000000000000000000e+00 0.000000000000000000e+00
-1.547058907000000039e+00 7.475098120700000237e+00 3.301855760623000151e+02 0.000000000000000000e+00 0.000000000000000000e+00 0.000000000000000000e+00
-2.850306794000000199e+00 6.944865475800000354e+00 3.283428673820000085e+02 0.000000000000000000e+00 0.000000000000000000e+00 0.000000000000000000e+00
-3.389742986599999952e+00 6.919136288499999843e+00 3.279260785033999923e+02 0.000000000000000000e+00 0.000000000000000000e+00 0.000000000000000000e+00
-2.398381395199999933e+00 6.868555632399999666e+00 3.285645616914000016e+02 0.000000000000000000e+00 0.000000000000000000e+00 0.000000000000000000e+00
-3.376244176400000185e+00 5.948922143699999943e+00 3.279232864004999897e+02 0.000000000000000000e+00 0.000000000000000000e+00 0.000000000000000000e+00
-3.370044537800000128e+00 5.448901455899999746e+00 3.279070168842000044e+02 0.000000000000000000e+00 0.000000000000000000e+00 0.000000000000000000e+00
-2.407108195000000173e+00 5.452797398000000406e+00 3.285445359752000059e+02 0.000000000000000000e+00 0.000000000000000000e+00 0.000000000000000000e+00
-3.312635618999999920e+00 4.944952470199999617e+00 3.279522180080999760e+02 0.000000000000000000e+00 0.000000000000000000e+00 0.000000000000000000e+00
-1.981291245900000053e+00 4.916329890800000157e+00 3.288859576950000019e+02 0.000000000000000000e+00 0.000000000000000000e+00 0.000000000000000000e+00
-1.673383180300000106e+00 4.871074073099999957e+00 3.316079815054000051e+02 0.000000000000000000e+00 0.000000000000000000e+00 0.000000000000000000e+00
-2.836986280900000157e+00 4.394135149900000314e+00 3.283470893502999957e+02 0.000000000000000000e+00 0.000000000000000000e+00 0.000000000000000000e+00
-2.393033186799999879e+00 4.329488344999999683e+00 3.285615130574000204e+02 0.000000000000000000e+00 0.000000000000000000e+00 0.000000000000000000e+00
-2.828003471000000157e+00 2.945892816100000200e+00 3.283795917025000222e+02 0.000000000000000000e+00 0.000000000000000000e+00 0.000000000000000000e+00
-1.602410298499999941e+00 2.881620862500000158e+00 3.303775518784000269e+02 0.000000000000000000e+00 0.000000000000000000e+00 0.000000000000000000e+00
-3.256079796199999876e+00 1.930428740099999985e+00 3.279304362917000049e+02 0.000000000000000000e+00 0.000000000000000000e+00 0.000000000000000000e+00
-2.791559769100000032e+00 1.901848468499999889e+00 3.282857420108999804e+02 0.000000000000000000e+00 0.000000000000000000e+00 0.000000000000000000e+00
-3.020189933700000218e+00 3.609332435000000006e-01 3.280140286347000256e+02 0.000000000000000000e+00 0.000000000000000000e+00 0.000000000000000000e+00
-2.402272626699999858e+00 3.777203601999999938e-01 3.284313843368000221e+02 0.000000000000000000e+00 0.000000000000000000e+00 0.000000000000000000e+00
-1.593110638900000042e+00 -1.406717210849999944e+01 3.282080423158000144e+02 0.000000000000000000e+00 0.000000000000000000e+00 0.000000000000000000e+00
-1.584074507399999998e+00 -2.547231798199999897e+00 3.298687946586999828e+02 0.000000000000000000e+00 0.000000000000000000e+00 0.000000000000000000e+00
-1.659566717899999988e+00 -2.513753836399999830e+00 3.303708560178999960e+02 0.000000000000000000e+00 0.000000000000000000e+00 0.000000000000000000e+00
-1.653562797800000039e+00 -4.136238444199999975e+00 3.298918904957000109e+02 0.000000000000000000e+00 0.000000000000000000e+00 0.000000000000000000e+00
-2.494183706899999908e+00 -5.673738465699999622e+00 3.274804795749000164e+02 0.000000000000000000e+00 0.000000000000000000e+00 0.000000000000000000e+00
-1.750607306800000096e+00 -5.621324209600000010e+00 3.296934657716000174e+02 0.000000000000000000e+00 0.000000000000000000e+00 0.000000000000000000e+00
3.066667959000000110e+00 -6.022810632999999747e-01 3.307345980005999877e+02 0.000000000000000000e+00 0.000000000000000000e+00 0.000000000000000000e+00
-3.002504092800000191e+00 -6.551275274900000056e+00 3.268642056854999964e+02 0.000000000000000000e+00 0.000000000000000000e+00 0.000000000000000000e+00
-1.684415942200000016e+00 -6.577070677300000057e+00 3.293756523452000238e+02 0.000000000000000000e+00 0.000000000000000000e+00 0.000000000000000000e+00
1.957281371000000048e-01 9.852108289400000274e+00 3.326641901991999930e+02 0.000000000000000000e+00 0.000000000000000000e+00 0.000000000000000000e+00
-1.646937131400000087e+00 -1.102553018559999920e+01 3.291309771737999768e+02 0.000000000000000000e+00 0.000000000000000000e+00 0.000000000000000000e+00
-2.963527098100000146e+00 -1.129708763270000027e+01 3.255269306430000142e+02 0.000000000000000000e+00 0.000000000000000000e+00 0.000000000000000000e+00
-1.629931720799999928e+00 -1.147250774169999943e+01 3.291336362877000283e+02 0.000000000000000000e+00 0.000000000000000000e+00 0.000000000000000000e+00
-2.624668384800000087e+00 -1.299619182170000009e+01 3.251602763549000201e+02 0.000000000000000000e+00 0.000000000000000000e+00 0.000000000000000000e+00
-2.956816552199999837e+00 -1.415851650279999951e+01 3.244597409127999867e+02 0.000000000000000000e+00 0.000000000000000000e+00 0.000000000000000000e+00
-2.434076517899999903e+00 -1.555455877210000004e+01 3.240590798325999913e+02 0.000000000000000000e+00 0.000000000000000000e+00 0.000000000000000000e+00
6.697207926999999561e-01 -1.618292712370000075e+01 3.266619331740999996e+02 0.000000000000000000e+00 0.000000000000000000e+00 0.000000000000000000e+00
-3.978987165000000270e-01 -1.606378548229999836e+01 3.271854619801999888e+02 0.000000000000000000e+00 0.000000000000000000e+00 0.000000000000000000e+00
2.454454460999999921e-01 1.243162635949999917e+01 3.292007907483999816e+02 0.000000000000000000e+00 0.000000000000000000e+00 0.000000000000000000e+00
-8.292762240000000062e-01 1.446189704200000037e+01 3.286465531662000217e+02 0.000000000000000000e+00 0.000000000000000000e+00 0.000000000000000000e+00
2.816751202799999909e+00 -1.058266072790000045e+01 3.295435911303000012e+02 0.000000000000000000e+00 0.000000000000000000e+00 0.000000000000000000e+00
2.718580913499999863e+00 9.434360405099999625e+00 3.322681528946999947e+02 0.000000000000000000e+00 0.000000000000000000e+00 0.000000000000000000e+00
-7.983070749999999771e-01 1.246748382970000080e+01 3.303275094182999965e+02 0.000000000000000000e+00 0.000000000000000000e+00 0.000000000000000000e+00
-1.596066738900000059e+00 -1.366669705570000026e+01 3.264528081037000220e+02 0.000000000000000000e+00 0.000000000000000000e+00 0.000000000000000000e+00
2.177683131699999830e+00 6.439693511099999768e+00 3.321250596749000010e+02 0.000000000000000000e+00 0.000000000000000000e+00 0.000000000000000000e+00
2.156561785000000064e+00 -7.581083416200000258e+00 3.301398532334000038e+02 0.000000000000000000e+00 0.000000000000000000e+00 0.000000000000000000e+00
-3.400875202299999955e+00 1.204626025980000037e+01 3.275051901955999938e+02 0.000000000000000000e+00 0.000000000000000000e+00 0.000000000000000000e+00
-1.616849833799999914e+00 5.358905288999999961e-01 3.300473237635999908e+02 0.000000000000000000e+00 0.000000000000000000e+00 0.000000000000000000e+00
-8.853422314000000126e-01 -1.616948631129999825e+01 3.255059935208000184e+02 0.000000000000000000e+00 0.000000000000000000e+00 0.000000000000000000e+00
7.022013155999999867e-01 -6.547733347100000323e+00 3.302880143819999716e+02 0.000000000000000000e+00 0.000000000000000000e+00 0.000000000000000000e+00
2.150924004600000217e+00 1.135983662479999978e+01 3.313385396542000194e+02 0.000000000000000000e+00 0.000000000000000000e+00 0.000000000000000000e+00
2.340308769999999983e-01 -1.212024288199999944e+01 3.294831574818999798e+02 0.000000000000000000e+00 0.000000000000000000e+00 0.000000000000000000e+00
-9.654506650999999939e-01 -1.355232030250000008e+01 3.289713834477000205e+02 0.000000000000000000e+00 0.000000000000000000e+00 0.000000000000000000e+00
-2.224379870000000037e-01 -1.211811612179999997e+01 3.294700780748000284e+02 0.000000000000000000e+00 0.000000000000000000e+00 0.000000000000000000e+00
1.696009297999999943e-01 -9.913695928000000324e-01 3.310939205688000015e+02 0.000000000000000000e+00 0.000000000000000000e+00 0.000000000000000000e+00
-3.079730290100000101e+00 1.488308272129999921e+01 3.278495391596999866e+02 0.000000000000000000e+00 0.000000000000000000e+00 0.000000000000000000e+00
-3.125426998200000028e+00 1.436497595840000052e+01 3.278397247332999882e+02 0.000000000000000000e+00 0.000000000000000000e+00 0.000000000000000000e+00
-3.159975231999999856e+00 1.294556448980000063e+01 3.277367286135000199e+02 0.000000000000000000e+00 0.000000000000000000e+00 0.000000000000000000e+00
-3.226846494100000129e+00 1.143064511550000084e+01 3.277700618376999842e+02 0.000000000000000000e+00 0.000000000000000000e+00 0.000000000000000000e+00
-1.477341914299999948e+00 1.039636187710000037e+01 3.293597630937999838e+02 0.000000000000000000e+00 0.000000000000000000e+00 0.000000000000000000e+00
-2.930381081999999804e+00 9.963415261799999811e+00 3.280191981525999836e+02 0.000000000000000000e+00 0.000000000000000000e+00 0.000000000000000000e+00
-2.403525634599999794e+00 9.905211771199999404e+00 3.284560484809999821e+02 0.000000000000000000e+00 0.000000000000000000e+00 0.000000000000000000e+00
-1.432416624400000060e+00 9.949802304300000344e+00 3.293793941244999814e+02 0.000000000000000000e+00 0.000000000000000000e+00 0.000000000000000000e+00
-3.282957274900000222e+00 9.437963022399999957e+00 3.278600406022999891e+02 0.000000000000000000e+00 0.000000000000000000e+00 0.000000000000000000e+00
-2.966064026999999825e+00 8.890411672899999118e+00 3.280130150255999979e+02 0.000000000000000000e+00 0.000000000000000000e+00 0.000000000000000000e+00
-1.517895353999999974e+00 6.974997394199999867e+00 3.294073682534000227e+02 0.000000000000000000e+00 0.000000000000000000e+00 0.000000000000000000e+00
-3.351664585400000007e+00 6.410416872699999935e+00 3.279608079142000179e+02 0.000000000000000000e+00 0.000000000000000000e+00 0.000000000000000000e+00
-2.852773628700000064e+00 6.417755336199999938e+00 3.283594311691999792e+02 0.000000000000000000e+00 0.000000000000000000e+00 0.000000000000000000e+00
-2.258711640400000054e+00 6.447704893900000123e+00 3.287516770963999875e+02 0.000000000000000000e+00 0.000000000000000000e+00 0.000000000000000000e+00
-1.632519827000000090e+00 6.368709177600000437e+00 3.296433926886999757e+02 0.000000000000000000e+00 0.000000000000000000e+00 0.000000000000000000e+00
-1.534649538200000052e+00 4.354896056400000326e+00 3.294012556319000282e+02 0.000000000000000000e+00 0.000000000000000000e+00 0.000000000000000000e+00
-3.357958610099999852e+00 3.887329238199999981e+00 3.279066868802000272e+02 0.000000000000000000e+00 0.000000000000000000e+00 0.000000000000000000e+00
-2.842825611899999938e+00 3.876057475100000094e+00 3.283676113729999884e+02 0.000000000000000000e+00 0.000000000000000000e+00 0.000000000000000000e+00
-2.443146683000000152e+00 3.955385792700000014e+00 3.285282404472999929e+02 0.000000000000000000e+00 0.000000000000000000e+00 0.000000000000000000e+00
-1.797529863899999913e+00 3.914956173899999836e+00 3.315812426906999804e+02 0.000000000000000000e+00 0.000000000000000000e+00 0.000000000000000000e+00
-1.461780265600000073e+00 2.905055093400000121e+00 3.294134455602999765e+02 0.000000000000000000e+00 0.000000000000000000e+00 0.000000000000000000e+00
-1.512724547099999928e+00 1.940097979099999925e+00 3.294017777889999934e+02 0.000000000000000000e+00 0.000000000000000000e+00 0.000000000000000000e+00
-2.857030405300000186e+00 -1.137558292400000060e+00 3.279660951948000047e+02 0.000000000000000000e+00 0.000000000000000000e+00 0.000000000000000000e+00
-1.478859627699999901e+00 -1.665148927800000012e+00 3.289558087113999818e+02 0.000000000000000000e+00 0.000000000000000000e+00 0.000000000000000000e+00
-1.478436994599999998e+00 -2.111121633799999842e+00 3.289551749336999933e+02 0.000000000000000000e+00 0.000000000000000000e+00 0.000000000000000000e+00
-1.728987116100000110e+00 -3.106116195999999885e+00 3.302442817265999793e+02 0.000000000000000000e+00 0.000000000000000000e+00 0.000000000000000000e+00
-2.944973203700000042e+00 -4.215651994999999985e+00 3.273986993003999828e+02 0.000000000000000000e+00 0.000000000000000000e+00 0.000000000000000000e+00
-1.603245862499999896e+00 -4.594990917299999644e+00 3.297907783772000130e+02 0.000000000000000000e+00 0.000000000000000000e+00 0.000000000000000000e+00
-1.579207778100000015e+00 -6.584825011899999581e+00 3.287686369178999826e+02 0.000000000000000000e+00 0.000000000000000000e+00 0.000000000000000000e+00
-1.721511357200000036e+00 -7.033144924500000172e+00 3.293238681825000072e+02 0.000000000000000000e+00 0.000000000000000000e+00 0.000000000000000000e+00
-2.937607696000000157e+00 -8.237835388800000658e+00 3.265123209006000025e+02 0.000000000000000000e+00 0.000000000000000000e+00 0.000000000000000000e+00
-1.720524491900000008e+00 -8.150454688299999972e+00 3.276599057327999844e+02 0.000000000000000000e+00 0.000000000000000000e+00 0.000000000000000000e+00
-1.707070537299999913e+00 -1.003713865289999951e+01 3.271488368862999891e+02 0.000000000000000000e+00 0.000000000000000000e+00 0.000000000000000000e+00
-1.449842110400000106e+00 -1.263539750109999993e+01 3.260373903002000020e+02 0.000000000000000000e+00 0.000000000000000000e+00 0.000000000000000000e+00
8.875898089000000546e-01 -3.964907962799999908e+00 3.305841952110999955e+02 0.000000000000000000e+00 0.000000000000000000e+00 0.000000000000000000e+00
-1.575621761500000106e+00 -9.811623500999999692e-01 3.299441040559000271e+02 0.000000000000000000e+00 0.000000000000000000e+00 0.000000000000000000e+00
1.276031876300000034e+00 8.918460175099999887e+00 3.324316301537999720e+02 0.000000000000000000e+00 0.000000000000000000e+00 0.000000000000000000e+00
2.158218414699999865e+00 -5.641195921599999608e+00 3.303601907218999827e+02 0.000000000000000000e+00 0.000000000000000000e+00 0.000000000000000000e+00
-1.684405933899999930e+00 7.427925747199999762e+00 3.296758447915000261e+02 0.000000000000000000e+00 0.000000000000000000e+00 0.000000000000000000e+00
-1.499561271699999976e+00 -8.690660911800000221e+00 3.273757232863000013e+02 0.000000000000000000e+00 0.000000000000000000e+00 0.000000000000000000e+00
1.234292547699999965e+00 -1.454390436339999937e+01 3.291979841145000023e+02 0.000000000000000000e+00 0.000000000000000000e+00 0.000000000000000000e+00
1.717889618799999907e+00 1.388794780379999949e+01 3.287972676575000150e+02 0.000000000000000000e+00 0.000000000000000000e+00 0.000000000000000000e+00
1.152176875699999936e+00 1.290862952550000031e+01 3.293575806649000128e+02 0.000000000000000000e+00 0.000000000000000000e+00 0.000000000000000000e+00
-1.657411863199999891e+00 -9.084242881599999819e+00 3.278376700869999922e+02 0.000000000000000000e+00 0.000000000000000000e+00 0.000000000000000000e+00
-1.635532776500000063e+00 3.793691175000000193e-01 3.303243272693999870e+02 0.000000000000000000e+00 0.000000000000000000e+00 0.000000000000000000e+00
-1.623803745700000079e+00 -6.255324319999999716e-02 3.302862303324000095e+02 0.000000000000000000e+00 0.000000000000000000e+00 0.000000000000000000e+00
3.549716220600000138e+00 1.288577257470000070e+01 3.286154815674000247e+02 0.000000000000000000e+00 0.000000000000000000e+00 0.000000000000000000e+00
-1.627200713899999984e+00 -4.529140757200000422e+00 3.294172151212999893e+02 0.000000000000000000e+00 0.000000000000000000e+00 0.000000000000000000e+00
4.450909930499999945e+00 1.291717959640000046e+01 3.280451628080999740e+02 0.000000000000000000e+00 0.000000000000000000e+00 0.000000000000000000e+00
-3.077454848099999918e+00 1.303426514609999920e+01 3.282178824589000214e+02 0.000000000000000000e+00 0.000000000000000000e+00 0.000000000000000000e+00
-1.324399015500000054e+00 1.138955658629999945e+01 3.308081670537999912e+02 0.000000000000000000e+00 0.000000000000000000e+00 0.000000000000000000e+00
-1.610235819899999976e+00 1.137395306540000028e+01 3.309606057413000144e+02 0.000000000000000000e+00 0.000000000000000000e+00 0.000000000000000000e+00
-1.436486905500000022e+00 1.097600864890000061e+01 3.308398300595999899e+02 0.000000000000000000e+00 0.000000000000000000e+00 0.000000000000000000e+00
-1.600740105899999932e+00 9.481336432799999159e+00 3.314063436292000233e+02 0.000000000000000000e+00 0.000000000000000000e+00 0.000000000000000000e+00
-1.509322101800000038e+00 3.351644851300000116e+00 3.294046969093000143e+02 0.000000000000000000e+00 0.000000000000000000e+00 0.000000000000000000e+00
-2.913963686199999792e+00 -3.592589215899999910e+00 3.275281643050000184e+02 0.000000000000000000e+00 0.000000000000000000e+00 0.000000000000000000e+00
-1.691979645199999993e+00 -6.125819341599999746e+00 3.294196753266999735e+02 0.000000000000000000e+00 0.000000000000000000e+00 0.000000000000000000e+00
-1.003680314799999973e+00 -7.371631841000000129e+00 3.283693984413999942e+02 0.000000000000000000e+00 0.000000000000000000e+00 0.000000000000000000e+00
-1.597580743400000003e+00 -1.061097810949999953e+01 3.288218214593999846e+02 0.000000000000000000e+00 0.000000000000000000e+00 0.000000000000000000e+00
-1.610724493099999988e+00 -1.069265668489999932e+01 3.291386938452999971e+02 0.000000000000000000e+00 0.000000000000000000e+00 0.000000000000000000e+00
1.492930556799999975e+00 -1.645631800540000000e+01 3.263694862447999867e+02 0.000000000000000000e+00 0.000000000000000000e+00 0.000000000000000000e+00
-3.219799209500000092e+00 4.388807357000000131e+00 3.280967595000000188e+02 0.000000000000000000e+00 0.000000000000000000e+00 0.000000000000000000e+00
-2.920141687000000208e-01 1.492573861610000030e+01 3.286674162676999913e+02 0.000000000000000000e+00 0.000000000000000000e+00 0.000000000000000000e+00
-1.555393142200000023e+00 4.340202610000000405e+00 3.303189169798000080e+02 0.000000000000000000e+00 0.000000000000000000e+00 0.000000000000000000e+00
-1.651799591200000084e+00 8.849505348999999743e-01 3.303243223434000129e+02 0.000000000000000000e+00 0.000000000000000000e+00 0.000000000000000000e+00
-1.983128932899999919e+00 -8.447178082100000651e+00 3.270587955592000071e+02 0.000000000000000000e+00 0.000000000000000000e+00 0.000000000000000000e+00
-8.024000950999999882e-01 1.292529627080000054e+01 3.288583087903999740e+02 0.000000000000000000e+00 0.000000000000000000e+00 0.000000000000000000e+00
1.726320892399999973e+00 8.361415323299999258e+00 3.323134825068000282e+02 0.000000000000000000e+00 0.000000000000000000e+00 0.000000000000000000e+00
-2.563134099000000110e-01 1.236473144310000016e+01 3.292081721375000143e+02 0.000000000000000000e+00 0.000000000000000000e+00 0.000000000000000000e+00
-2.903834813999999764e-01 1.209184642179999969e+01 3.295177518140999950e+02 0.000000000000000000e+00 0.000000000000000000e+00 0.000000000000000000e+00
2.686595373899999917e+00 1.233939199259999953e+01 3.297685358719999726e+02 0.000000000000000000e+00 0.000000000000000000e+00 0.000000000000000000e+00
2.262240155999999947e-01 1.200583804510000085e+01 3.298752627806999840e+02 0.000000000000000000e+00 0.000000000000000000e+00 0.000000000000000000e+00
1.867139714999999922e-01 1.175857376699999968e+01 3.308160739168999953e+02 0.000000000000000000e+00 0.000000000000000000e+00 0.000000000000000000e+00
-2.688953084999999854e-01 1.190349564799999982e+01 3.321545259242000157e+02 0.000000000000000000e+00 0.000000000000000000e+00 0.000000000000000000e+00
-1.559298000000000073e+00 5.111523847199999970e+00 3.309238086817999829e+02 0.000000000000000000e+00 0.000000000000000000e+00 0.000000000000000000e+00
-1.569797185299999898e+00 4.318669021299999855e+00 3.308959046412999783e+02 0.000000000000000000e+00 0.000000000000000000e+00 0.000000000000000000e+00
-1.599008780399999941e+00 -5.592203614799999833e+00 3.287903503419000231e+02 0.000000000000000000e+00 0.000000000000000000e+00 0.000000000000000000e+00
1.727106303700000067e+00 1.036633375529999945e+01 3.324901589281000156e+02 0.000000000000000000e+00 0.000000000000000000e+00 0.000000000000000000e+00
1.257531974299999966e+00 -9.588684481899999668e+00 3.298970754877000218e+02 0.000000000000000000e+00 0.000000000000000000e+00 0.000000000000000000e+00
-1.296249785499999918e+00 1.446965313729999991e+01 3.284720143555999812e+02 0.000000000000000000e+00 0.000000000000000000e+00 0.000000000000000000e+00
1.556572988999999907e-01 1.185476110409999961e+01 3.303783417959999724e+02 0.000000000000000000e+00 0.000000000000000000e+00 0.000000000000000000e+00
2.056473973000000066e-01 1.171550173410000006e+01 3.312502041172999725e+02 0.000000000000000000e+00 0.000000000000000000e+00 0.000000000000000000e+00
-1.323780202800000083e+00 1.346513638699999937e+01 3.284955489013000260e+02 0.000000000000000000e+00 0.000000000000000000e+00 0.000000000000000000e+00
-2.392658001200000051e+00 1.299610633059999998e+01 3.280370905079000181e+02 0.000000000000000000e+00 0.000000000000000000e+00 0.000000000000000000e+00
-1.539622992900000042e+00 8.297709532500000762e+00 3.309154152259999933e+02 0.000000000000000000e+00 0.000000000000000000e+00 0.000000000000000000e+00
2.149718333600000086e+00 -1.121261421820000059e+01 3.295662799016999998e+02 0.000000000000000000e+00 0.000000000000000000e+00 0.000000000000000000e+00
3.713143920599999870e+00 1.440118086790000085e+01 3.281953947488000267e+02 0.000000000000000000e+00 0.000000000000000000e+00 0.000000000000000000e+00
4.473185005700000438e+00 -7.955593116500000228e+00 3.271082402042000012e+02 0.000000000000000000e+00 0.000000000000000000e+00 0.000000000000000000e+00
2.885850882400000206e+00 -3.258416314200000219e+00 3.305541901842000243e+02 0.000000000000000000e+00 0.000000000000000000e+00 0.000000000000000000e+00
1.748286494999999885e-01 1.404275415599999910e+00 3.314217939888000046e+02 0.000000000000000000e+00 0.000000000000000000e+00 0.000000000000000000e+00
2.732833805399999871e+00 1.196568976050000011e+01 3.312976966585000014e+02 0.000000000000000000e+00 0.000000000000000000e+00 0.000000000000000000e+00
2.195811751299999948e+00 1.196230801359999951e+01 3.298213220987000227e+02 0.000000000000000000e+00 0.000000000000000000e+00 0.000000000000000000e+00
2.181846720399999828e+00 1.189028154160000028e+01 3.313067428496000275e+02 0.000000000000000000e+00 0.000000000000000000e+00 0.000000000000000000e+00
