-1.373394545000000022e+00 6.455690770729999883e+01 2.908425559491000172e+02 0.000000000000000000e+00 0.000000000000000000e+00 0.000000000000000000e+00
-2.413529860800000204e+00 5.703976951709999810e+01 3.018723378038999954e+02 0.000000000000000000e+00 0.000000000000000000e+00 0.000000000000000000e+00
-1.564076219800000001e+00 5.245951265800000130e+01 3.093058687704000249e+02 0.000000000000000000e+00 0.000000000000000000e+00 0.000000000000000000e+00
-3.647488942799999911e+00 4.978866423859999912e+01 3.092518384184999718e+02 0.000000000000000000e+00 0.000000000000000000e+00 0.000000000000000000e+00
-2.568173524700000154e+00 4.824780008980000190e+01 3.116104800059000013e+02 0.000000000000000000e+00 0.000000000000000000e+00 0.000000000000000000e+00
-1.537582199899999891e+00 6.219190761659999822e+01 2.983170951981999792e+02 0.000000000000000000e+00 0.000000000000000000e+00 0.000000000000000000e+00
-1.599054119300000076e+00 5.190420225590000314e+01 3.104125862216999963e+02 0.000000000000000000e+00 0.000000000000000000e+00 0.000000000000000000e+00
-1.920086625599999985e+00 4.848912527139999895e+01 3.118898081969999794e+02 0.000000000000000000e+00 0.000000000000000000e+00 0.000000000000000000e+00
-2.784936780599999828e+00 6.532047038860000043e+01 2.878195301975999882e+02 0.000000000000000000e+00 0.000000000000000000e+00 0.000000000000000000e+00
-3.441965245600000056e+00 6.309909272769999689e+01 2.914191130730999930e+02 0.000000000000000000e+00 0.000000000000000000e+00 0.000000000000000000e+00
-1.545103042200000054e+00 6.328722542330000067e+01 2.936480893365999805e+02 0.000000000000000000e+00 0.000000000000000000e+00 0.000000000000000000e+00
-1.617332714000000005e+00 6.297795173829999982e+01 2.964508363296999960e+02 0.000000000000000000e+00 0.000000000000000000e+00 0.000000000000000000e+00
-3.932986251600000038e+00 6.008838394240000014e+01 2.959894043738000278e+02 0.000000000000000000e+00 0.000000000000000000e+00 0.000000000000000000e+00
-1.634646980399999894e+00 5.994568231670000102e+01 3.008989328110000088e+02 0.000000000000000000e+00 0.000000000000000000e+00 0.000000000000000000e+00
-1.883869461900000042e+00 5.946877229420000077e+01 2.989237350848000005e+02 0.000000000000000000e+00 0.000000000000000000e+00 0.000000000000000000e+00
-2.090537616000000209e+00 6.437880550340000241e+01 2.927495736426000121e+02 0.000000000000000000e+00 0.000000000000000000e+00 0.000000000000000000e+00
-3.967377532600000034e+00 5.910353221140000102e+01 2.975504182577000165e+02 0.000000000000000000e+00 0.000000000000000000e+00 0.000000000000000000e+00
-1.573060954500000053e+00 5.710502194939999754e+01 3.045293256753000151e+02 0.000000000000000000e+00 0.000000000000000000e+00 0.000000000000000000e+00
-1.576237446299999956e+00 5.666230226729999941e+01 3.049729065848999880e+02 0.000000000000000000e+00 0.000000000000000000e+00 0.000000000000000000e+00
-4.403131360999999799e+00 5.352015658549999699e+01 3.044191289752999978e+02 0.000000000000000000e+00 0.000000000000000000e+00 0.000000000000000000e+00
-1.531382910999999902e+00 5.353695425640000138e+01 3.074383665693999887e+02 0.000000000000000000e+00 0.000000000000000000e+00 0.000000000000000000e+00
-1.886851683199999963e+00 5.132565215999999708e+01 3.111450416970000106e+02 0.000000000000000000e+00 0.000000000000000000e+00 0.000000000000000000e+00
-2.628972455700000044e+00 4.925249144330000206e+01 3.106143588434999856e+02 0.000000000000000000e+00 0.000000000000000000e+00 0.000000000000000000e+00
-2.982501055200000195e+00 4.905548149949999726e+01 3.105258905985999718e+02 0.000000000000000000e+00 0.000000000000000000e+00 0.000000000000000000e+00
-4.032331869300000093e+00 4.760388797880000311e+01 3.110174531941000282e+02 0.000000000000000000e+00 0.000000000000000000e+00 0.000000000000000000e+00
-3.071079557100000024e+00 4.680128775440000055e+01 3.131670606638999743e+02 0.000000000000000000e+00 0.000000000000000000e+00 0.000000000000000000e+00
-6.069593196000000468e-01 6.572706435790000512e+01 2.921402623463999930e+02 0.000000000000000000e+00 0.000000000000000000e+00 0.000000000000000000e+00
3.890241017100000143e+00 5.016190743660000351e+01 3.100051022719000002e+02 0.000000000000000000e+00 0.000000000000000000e+00 0.000000000000000000e+00
-1.562528350400000043e+00 6.416793933549999451e+01 2.923144009362000020e+02 0.000000000000000000e+00 0.000000000000000000e+00 0.000000000000000000e+00
-1.253355994699999920e+00 5.937093616479999980e+01 3.017461895903999789e+02 0.000000000000000000e+00 0.000000000000000000e+00 0.000000000000000000e+00
-1.514891399599999966e+00 5.865455039700000128e+01 3.009804426897999861e+02 0.000000000000000000e+00 0.000000000000000000e+00 0.000000000000000000e+00
-1.305050974400000063e+00 5.846686554930000312e+01 3.028361025432000133e+02 0.000000000000000000e+00 0.000000000000000000e+00 0.000000000000000000e+00
-1.675584552199999910e+00 5.775851927299999744e+01 3.040712029581999900e+02 0.000000000000000000e+00 0.000000000000000000e+00 0.000000000000000000e+00
-3.095859921100000189e+00 5.523473786670000152e+01 3.036708421929000110e+02 0.000000000000000000e+00 0.000000000000000000e+00 0.000000000000000000e+00
-1.940596086900000072e+00 5.502522663279999904e+01 3.049174541364000106e+02 0.000000000000000000e+00 0.000000000000000000e+00 0.000000000000000000e+00
-2.429569369799999823e+00 5.459962162749999948e+01 3.050159185347999937e+02 0.000000000000000000e+00 0.000000000000000000e+00 0.000000000000000000e+00
-4.046799118400000062e+00 5.375701389049999790e+01 3.046130225879999784e+02 0.000000000000000000e+00 0.000000000000000000e+00 0.000000000000000000e+00
-1.269421908200000004e+00 5.388569526639999907e+01 3.083209500278999826e+02 0.000000000000000000e+00 0.000000000000000000e+00 0.000000000000000000e+00
-1.280813203499999942e+00 5.239750575170000246e+01 3.098315385656999865e+02 0.000000000000000000e+00 0.000000000000000000e+00 0.000000000000000000e+00
2.332148438999999962e-01 4.793443581510000229e+01 3.133355868606000172e+02 0.000000000000000000e+00 0.000000000000000000e+00 0.000000000000000000e+00
-1.949454392400000069e+00 4.951349085439999698e+01 3.109246041477999825e+02 0.000000000000000000e+00 0.000000000000000000e+00 0.000000000000000000e+00
-1.464418918300000039e+00 4.955269067980000131e+01 3.119535171094000248e+02 0.000000000000000000e+00 0.000000000000000000e+00 0.000000000000000000e+00
-2.964151108499999854e+00 4.812244446590000280e+01 3.114248863341999822e+02 0.000000000000000000e+00 0.000000000000000000e+00 0.000000000000000000e+00
-2.629628001900000012e+00 4.727781498790000114e+01 3.125735336156000130e+02 0.000000000000000000e+00 0.000000000000000000e+00 0.000000000000000000e+00
2.287428874999999917e-01 5.887261653990000099e+01 3.027416554812999721e+02 0.000000000000000000e+00 0.000000000000000000e+00 0.000000000000000000e+00
-1.202453545700000070e+00 4.675520077979999911e+01 3.136872060826000279e+02 0.000000000000000000e+00 0.000000000000000000e+00 0.000000000000000000e+00
-3.561674125300000160e+00 6.120160916839999743e+01 2.946516909942000098e+02 0.000000000000000000e+00 0.000000000000000000e+00 0.000000000000000000e+00
-1.617716116199999998e+00 6.337106296929999871e+01 2.957805811274999996e+02 0.000000000000000000e+00 0.000000000000000000e+00 0.000000000000000000e+00
-1.561430785300000013e+00 5.997852379719999760e+01 3.005326995048000072e+02 0.000000000000000000e+00 0.000000000000000000e+00 0.000000000000000000e+00
-1.261111016499999904e+00 4.987290424839999758e+01 3.122834509641999716e+02 0.000000000000000000e+00 0.000000000000000000e+00 0.000000000000000000e+00
1.129643330000000001e-01 6.321694949590000334e+01 2.967431779149000022e+02 0.000000000000000000e+00 0.000000000000000000e+00 0.000000000000000000e+00
-1.280614074700000105e+00 6.492251240049999694e+01 2.898128723373000071e+02 0.000000000000000000e+00 0.000000000000000000e+00 0.000000000000000000e+00
3.383887789300000115e+00 4.639914388079999696e+01 3.142033583676999910e+02 0.000000000000000000e+00 0.000000000000000000e+00 0.000000000000000000e+00
2.739329023000000030e-01 5.661133384560000081e+01 3.054799132095000118e+02 0.000000000000000000e+00 0.000000000000000000e+00 0.000000000000000000e+00
1.235840877200000021e+00 6.101651048040000092e+01 2.998252497830000038e+02 0.000000000000000000e+00 0.000000000000000000e+00 0.000000000000000000e+00
2.703855622699999905e+00 6.356077771639999696e+01 2.958496055100999911e+02 0.000000000000000000e+00 0.000000000000000000e+00 0.000000000000000000e+00
2.748821745999999955e+00 5.993709743699999848e+01 3.008490152644999966e+02 0.000000000000000000e+00 0.000000000000000000e+00 0.000000000000000000e+00
-2.670122537999999879e-01 6.139509408239999999e+01 2.992770517779999864e+02 0.000000000000000000e+00 0.000000000000000000e+00 0.000000000000000000e+00
1.998893162000000001e-01 6.034555054789999673e+01 3.007537195341000142e+02 0.000000000000000000e+00 0.000000000000000000e+00 0.000000000000000000e+00
1.197690638599999913e+00 5.173704737989999813e+01 3.106647647207000205e+02 0.000000000000000000e+00 0.000000000000000000e+00 0.000000000000000000e+00
-7.741687594999999700e-01 5.209663339099999746e+01 3.105003263392000008e+02 0.000000000000000000e+00 0.000000000000000000e+00 0.000000000000000000e+00
4.743005503800000078e+00 6.503343975629999818e+01 2.883922918833000040e+02 0.000000000000000000e+00 0.000000000000000000e+00 0.000000000000000000e+00
2.674476033899999994e+00 6.577531368110000187e+01 2.882672587518999876e+02 0.000000000000000000e+00 0.000000000000000000e+00 0.000000000000000000e+00
2.210016198900000006e+00 6.584106485280000243e+01 2.882936616871999718e+02 0.000000000000000000e+00 0.000000000000000000e+00 0.000000000000000000e+00
2.141636625399999883e+00 6.586374997129999542e+01 2.918382059337999976e+02 0.000000000000000000e+00 0.000000000000000000e+00 0.000000000000000000e+00
2.234529194799999896e+00 6.374303752600000195e+01 2.957299302563000083e+02 0.000000000000000000e+00 0.000000000000000000e+00 0.000000000000000000e+00
2.677285281200000089e+00 6.191105038469999755e+01 2.983255829048999885e+02 0.000000000000000000e+00 0.000000000000000000e+00 0.000000000000000000e+00
-2.787384453999999789e-01 6.583622248929999898e+01 2.883036623681999799e+02 0.000000000000000000e+00 0.000000000000000000e+00 0.000000000000000000e+00
1.893378263999999922e-01 6.526495304060000535e+01 2.931930659131999732e+02 0.000000000000000000e+00 0.000000000000000000e+00 0.000000000000000000e+00
7.184575277000000426e-01 6.488173177219999843e+01 2.938041783273000078e+02 0.000000000000000000e+00 0.000000000000000000e+00 0.000000000000000000e+00
1.244397964900000098e+00 6.371318745039999953e+01 2.957465472078999937e+02 0.000000000000000000e+00 0.000000000000000000e+00 0.000000000000000000e+00
2.193947995299999842e+00 6.029363633909999720e+01 3.007199934381999924e+02 0.000000000000000000e+00 0.000000000000000000e+00 0.000000000000000000e+00
2.055751161999999910e-01 6.202920797289999655e+01 2.983436022942000250e+02 0.000000000000000000e+00 0.000000000000000000e+00 0.000000000000000000e+00
2.676575588900000024e+00 5.784543393389999721e+01 3.032606738952000001e+02 0.000000000000000000e+00 0.000000000000000000e+00 0.000000000000000000e+00
2.807309421599999855e+00 5.751659458379999990e+01 3.034357959394999966e+02 0.000000000000000000e+00 0.000000000000000000e+00 0.000000000000000000e+00
-2.286931394799999850e+00 6.531555278010000620e+01 2.883324798116000238e+02 0.000000000000000000e+00 0.000000000000000000e+00 0.000000000000000000e+00
-7.814388164000000137e-01 6.199216643369999957e+01 2.983312088526000139e+02 0.000000000000000000e+00 0.000000000000000000e+00 0.000000000000000000e+00
7.194610470000000202e-01 5.952664604830000172e+01 3.018668398666000030e+02 0.000000000000000000e+00 0.000000000000000000e+00 0.000000000000000000e+00
1.643521774299999905e+00 5.827938313700000350e+01 3.032063408097999968e+02 0.000000000000000000e+00 0.000000000000000000e+00 0.000000000000000000e+00
1.718604014799999913e+00 5.733049300329999909e+01 3.042372000293000269e+02 0.000000000000000000e+00 0.000000000000000000e+00 0.000000000000000000e+00
2.216958480400000209e+00 5.581979541850000004e+01 3.057512737448000166e+02 0.000000000000000000e+00 0.000000000000000000e+00 0.000000000000000000e+00
-1.195694098199999944e+00 5.831869395199999673e+01 3.032530632738000236e+02 0.000000000000000000e+00 0.000000000000000000e+00 0.000000000000000000e+00
-2.782975529000000225e-01 5.642075986540000088e+01 3.057540470262999861e+02 0.000000000000000000e+00 0.000000000000000000e+00 0.000000000000000000e+00
-2.776449041999999867e-01 5.593837214730000085e+01 3.063258996316000093e+02 0.000000000000000000e+00 0.000000000000000000e+00 0.000000000000000000e+00
2.750766167300000120e+00 5.145139668449999704e+01 3.103471030613999915e+02 0.000000000000000000e+00 0.000000000000000000e+00 0.000000000000000000e+00
2.594100066599999810e+00 5.127121965999999986e+01 3.106407958268000016e+02 0.000000000000000000e+00 0.000000000000000000e+00 0.000000000000000000e+00
1.238868503299999979e+00 5.199672040859999811e+01 3.104007595031000051e+02 0.000000000000000000e+00 0.000000000000000000e+00 0.000000000000000000e+00
2.510292191200000023e+00 4.952303732269999870e+01 3.127274510708999742e+02 0.000000000000000000e+00 0.000000000000000000e+00 0.000000000000000000e+00
2.525989226700000145e+00 4.892724200650000199e+01 3.131933892403999948e+02 0.000000000000000000e+00 0.000000000000000000e+00 0.000000000000000000e+00
-8.089382949000000211e-01 5.284872814869999758e+01 3.097454364674999852e+02 0.000000000000000000e+00 0.000000000000000000e+00 0.000000000000000000e+00
1.960262579000000005e-01 5.030035470140000342e+01 3.122156187456999987e+02 0.000000000000000000e+00 0.000000000000000000e+00 0.000000000000000000e+00
1.255404241099999929e+00 4.912592906809999960e+01 3.130168478099000140e+02 0.000000000000000000e+00 0.000000000000000000e+00 0.000000000000000000e+00
1.250090166199999908e+00 4.637280623539999880e+01 3.142713784105000059e+02 0.000000000000000000e+00 0.000000000000000000e+00 0.000000000000000000e+00
-7.377686814999999676e-01 4.740339345480000333e+01 3.137126736542999765e+02 0.000000000000000000e+00 0.000000000000000000e+00 0.000000000000000000e+00
-2.876198040299999814e+00 4.648511825759999994e+01 3.129921343484999738e+02 0.000000000000000000e+00 0.000000000000000000e+00 0.000000000000000000e+00
-1.135201958999999983e+00 5.182304944549999703e+01 3.107913562224999851e+02 0.000000000000000000e+00 0.000000000000000000e+00 0.000000000000000000e+00
-2.291008187999999945e-01 4.944447489640000271e+01 3.129679992792000007e+02 0.000000000000000000e+00 0.000000000000000000e+00 0.000000000000000000e+00
2.262787608000000061e-01 5.587183403790000114e+01 3.063701955210000278e+02 0.000000000000000000e+00 0.000000000000000000e+00 0.000000000000000000e+00
4.219791983200000374e+00 6.553316053349999493e+01 2.878188422741000068e+02 0.000000000000000000e+00 0.000000000000000000e+00 0.000000000000000000e+00
3.743471313000000134e+00 6.546539989149999883e+01 2.883227117893000013e+02 0.000000000000000000e+00 0.000000000000000000e+00 0.000000000000000000e+00
3.172428760399999881e+00 6.490086128480000127e+01 2.898518809006999959e+02 0.000000000000000000e+00 0.000000000000000000e+00 0.000000000000000000e+00
2.664530128700000056e+00 6.503753901979999341e+01 2.933944768713000144e+02 0.000000000000000000e+00 0.000000000000000000e+00 0.000000000000000000e+00
3.700345702999999764e-01 5.866520429620000243e+01 3.030880373956999847e+02 0.000000000000000000e+00 0.000000000000000000e+00 0.000000000000000000e+00
1.674644023900000001e+00 6.537081211679999626e+01 2.913545449845000235e+02 0.000000000000000000e+00 0.000000000000000000e+00 0.000000000000000000e+00
1.186035020400000084e+00 6.585498855599999501e+01 2.918794694516000163e+02 0.000000000000000000e+00 0.000000000000000000e+00 0.000000000000000000e+00
1.726165263900000024e+00 6.522953762580000614e+01 2.932032479485000067e+02 0.000000000000000000e+00 0.000000000000000000e+00 0.000000000000000000e+00
6.786300310999999752e-01 6.524070265330000495e+01 2.932865316053000129e+02 0.000000000000000000e+00 0.000000000000000000e+00 0.000000000000000000e+00
2.063022143000000086e-01 6.489543676680000317e+01 2.908857865060999757e+02 0.000000000000000000e+00 0.000000000000000000e+00 0.000000000000000000e+00
2.412135099999999921e-01 6.572783966980000514e+01 2.921895829523999737e+02 0.000000000000000000e+00 0.000000000000000000e+00 0.000000000000000000e+00
1.212414173700000042e+00 6.398678687059999959e+01 2.953091446034999876e+02 0.000000000000000000e+00 0.000000000000000000e+00 0.000000000000000000e+00
2.727739244499999938e+00 6.105737763740000190e+01 2.994469424933000141e+02 0.000000000000000000e+00 0.000000000000000000e+00 0.000000000000000000e+00
-2.625657868999999867e-01 6.571489257710000231e+01 2.921986754929000085e+02 0.000000000000000000e+00 0.000000000000000000e+00 0.000000000000000000e+00
7.303029407000000139e-01 6.372932258480000201e+01 2.957364337390999935e+02 0.000000000000000000e+00 0.000000000000000000e+00 0.000000000000000000e+00
-3.248567298999999742e-01 6.457533144839999295e+01 2.943645951081999783e+02 0.000000000000000000e+00 0.000000000000000000e+00 0.000000000000000000e+00
-1.298518369700000008e+00 6.556964834869999947e+01 2.884318951911999989e+02 0.000000000000000000e+00 0.000000000000000000e+00 0.000000000000000000e+00
-1.193635227199999926e+00 6.521228796270000316e+01 2.892358336349000183e+02 0.000000000000000000e+00 0.000000000000000000e+00 0.000000000000000000e+00
-7.739747815999999947e-01 6.506269943040000214e+01 2.898110947934999899e+02 0.000000000000000000e+00 0.000000000000000000e+00 0.000000000000000000e+00
-2.861576074000000136e-01 6.432211423729999922e+01 2.947746172774000115e+02 0.000000000000000000e+00 0.000000000000000000e+00 0.000000000000000000e+00
1.201806019099999956e+00 6.137667142130000286e+01 2.993041941966000081e+02 0.000000000000000000e+00 0.000000000000000000e+00 0.000000000000000000e+00
2.762671026200000046e+00 5.895889160729999645e+01 3.019005699809000021e+02 0.000000000000000000e+00 0.000000000000000000e+00 0.000000000000000000e+00
2.165756743799999828e+00 5.940513910519999996e+01 3.017820868594999979e+02 0.000000000000000000e+00 0.000000000000000000e+00 0.000000000000000000e+00
-1.798852597500000039e+00 6.497842654190000644e+01 2.893465063381000277e+02 0.000000000000000000e+00 0.000000000000000000e+00 0.000000000000000000e+00
-8.044252562999999467e-01 6.299096928840000231e+01 2.968594835435999926e+02 0.000000000000000000e+00 0.000000000000000000e+00 0.000000000000000000e+00
-2.252943480499999929e+00 6.484461854810000148e+01 2.893195926988000224e+02 0.000000000000000000e+00 0.000000000000000000e+00 0.000000000000000000e+00
-2.313690676799999846e+00 6.453750232880000226e+01 2.898680913045000125e+02 0.000000000000000000e+00 0.000000000000000000e+00 0.000000000000000000e+00
2.654426442900000183e+00 5.739861724360000039e+01 3.037319017789000100e+02 0.000000000000000000e+00 0.000000000000000000e+00 0.000000000000000000e+00
-8.386130512999999675e-01 6.258453012279999683e+01 2.974451977942999861e+02 0.000000000000000000e+00 0.000000000000000000e+00 0.000000000000000000e+00
2.000525328999999963e-01 6.059828756739999989e+01 3.004113176129999943e+02 0.000000000000000000e+00 0.000000000000000000e+00 0.000000000000000000e+00
7.240914067000000509e-01 5.925681836310000250e+01 3.022300816742999814e+02 0.000000000000000000e+00 0.000000000000000000e+00 0.000000000000000000e+00
1.744730117600000074e+00 5.805970464730000202e+01 3.034124288828999738e+02 0.000000000000000000e+00 0.000000000000000000e+00 0.000000000000000000e+00
2.709891040900000103e+00 5.638876870930000251e+01 3.048104096197000104e+02 0.000000000000000000e+00 0.000000000000000000e+00 0.000000000000000000e+00
2.271110938800000145e+00 5.701531816189999802e+01 3.043767353404999767e+02 0.000000000000000000e+00 0.000000000000000000e+00 0.000000000000000000e+00
2.853325819600000202e+00 5.607181213150000332e+01 3.049882430275999923e+02 0.000000000000000000e+00 0.000000000000000000e+00 0.000000000000000000e+00
2.259454910000000094e+00 5.556540063650000150e+01 3.059614885699999718e+02 0.000000000000000000e+00 0.000000000000000000e+00 0.000000000000000000e+00
-3.224522715200000000e+00 6.372036471780000255e+01 2.906431126185000267e+02 0.000000000000000000e+00 0.000000000000000000e+00 0.000000000000000000e+00
-7.597254032000000379e-01 5.989805198349999671e+01 3.012962605965000193e+02 0.000000000000000000e+00 0.000000000000000000e+00 0.000000000000000000e+00
-2.561947679000000089e-01 5.885508990659999995e+01 3.027518704724000145e+02 0.000000000000000000e+00 0.000000000000000000e+00 0.000000000000000000e+00
-2.018679215999999998e-01 5.864249095150000102e+01 3.030474604095999780e+02 0.000000000000000000e+00 0.000000000000000000e+00 0.000000000000000000e+00
1.713698253200000021e+00 5.592541678159999918e+01 3.058438114942999846e+02 0.000000000000000000e+00 0.000000000000000000e+00 0.000000000000000000e+00
1.714545497000000029e+00 5.546231653390000105e+01 3.063542269077000242e+02 0.000000000000000000e+00 0.000000000000000000e+00 0.000000000000000000e+00
1.725413337800000058e+00 5.502035316210000104e+01 3.068662764860000038e+02 0.000000000000000000e+00 0.000000000000000000e+00 0.000000000000000000e+00
2.854548668100000075e+00 5.352585936730000071e+01 3.079688512362999973e+02 0.000000000000000000e+00 0.000000000000000000e+00 0.000000000000000000e+00
-2.838852609999999999e-01 5.754108350780000336e+01 3.043955962959000203e+02 0.000000000000000000e+00 0.000000000000000000e+00 0.000000000000000000e+00
-7.963528141000000282e-01 5.750247273309999940e+01 3.043876457037000023e+02 0.000000000000000000e+00 0.000000000000000000e+00 0.000000000000000000e+00
-7.320517986000000255e-01 5.727168124479999989e+01 3.047087067058999992e+02 0.000000000000000000e+00 0.000000000000000000e+00 0.000000000000000000e+00
7.356413897000000368e-01 5.494510251450000027e+01 3.073083078605000082e+02 0.000000000000000000e+00 0.000000000000000000e+00 0.000000000000000000e+00
1.744313964799999894e+00 5.310652054260000199e+01 3.090019922533999761e+02 0.000000000000000000e+00 0.000000000000000000e+00 0.000000000000000000e+00
2.747049655000000090e+00 5.094846479320000299e+01 3.108221143278000227e+02 0.000000000000000000e+00 0.000000000000000000e+00 0.000000000000000000e+00
1.221892482399999924e+00 5.299449479790000339e+01 3.093614109366000093e+02 0.000000000000000000e+00 0.000000000000000000e+00 0.000000000000000000e+00
-8.031293409999999966e-01 5.450613830919999714e+01 3.079303388208999763e+02 0.000000000000000000e+00 0.000000000000000000e+00 0.000000000000000000e+00
2.711928103999999840e-01 5.357378988680000020e+01 3.089378055358999973e+02 0.000000000000000000e+00 0.000000000000000000e+00 0.000000000000000000e+00
2.448757071999999868e-01 5.304436894429999683e+01 3.095220011700999976e+02 0.000000000000000000e+00 0.000000000000000000e+00 0.000000000000000000e+00
1.260160325700000028e+00 5.145965174410000031e+01 3.109020023124999739e+02 0.000000000000000000e+00 0.000000000000000000e+00 0.000000000000000000e+00
1.724930329700000042e+00 5.043964682010000189e+01 3.117375777825999990e+02 0.000000000000000000e+00 0.000000000000000000e+00 0.000000000000000000e+00
2.163308739500000133e+00 4.937556002630000052e+01 3.127187767076999876e+02 0.000000000000000000e+00 0.000000000000000000e+00 0.000000000000000000e+00
2.200297961800000035e+00 4.878527884860000086e+01 3.131124959101999821e+02 0.000000000000000000e+00 0.000000000000000000e+00 0.000000000000000000e+00
-3.069208315999999992e-01 5.156444185259999813e+01 3.110311539050999841e+02 0.000000000000000000e+00 0.000000000000000000e+00 0.000000000000000000e+00
7.130423666999999854e-01 5.003520322319999991e+01 3.123860240693999799e+02 0.000000000000000000e+00 0.000000000000000000e+00 0.000000000000000000e+00
-2.625544957000000013e-01 5.080803343030000008e+01 3.117645315708999760e+02 0.000000000000000000e+00 0.000000000000000000e+00 0.000000000000000000e+00
-1.109128902899999991e+00 5.074714162779999782e+01 3.117977192984999988e+02 0.000000000000000000e+00 0.000000000000000000e+00 0.000000000000000000e+00
-7.733604762000000354e-01 5.038274599740000070e+01 3.122734929043999728e+02 0.000000000000000000e+00 0.000000000000000000e+00 0.000000000000000000e+00
1.834719498999999865e-01 4.885141341690000161e+01 3.133963215182000113e+02 0.000000000000000000e+00 0.000000000000000000e+00 0.000000000000000000e+00
-2.613122858100000112e+00 5.067812708679999645e+01 3.091865695632000097e+02 0.000000000000000000e+00 0.000000000000000000e+00 0.000000000000000000e+00
-8.449072708000000542e-01 4.794828182199999844e+01 3.132350679437000167e+02 0.000000000000000000e+00 0.000000000000000000e+00 0.000000000000000000e+00
-2.918501686000000150e-01 4.635239966120000332e+01 3.142432349104000195e+02 0.000000000000000000e+00 0.000000000000000000e+00 0.000000000000000000e+00
-2.338144859099999806e+00 4.800326320799999991e+01 3.119792348583000035e+02 0.000000000000000000e+00 0.000000000000000000e+00 0.000000000000000000e+00
-1.809272932200000072e+00 4.740000998880000083e+01 3.128739184949999981e+02 0.000000000000000000e+00 0.000000000000000000e+00 0.000000000000000000e+00
-1.742773471200000035e+00 4.689648275470000272e+01 3.133409130535000031e+02 0.000000000000000000e+00 0.000000000000000000e+00 0.000000000000000000e+00
-7.778480503000000379e-01 6.398111485310000290e+01 2.952850633675000154e+02 0.000000000000000000e+00 0.000000000000000000e+00 0.000000000000000000e+00
2.048281885000000080e-01 6.138354061150000263e+01 2.993124401645000034e+02 0.000000000000000000e+00 0.000000000000000000e+00 0.000000000000000000e+00
-1.045676843699999914e+00 5.223818934629999688e+01 3.105730610131000162e+02 0.000000000000000000e+00 0.000000000000000000e+00 0.000000000000000000e+00
1.337039222900000102e+00 5.411647080070000015e+01 3.080423268819999976e+02 0.000000000000000000e+00 0.000000000000000000e+00 0.000000000000000000e+00
2.242042307200000195e+00 6.490600311020000390e+01 2.902964324942000189e+02 0.000000000000000000e+00 0.000000000000000000e+00 0.000000000000000000e+00
4.218083331399999913e+00 6.531212727160000497e+01 2.882725662995999869e+02 0.000000000000000000e+00 0.000000000000000000e+00 0.000000000000000000e+00
4.672325761099999752e+00 6.485271764150000706e+01 2.888178135443999963e+02 0.000000000000000000e+00 0.000000000000000000e+00 0.000000000000000000e+00
4.893926684200000210e+00 6.463215510019999499e+01 2.889824032172999750e+02 0.000000000000000000e+00 0.000000000000000000e+00 0.000000000000000000e+00
4.304092557899999782e+00 6.513398373169999900e+01 2.885288004616999729e+02 0.000000000000000000e+00 0.000000000000000000e+00 0.000000000000000000e+00
3.780758459399999882e+00 6.561585394729999621e+01 2.879607390821000195e+02 0.000000000000000000e+00 0.000000000000000000e+00 0.000000000000000000e+00
3.670751747699999790e+00 6.529982648610000240e+01 2.887928512758999773e+02 0.000000000000000000e+00 0.000000000000000000e+00 0.000000000000000000e+00
3.827099153299999834e+00 6.513406734129999620e+01 2.889096328649999919e+02 0.000000000000000000e+00 0.000000000000000000e+00 0.000000000000000000e+00
3.729407972400000215e+00 6.496567961579999917e+01 2.893102907517999824e+02 0.000000000000000000e+00 0.000000000000000000e+00 0.000000000000000000e+00
3.860145982100000150e+00 6.461554494630000534e+01 2.898762218396000208e+02 0.000000000000000000e+00 0.000000000000000000e+00 0.000000000000000000e+00
3.214744462400000113e+00 6.532924638420000463e+01 2.888510614264000083e+02 0.000000000000000000e+00 0.000000000000000000e+00 0.000000000000000000e+00
3.979527330199999824e+00 6.422856514570000286e+01 2.913651942568000095e+02 0.000000000000000000e+00 0.000000000000000000e+00 0.000000000000000000e+00
3.762918285200000046e+00 6.456358334060000459e+01 2.917738530208000043e+02 0.000000000000000000e+00 0.000000000000000000e+00 0.000000000000000000e+00
2.723716036899999970e+00 6.556105284630000085e+01 2.923728808693999781e+02 0.000000000000000000e+00 0.000000000000000000e+00 0.000000000000000000e+00
2.801850225799999983e+00 6.490599253649999412e+01 2.903162755716999754e+02 0.000000000000000000e+00 0.000000000000000000e+00 0.000000000000000000e+00
2.242514079299999796e+00 6.555308962629999314e+01 2.888293111511999882e+02 0.000000000000000000e+00 0.000000000000000000e+00 0.000000000000000000e+00
2.162894380600000055e+00 6.539756566260000170e+01 2.914150855652000018e+02 0.000000000000000000e+00 0.000000000000000000e+00 0.000000000000000000e+00
1.162069946099999918e+00 6.471685485240000446e+01 2.941171225993999769e+02 0.000000000000000000e+00 0.000000000000000000e+00 0.000000000000000000e+00
2.224380508199999884e+00 6.573501038860000278e+01 2.921961384556000212e+02 0.000000000000000000e+00 0.000000000000000000e+00 0.000000000000000000e+00
2.236769979900000038e+00 6.526305405050000275e+01 2.897750633919999927e+02 0.000000000000000000e+00 0.000000000000000000e+00 0.000000000000000000e+00
1.758566202999999994e+00 6.556925166850000153e+01 2.889239394268000183e+02 0.000000000000000000e+00 0.000000000000000000e+00 0.000000000000000000e+00
2.652967446699999954e+00 6.428791332090000310e+01 2.946881422707999718e+02 0.000000000000000000e+00 0.000000000000000000e+00 0.000000000000000000e+00
-1.451325151100000044e+00 6.362423002959999963e+01 2.929548264915000004e+02 0.000000000000000000e+00 0.000000000000000000e+00 0.000000000000000000e+00
1.240174854199999954e+00 6.573625261169999590e+01 2.886847856861999730e+02 0.000000000000000000e+00 0.000000000000000000e+00 0.000000000000000000e+00
1.730294545000000017e+00 6.495934142880000195e+01 2.903393008569000244e+02 0.000000000000000000e+00 0.000000000000000000e+00 0.000000000000000000e+00
1.206850714400000024e+00 6.561571115850000524e+01 2.916241402152999740e+02 0.000000000000000000e+00 0.000000000000000000e+00 0.000000000000000000e+00
1.716017645199999997e+00 6.487969688100000099e+01 2.938145574738999812e+02 0.000000000000000000e+00 0.000000000000000000e+00 0.000000000000000000e+00
2.210545496900000018e+00 6.453039431019999483e+01 2.944089445236999723e+02 0.000000000000000000e+00 0.000000000000000000e+00 0.000000000000000000e+00
7.008330385000000051e-01 6.585020717950000346e+01 2.918519913072000236e+02 0.000000000000000000e+00 0.000000000000000000e+00 0.000000000000000000e+00
2.192573138399999788e+00 6.362350884300000331e+01 2.958624334475999831e+02 0.000000000000000000e+00 0.000000000000000000e+00 0.000000000000000000e+00
2.705491381599999912e+00 6.330496984100000191e+01 2.962604821231000187e+02 0.000000000000000000e+00 0.000000000000000000e+00 0.000000000000000000e+00
2.753084110100000093e+00 6.310526683380000179e+01 2.965034889034999992e+02 0.000000000000000000e+00 0.000000000000000000e+00 0.000000000000000000e+00
2.631446165999999920e-01 6.607394392230000335e+01 2.879180384265999919e+02 0.000000000000000000e+00 0.000000000000000000e+00 0.000000000000000000e+00
7.154171832000000286e-01 6.589408103780000658e+01 2.883319576673999904e+02 0.000000000000000000e+00 0.000000000000000000e+00 0.000000000000000000e+00
1.217828550699999957e+00 6.510175227339999537e+01 2.898521538192999856e+02 0.000000000000000000e+00 0.000000000000000000e+00 0.000000000000000000e+00
1.228913191600000010e+00 6.497502654950000078e+01 2.908039666879000151e+02 0.000000000000000000e+00 0.000000000000000000e+00 0.000000000000000000e+00
1.133161662800000080e+00 6.512569866670000351e+01 2.910863610208999717e+02 0.000000000000000000e+00 0.000000000000000000e+00 0.000000000000000000e+00
1.218355080400000068e+00 6.453016322649999381e+01 2.943932690771999887e+02 0.000000000000000000e+00 0.000000000000000000e+00 0.000000000000000000e+00
1.714969379300000041e+00 6.452908413420000500e+01 2.944073566984000081e+02 0.000000000000000000e+00 0.000000000000000000e+00 0.000000000000000000e+00
1.709943897899999898e+00 6.400863015400000222e+01 2.952759817659999726e+02 0.000000000000000000e+00 0.000000000000000000e+00 0.000000000000000000e+00
2.727595983300000082e+00 6.252656537019999661e+01 2.973449169786999846e+02 0.000000000000000000e+00 0.000000000000000000e+00 0.000000000000000000e+00
5.894896122999999655e-01 6.563201520420000179e+01 2.924553620024000224e+02 0.000000000000000000e+00 0.000000000000000000e+00 0.000000000000000000e+00
1.733997206299999982e+00 6.374733668159999667e+01 2.957172455621999916e+02 0.000000000000000000e+00 0.000000000000000000e+00 0.000000000000000000e+00
1.712324710399999894e+00 6.337533751069999965e+01 2.962997598430000039e+02 0.000000000000000000e+00 0.000000000000000000e+00 0.000000000000000000e+00
2.238271394699999917e+00 6.334047565489999698e+01 2.963121172514000250e+02 0.000000000000000000e+00 0.000000000000000000e+00 0.000000000000000000e+00
7.219528727999999784e-01 6.496521821819999332e+01 2.903081141454999852e+02 0.000000000000000000e+00 0.000000000000000000e+00 0.000000000000000000e+00
2.196379100100000148e+00 6.237008780120000040e+01 2.978074915239000120e+02 0.000000000000000000e+00 0.000000000000000000e+00 0.000000000000000000e+00
1.587944105000000106e-01 6.559373930040000289e+01 2.889221934113999737e+02 0.000000000000000000e+00 0.000000000000000000e+00 0.000000000000000000e+00
2.095672889000000094e-01 6.510338299209999491e+01 2.899533957494999754e+02 0.000000000000000000e+00 0.000000000000000000e+00 0.000000000000000000e+00
-3.540842992000000078e-01 4.653432406000000299e+01 3.140528817141999980e+02 0.000000000000000000e+00 0.000000000000000000e+00 0.000000000000000000e+00
2.241210933999999988e-01 6.533591205689999981e+01 2.913974110474999861e+02 0.000000000000000000e+00 0.000000000000000000e+00 0.000000000000000000e+00
1.732064030999999893e-01 6.562478163209999593e+01 2.924502960532000202e+02 0.000000000000000000e+00 0.000000000000000000e+00 0.000000000000000000e+00
2.026093065000000026e-01 6.488116084450000187e+01 2.938325681925999788e+02 0.000000000000000000e+00 0.000000000000000000e+00 0.000000000000000000e+00
1.215505166200000042e+00 6.358369586090000070e+01 2.959901442101000271e+02 0.000000000000000000e+00 0.000000000000000000e+00 0.000000000000000000e+00
1.702889905299999951e+00 6.238642736429999758e+01 2.978231005870999866e+02 0.000000000000000000e+00 0.000000000000000000e+00 0.000000000000000000e+00
2.197040010399999854e+00 6.176384396920000341e+01 2.987138563836999765e+02 0.000000000000000000e+00 0.000000000000000000e+00 0.000000000000000000e+00
-7.813650551999999916e-01 6.596863172909999662e+01 2.878419807471000240e+02 0.000000000000000000e+00 0.000000000000000000e+00 0.000000000000000000e+00
-2.812392793999999863e-01 6.485338796630000502e+01 2.908319395903999975e+02 0.000000000000000000e+00 0.000000000000000000e+00 0.000000000000000000e+00
-2.979750850999999812e-01 6.506354080699999543e+01 2.911991782235999722e+02 0.000000000000000000e+00 0.000000000000000000e+00 0.000000000000000000e+00
-3.156926811999999916e-01 6.543217120970000167e+01 2.928008443000999819e+02 0.000000000000000000e+00 0.000000000000000000e+00 0.000000000000000000e+00
-2.763154637999999941e-01 6.505518524960000093e+01 2.934446412936999877e+02 0.000000000000000000e+00 0.000000000000000000e+00 0.000000000000000000e+00
-2.803097565000000069e-01 6.485918822909999903e+01 2.938980099583000083e+02 0.000000000000000000e+00 0.000000000000000000e+00 0.000000000000000000e+00
2.003846763000000086e-01 6.455632096310000634e+01 2.943945166789000041e+02 0.000000000000000000e+00 0.000000000000000000e+00 0.000000000000000000e+00
2.182662200999999913e-01 6.399234209320000133e+01 2.953230348176999769e+02 0.000000000000000000e+00 0.000000000000000000e+00 0.000000000000000000e+00
2.208626363100000045e+00 6.134102525809999662e+01 2.993137393331999760e+02 0.000000000000000000e+00 0.000000000000000000e+00 0.000000000000000000e+00
-1.310833073500000001e+00 6.586835630330000413e+01 2.878142836365000221e+02 0.000000000000000000e+00 0.000000000000000000e+00 0.000000000000000000e+00
6.754538758000000476e-01 6.337365051990000353e+01 2.963170834791999937e+02 0.000000000000000000e+00 0.000000000000000000e+00 0.000000000000000000e+00
-1.251973297499999971e+00 6.572126933699999540e+01 2.881550219072000232e+02 0.000000000000000000e+00 0.000000000000000000e+00 0.000000000000000000e+00
-8.635696087999999992e-01 6.501632631910000271e+01 2.912526427033000118e+02 0.000000000000000000e+00 0.000000000000000000e+00 0.000000000000000000e+00
-3.007857917000000270e-01 6.398063777210000325e+01 2.953335453898000083e+02 0.000000000000000000e+00 0.000000000000000000e+00 0.000000000000000000e+00
1.694050021000000017e+00 6.076558103800000055e+01 3.001904511592999825e+02 0.000000000000000000e+00 0.000000000000000000e+00 0.000000000000000000e+00
2.747985194600000014e+00 5.947987877010000091e+01 3.013324045977000196e+02 0.000000000000000000e+00 0.000000000000000000e+00 0.000000000000000000e+00
-1.381113223300000081e+00 6.509358410359999425e+01 2.893624592530999848e+02 0.000000000000000000e+00 0.000000000000000000e+00 0.000000000000000000e+00
-7.982552525999999649e-01 6.412105327529999954e+01 2.950202749489999974e+02 0.000000000000000000e+00 0.000000000000000000e+00 0.000000000000000000e+00
-3.026921830000000035e-01 6.337547220190000274e+01 2.963130289915000048e+02 0.000000000000000000e+00 0.000000000000000000e+00 0.000000000000000000e+00
2.160544554000000117e-01 6.279864514860000213e+01 2.972271881420999762e+02 0.000000000000000000e+00 0.000000000000000000e+00 0.000000000000000000e+00
2.003937215999999910e-01 6.238361024809999833e+01 2.978203533244999903e+02 0.000000000000000000e+00 0.000000000000000000e+00 0.000000000000000000e+00
7.050374722000000149e-01 6.175533768919999744e+01 2.987768524949000266e+02 0.000000000000000000e+00 0.000000000000000000e+00 0.000000000000000000e+00
-2.279812597799999896e+00 6.554893081340000549e+01 2.878026319785000169e+02 0.000000000000000000e+00 0.000000000000000000e+00 0.000000000000000000e+00
-1.797674614099999957e+00 6.548784277859999747e+01 2.883259434668000267e+02 0.000000000000000000e+00 0.000000000000000000e+00 0.000000000000000000e+00
-1.902636383399999964e+00 6.513441084869999997e+01 2.889408691345000193e+02 0.000000000000000000e+00 0.000000000000000000e+00 0.000000000000000000e+00
-1.356452071200000109e+00 6.462700406940000164e+01 2.903494109874000060e+02 0.000000000000000000e+00 0.000000000000000000e+00 0.000000000000000000e+00
2.202096918100000078e+00 5.886480320340000105e+01 3.023676059722000105e+02 0.000000000000000000e+00 0.000000000000000000e+00 0.000000000000000000e+00
6.902443615000000143e-01 6.138994945769999845e+01 2.992947187141999734e+02 0.000000000000000000e+00 0.000000000000000000e+00 0.000000000000000000e+00
1.714597554000000024e+00 5.951894397539999915e+01 3.017665879928999857e+02 0.000000000000000000e+00 0.000000000000000000e+00 0.000000000000000000e+00
-2.649722503999999978e-01 6.200604694750000334e+01 2.983631297329999938e+02 0.000000000000000000e+00 0.000000000000000000e+00 0.000000000000000000e+00
7.029235410999999933e-01 6.033962431900000212e+01 3.007670133606000036e+02 0.000000000000000000e+00 0.000000000000000000e+00 0.000000000000000000e+00
1.189608907900000068e+00 5.975892372709999734e+01 3.016121751892999896e+02 0.000000000000000000e+00 0.000000000000000000e+00 0.000000000000000000e+00
1.701514285300000040e+00 5.894719003979999883e+01 3.024346901655000011e+02 0.000000000000000000e+00 0.000000000000000000e+00 0.000000000000000000e+00
-7.848712515000000334e-01 6.232526060069999829e+01 2.978313206694999735e+02 0.000000000000000000e+00 0.000000000000000000e+00 0.000000000000000000e+00
1.936375710000000083e-01 6.098459865009999703e+01 2.998932352534999950e+02 0.000000000000000000e+00 0.000000000000000000e+00 0.000000000000000000e+00
-7.376607475999999997e-01 6.130770260700000307e+01 2.993340378156000270e+02 0.000000000000000000e+00 0.000000000000000000e+00 0.000000000000000000e+00
-2.815401706999999809e-01 6.071383897879999836e+01 3.002441422483000224e+02 0.000000000000000000e+00 0.000000000000000000e+00 0.000000000000000000e+00
2.161236009999999985e-01 5.951898993150000194e+01 3.018716551572999833e+02 0.000000000000000000e+00 0.000000000000000000e+00 0.000000000000000000e+00
1.203516288100000109e+00 5.787961510230000073e+01 3.038059416228999794e+02 0.000000000000000000e+00 0.000000000000000000e+00 0.000000000000000000e+00
2.830443020100000151e+00 5.554673270760000037e+01 3.055167903435000198e+02 0.000000000000000000e+00 0.000000000000000000e+00 0.000000000000000000e+00
-2.650243399000000166e-01 5.992639292220000158e+01 3.013163570556000082e+02 0.000000000000000000e+00 0.000000000000000000e+00 0.000000000000000000e+00
-1.528316753099999925e+00 6.158999227120000342e+01 2.963702547673000254e+02 0.000000000000000000e+00 0.000000000000000000e+00 0.000000000000000000e+00
-7.560569334000000197e-01 6.072666839450000253e+01 3.002246739648999778e+02 0.000000000000000000e+00 0.000000000000000000e+00 0.000000000000000000e+00
-1.548158317199999967e+00 6.126354858349999688e+01 2.972633645253000054e+02 0.000000000000000000e+00 0.000000000000000000e+00 0.000000000000000000e+00
4.536979701000000142e-01 5.816966996389999878e+01 3.037589492215000178e+02 0.000000000000000000e+00 0.000000000000000000e+00 0.000000000000000000e+00
2.278153777600000041e+00 5.509285484410000322e+01 3.064491338784000050e+02 0.000000000000000000e+00 0.000000000000000000e+00 0.000000000000000000e+00
2.151788641999999863e-01 5.844793750400000221e+01 3.032970064793000233e+02 0.000000000000000000e+00 0.000000000000000000e+00 0.000000000000000000e+00
2.076329276999999973e-01 5.800130746520000002e+01 3.038398855991000005e+02 0.000000000000000000e+00 0.000000000000000000e+00 0.000000000000000000e+00
6.322883071999999549e-01 5.728299680899999657e+01 3.046467280950000145e+02 0.000000000000000000e+00 0.000000000000000000e+00 0.000000000000000000e+00
2.661031582200000134e+00 5.434020709859999698e+01 3.072434082897000280e+02 0.000000000000000000e+00 0.000000000000000000e+00 0.000000000000000000e+00
2.094158173000000012e-01 5.754397021460000161e+01 3.043796257509999919e+02 0.000000000000000000e+00 0.000000000000000000e+00 0.000000000000000000e+00
7.219557313000000143e-01 5.703021747060000024e+01 3.049102003564000256e+02 0.000000000000000000e+00 0.000000000000000000e+00 0.000000000000000000e+00
1.230277201000000042e+00 5.646235583229999833e+01 3.053766951497000264e+02 0.000000000000000000e+00 0.000000000000000000e+00 0.000000000000000000e+00
1.219192642799999948e+00 5.602313407909999654e+01 3.058920788634000019e+02 0.000000000000000000e+00 0.000000000000000000e+00 0.000000000000000000e+00
2.238385158999999902e+00 5.440549799669999942e+01 3.073663609358999906e+02 0.000000000000000000e+00 0.000000000000000000e+00 0.000000000000000000e+00
2.798339208999999883e+00 5.400284632620000025e+01 3.074895875657999795e+02 0.000000000000000000e+00 0.000000000000000000e+00 0.000000000000000000e+00
-2.370747234900000056e+00 6.109763336630000197e+01 2.959453621569999768e+02 0.000000000000000000e+00 0.000000000000000000e+00 0.000000000000000000e+00
-2.933383244000000167e-01 5.799251561429999668e+01 3.038326462483000228e+02 0.000000000000000000e+00 0.000000000000000000e+00 0.000000000000000000e+00
1.176880582899999972e+00 5.574803125710000273e+01 3.062443340576999731e+02 0.000000000000000000e+00 0.000000000000000000e+00 0.000000000000000000e+00
1.210790912700000055e+00 5.510371340729999901e+01 3.069479362390000006e+02 0.000000000000000000e+00 0.000000000000000000e+00 0.000000000000000000e+00
-7.993613135999999564e-01 5.798768785120000047e+01 3.037945874782000146e+02 0.000000000000000000e+00 0.000000000000000000e+00 0.000000000000000000e+00
1.214523235299999948e+00 5.533278581700000132e+01 3.067038896303000115e+02 0.000000000000000000e+00 0.000000000000000000e+00 0.000000000000000000e+00
1.705120307100000066e+00 5.430613348560000020e+01 3.076880251787000020e+02 0.000000000000000000e+00 0.000000000000000000e+00 0.000000000000000000e+00
2.229821904700000079e+00 5.350960121020000315e+01 3.084421790994999810e+02 0.000000000000000000e+00 0.000000000000000000e+00 0.000000000000000000e+00
2.878859755600000181e+00 5.259421333950000133e+01 3.089709554474999891e+02 0.000000000000000000e+00 0.000000000000000000e+00 0.000000000000000000e+00
-3.546323281799999894e+00 6.218114461079999700e+01 2.930833616991000099e+02 0.000000000000000000e+00 0.000000000000000000e+00 0.000000000000000000e+00
1.363718233399999979e+00 5.460738345229999879e+01 3.074524215175999871e+02 0.000000000000000000e+00 0.000000000000000000e+00 0.000000000000000000e+00
1.714114606599999924e+00 5.406418759759999659e+01 3.079784357474999865e+02 0.000000000000000000e+00 0.000000000000000000e+00 0.000000000000000000e+00
1.739449465000000083e+00 5.335858632120000067e+01 3.087867684601000065e+02 0.000000000000000000e+00 0.000000000000000000e+00 0.000000000000000000e+00
2.747438079900000218e+00 5.193636626349999830e+01 3.098402578596000012e+02 0.000000000000000000e+00 0.000000000000000000e+00 0.000000000000000000e+00
-7.903674462999999983e-01 5.637585200649999706e+01 3.057800805922000222e+02 0.000000000000000000e+00 0.000000000000000000e+00 0.000000000000000000e+00
2.090858482999999879e-01 5.500189588829999821e+01 3.073725419191999890e+02 0.000000000000000000e+00 0.000000000000000000e+00 0.000000000000000000e+00
2.169766992800000072e+00 5.235244407340000095e+01 3.097531985406000103e+02 0.000000000000000000e+00 0.000000000000000000e+00 0.000000000000000000e+00
-1.918071824399999903e+00 5.805706474849999665e+01 3.009430183549000049e+02 0.000000000000000000e+00 0.000000000000000000e+00 0.000000000000000000e+00
-2.720361948000000196e-01 5.545131756539999657e+01 3.068770121376999782e+02 0.000000000000000000e+00 0.000000000000000000e+00 0.000000000000000000e+00
-2.957640946999999798e-01 5.525112496189999689e+01 3.071359468745000072e+02 0.000000000000000000e+00 0.000000000000000000e+00 0.000000000000000000e+00
1.680032609999999871e-01 5.472720397900000222e+01 3.076867114034999986e+02 0.000000000000000000e+00 0.000000000000000000e+00 0.000000000000000000e+00
2.274736682899999973e+00 5.107225195379999860e+01 3.109352835204999792e+02 0.000000000000000000e+00 0.000000000000000000e+00 0.000000000000000000e+00
-2.227615833999999906e-01 6.608530147289999945e+01 2.913067985061999821e+02 0.000000000000000000e+00 0.000000000000000000e+00 0.000000000000000000e+00
1.203445769200000015e+00 5.251073854980000277e+01 3.098931606154000065e+02 0.000000000000000000e+00 0.000000000000000000e+00 0.000000000000000000e+00
2.165606808700000219e+00 5.082585608929999665e+01 3.112108316969000157e+02 0.000000000000000000e+00 0.000000000000000000e+00 0.000000000000000000e+00
6.693683955000000463e-01 5.327163152549999836e+01 3.092322518496999919e+02 0.000000000000000000e+00 0.000000000000000000e+00 0.000000000000000000e+00
2.196013027599999834e+00 5.034827000020000298e+01 3.117078644367999800e+02 0.000000000000000000e+00 0.000000000000000000e+00 0.000000000000000000e+00
-2.512977627500000199e+00 5.764782795720000053e+01 3.010205401513999846e+02 0.000000000000000000e+00 0.000000000000000000e+00 0.000000000000000000e+00
-7.957195221999999735e-01 5.540809768910000344e+01 3.069123970489000044e+02 0.000000000000000000e+00 0.000000000000000000e+00 0.000000000000000000e+00
-8.004092018999999780e-01 5.499125818950000166e+01 3.073970371002000093e+02 0.000000000000000000e+00 0.000000000000000000e+00 0.000000000000000000e+00
-3.272176299999999816e-01 5.408541396660000089e+01 3.084536571445000277e+02 0.000000000000000000e+00 0.000000000000000000e+00 0.000000000000000000e+00
-2.642603340999999939e-01 5.380976830099999830e+01 3.087632151057999863e+02 0.000000000000000000e+00 0.000000000000000000e+00 0.000000000000000000e+00
2.008757378000000093e-01 5.333590033570000344e+01 3.092441612530000157e+02 0.000000000000000000e+00 0.000000000000000000e+00 0.000000000000000000e+00
3.570434247000000005e-01 5.257225265459999974e+01 3.099977433088000112e+02 0.000000000000000000e+00 0.000000000000000000e+00 0.000000000000000000e+00
1.252063338799999981e+00 5.097210735769999701e+01 3.113512366740999937e+02 0.000000000000000000e+00 0.000000000000000000e+00 0.000000000000000000e+00
