-3.635996240099999888e+00 7.350204926060000332e+01 2.466269125069999859e+02 -2.427761269446283565e-01 9.691371475822264658e-01 -4.281286444460204871e-02
-3.637650097699999918e+00 7.351766625039999781e+01 2.470286706677999859e+02 -2.426673821547942755e-01 9.694229517011065944e-01 -3.649222318868714648e-02
-3.639394153600000070e+00 7.353066517940000324e+01 2.474304821574000073e+02 -2.425481443816954186e-01 9.696663842361391561e-01 -3.029027796848925494e-02
-3.641226651999999842e+00 7.354109700440000097e+01 2.478323459377000120e+02 -2.424189751496909906e-01 9.698695884081425245e-01 -2.420789062255950669e-02
-3.643145837400000087e+00 7.354901268189999541e+01 2.482342609707999941e+02 -2.422804276944053592e-01 9.700346817031554325e-01 -1.824583923183174458e-02
-3.645149954299999884e+00 7.355446316869999634e+01 2.486362262188000045e+02 -2.421330463714846948e-01 9.701637533194583662e-01 -1.240482164184601027e-02
-3.647237247000000071e+00 7.355749942159999932e+01 2.490382406436000053e+02 -2.419773660984476382e-01 9.702588618167280465e-01 -6.685459009312574516e-03
-3.649405960000000171e+00 7.355817239709999455e+01 2.494403032074000066e+02 -2.418139118551104749e-01 9.703220329549082646e-01 -1.088299399548047679e-03
-3.651654337700000141e+00 7.355653305209999360e+01 2.498424128720999988e+02 -2.416502705860147926e-01 9.703528403494273702e-01 4.529012199677081088e-03
-3.653980624599999949e+00 7.355263234320000265e+01 2.502445685996999885e+02 -2.414722642281628417e-01 9.703575053018053120e-01 9.872057180823240116e-03
-3.656383064999999988e+00 7.354652122699999950e+01 2.506467693524000140e+02 -2.412880144398875382e-01 9.703361974532896950e-01 1.509165330730168932e-02
-3.658859903499999788e+00 7.353825066039999570e+01 2.510490140921000091e+02 -2.410980016754337985e-01 9.702907904141451212e-01 2.018751162491369544e-02
-3.661409384300000180e+00 7.352787159999999744e+01 2.514513017808999962e+02 -2.409026946407565595e-01 9.702231168108731429e-01 2.515939825626168497e-02
-3.664029751999999807e+00 7.351543500249999852e+01 2.518536313808000102e+02 -2.407025500717042965e-01 9.701349671462560220e-01 3.000713097100266361e-02
-3.666719250899999949e+00 7.350099182469999448e+01 2.522560018538999884e+02 -2.404980125239514765e-01 9.700280888087607911e-01 3.473057578060471245e-02
-3.669476125500000130e+00 7.348459302310000396e+01 2.526584121621000065e+02 -2.402895142259535433e-01 9.699041852104092198e-01 3.932964358327496052e-02
-3.672298620299999872e+00 7.346628955459999588e+01 2.530608612675999893e+02 -2.400774749369616878e-01 9.697649150570062382e-01 4.380428691772132038e-02
-3.675184979600000013e+00 7.344613237570000308e+01 2.534633481323000126e+02 -2.398623018507944349e-01 9.696118917352961608e-01 4.815449674058099733e-02
-3.678133447800000067e+00 7.342417244329999448e+01 2.538658717183000135e+02 -2.396443895213976882e-01 9.694466828121828250e-01 5.238029930586526883e-02
-3.681142269500000008e+00 7.340046071400000471e+01 2.542684309875999986e+02 -2.394241198252573255e-01 9.692708096339873736e-01 5.648175313652528673e-02
-3.684209688999999788e+00 7.337504814449999913e+01 2.546710249022999903e+02 -2.392018619290015857e-01 9.690857470272312701e-01 6.045894605740331079e-02
-3.687333950699999807e+00 7.334798569160000170e+01 2.550736524243999952e+02 -2.389779722955437669e-01 9.688929230830631845e-01 6.431199232700050838e-02
-3.690513299100000033e+00 7.331932431180000265e+01 2.554763125158000037e+02 -2.387527947020981200e-01 9.686937190236329931e-01 6.804102987242918732e-02
-3.693745978599999980e+00 7.328911496199999931e+01 2.558790041388000134e+02 -2.385266602719481877e-01 9.684894691433387770e-01 7.164621761101051811e-02
-3.697030233600000049e+00 7.325740859879999789e+01 2.562817262551999988e+02 -2.382998875366817426e-01 9.682814608156150582e-01 7.512773283404176883e-02
-3.700364308500000199e+00 7.322425617890000638e+01 2.566844778271999985e+02 -2.380727824996556607e-01 9.680709345580765790e-01 7.848576875283810872e-02
-3.703746447799999952e+00 7.318970865910000612e+01 2.570872578167999905e+02 -2.378456387119614879e-01 9.678590841557332958e-01 8.172053207685056608e-02
-3.707174896000000164e+00 7.315381699600000331e+01 2.574900651858999936e+02 -2.376187373694961247e-01 9.676470568253860982e-01 8.483224073484189887e-02
-3.710647897299999887e+00 7.311663214620000417e+01 2.578928988966999896e+02 -2.373923474127358491e-01 9.674359534262649829e-01 8.782112165125538494e-02
-3.714163696299999984e+00 7.307820506669999361e+01 2.582957579110999973e+02 -2.371667256373063692e-01 9.672268287040609591e-01 9.068740863848519240e-02
-3.717720537399999969e+00 7.303858671390000268e+01 2.586986411912999984e+02 -2.369421168056922711e-01 9.670206915633936529e-01 9.343134041580122839e-02
-3.721316664899999793e+00 7.299782804470000031e+01 2.591015476992000117e+02 -2.357421037782729545e-01 9.671284854346976489e-01 9.533180564209188523e-02
-3.724950323399999874e+00 7.295598001570000690e+01 2.595044763967999870e+02 -2.345568995046133920e-01 9.672170123257793906e-01 9.733607739361255229e-02
-3.728619757300000170e+00 7.291309358360000203e+01 2.599074262463000196e+02 -2.334204278176374159e-01 9.672775454678717022e-01 9.944372233118128901e-02
-3.732323210900000188e+00 7.286921970519999547e+01 2.603103962096000146e+02 -2.324422255878796917e-01 9.672909867101662229e-01 1.015812915502971037e-01
-3.736058928799999901e+00 7.282440933709999342e+01 2.607133852488000230e+02 -2.318987486464658132e-01 9.672134985043837618e-01 1.035423521420761883e-01
-3.739825155200000140e+00 7.277871343600000387e+01 2.611163923258999944e+02 -2.313858359132951459e-01 9.670964331825121496e-01 1.057595568465024699e-01
-3.743620134699999991e+00 7.273218295860000637e+01 2.615194164028999921e+02 -2.320090388795238989e-01 9.667680173013474265e-01 1.073843871399422778e-01
-3.747442111699999856e+00 7.268486886169999650e+01 2.619224564419999979e+02 -2.328475598563502502e-01 9.663756983591478278e-01 1.090872288116830902e-01
-3.751289330600000138e+00 7.263682210189999466e+01 2.623255114049999861e+02 -2.339909645697953733e-01 9.658935140930283714e-01 1.108961132444128139e-01
-3.216834912800000001e+00 7.253438028870000664e+01 2.378028643414999976e+02 -2.205868610058065171e-01 9.585156668697564220e-01 -1.805246606888682714e-01
-3.216060385100000030e+00 7.262048275770000316e+01 2.382031867444999875e+02 -2.197074528379421299e-01 9.596118166037125308e-01 -1.757094095431040448e-01
-3.215414678200000154e+00 7.270284611850000545e+01 2.386035853115000123e+02 -2.191388235682622254e-01 9.605774589179907341e-01 -1.710822066252765949e-01
-3.214896036599999896e+00 7.278152132779999306e+01 2.390040590044999931e+02 -2.187857094306510375e-01 9.614436566391142414e-01 -1.666100490886900098e-01
-3.214502704600000094e+00 7.285655934230000241e+01 2.394046067856000093e+02 -2.198660515034675245e-01 9.620931088835197320e-01 -1.613560325340152590e-01
-3.214232926699999826e+00 7.292801111859999708e+01 2.398052276166999945e+02 -2.208889972319550699e-01 9.626541478016550357e-01 -1.565408656617520988e-01
-3.214084947199999931e+00 7.299592761360000281e+01 2.402059204598999997e+02 -2.225942171100433742e-01 9.630835610246000211e-01 -1.513996994493115589e-01
-3.214057010699999939e+00 7.306035978379999563e+01 2.406066842772999905e+02 -2.246268897575536549e-01 9.634156229592009124e-01 -1.461954097637231387e-01
-3.214147361599999808e+00 7.312135858610000128e+01 2.410075180307999858e+02 -2.268082524333737970e-01 9.636746517409259249e-01 -1.410290119802447006e-01
-3.214354244199999933e+00 7.317897497699999576e+01 2.414084206825999956e+02 -2.290408045065407128e-01 9.638809546642843618e-01 -1.359184134194656446e-01
-3.214675902999999835e+00 7.323325991330000306e+01 2.418093911946000105e+02 -2.291337803222416036e-01 9.649240004920222047e-01 -1.281381441636737506e-01
-3.215110582499999925e+00 7.328426435170000275e+01 2.422104285288999961e+02 -2.292094269426126762e-01 9.658950507273029729e-01 -1.204565879524228805e-01
-3.215656527000000153e+00 7.333203924890000280e+01 2.426115316474999872e+02 -2.292683003813590081e-01 9.667962842799052714e-01 -1.128759989670582858e-01
-3.216311980900000034e+00 7.337663556159999700e+01 2.430126995123999905e+02 -2.293109614229846549e-01 9.676299068955054317e-01 -1.053985116245075015e-01
-3.217075188799999985e+00 7.341810424640000576e+01 2.434139310856999998e+02 -2.293379743452487463e-01 9.683981459178474527e-01 -9.802614195250947127e-02
-3.217944394999999957e+00 7.345649626019999801e+01 2.438152253295000094e+02 -2.293499057090344628e-01 9.691032452167236411e-01 -9.076078923010934274e-02
-3.218917843999999917e+00 7.349186255959999414e+01 2.442165812057000096e+02 -2.293473231767574894e-01 9.697474602977326219e-01 -8.360423791742468969e-02
-3.219993780099999814e+00 7.352425410130000216e+01 2.446179976763999946e+02 -2.293307943925552705e-01 9.703330535978654803e-01 -7.655815984414342246e-02
-3.221170447900000067e+00 7.355372184189999984e+01 2.450194737035999992e+02 -2.293008859088816742e-01 9.708622899810134266e-01 -6.962411661360365378e-02
-3.222446091700000181e+00 7.358031673829999875e+01 2.454210082493999892e+02 -2.292581621693412230e-01 9.713374324343909683e-01 -6.280356224372363183e-02
-3.223818955900000116e+00 7.360408974710000507e+01 2.458226002757999993e+02 -2.291775464102070170e-01 9.717745748819207607e-01 -5.596273612377362233e-02
-3.225287284999999837e+00 7.362509182489999660e+01 2.462242487446999917e+02 -2.291120389249386990e-01 9.721467250920685643e-01 -4.938034540607259132e-02
-3.226849323500000200e+00 7.364337392859999909e+01 2.466259526183999924e+02 -2.290354184514225011e-01 9.724716246715563450e-01 -4.291522228120751847e-02
-3.228503315599999812e+00 7.365898701480000454e+01 2.470277108587999919e+02 -2.289482312101912553e-01 9.727514884980464904e-01 -3.656841602475921493e-02
-3.230247505999999991e+00 7.367198204010000495e+01 2.474295224278000092e+02 -2.288510170219478779e-01 9.729885111148343091e-01 -3.034088407673368737e-02
-3.232080138899999788e+00 7.368240996139999766e+01 2.478313862877000133e+02 -2.287443086305387119e-01 9.731848637166651272e-01 -2.423349545385907258e-02
-3.233999458800000060e+00 7.369032173530000307e+01 2.482333014003000073e+02 -2.286286310673495414e-01 9.733426913453014917e-01 -1.824703430574246832e-02
-3.236003710099999875e+00 7.369576831850000076e+01 2.486352667278000013e+02 -2.285045010615262273e-01 9.734641102946804958e-01 -1.238220347146393868e-02
-3.238091137400000097e+00 7.369880066769999871e+01 2.490372812322000016e+02 -2.283724265138531440e-01 9.735512057138656639e-01 -6.639628096020165626e-03
-3.240259984899999779e+00 7.369946973960000491e+01 2.494393438754999863e+02 -2.282329060084618277e-01 9.736060294092396816e-01 -1.019859258740561658e-03
-3.242508497100000220e+00 7.369782649089999893e+01 2.498414536196999904e+02 -2.280864283789335312e-01 9.736305978354234947e-01 4.476622384963829457e-03
-3.244834918400000046e+00 7.369392187830000296e+01 2.502436094267999920e+02 -2.279334723168520427e-01 9.736268902712954532e-01 9.849402937739244052e-03
-3.247237493400000119e+00 7.368780685849999657e+01 2.506458102590000010e+02 -2.277888545483500726e-01 9.735923826978138962e-01 1.516938022281598582e-02
-3.249714466299999938e+00 7.367953238830000373e+01 2.510480550782999956e+02 -2.276228144535323572e-01 9.735380394508796886e-01 2.028645070952628249e-02
-3.252264081599999912e+00 7.366914942420000045e+01 2.514503428465999946e+02 -2.274516820169840969e-01 9.734611995803168494e-01 2.527894893572453852e-02
-3.254884583800000009e+00 7.365670892309999829e+01 2.518526725259999921e+02 -2.272758917276123947e-01 9.733636760718028524e-01 3.014669373920153897e-02
-3.257574217200000177e+00 7.364226184150000165e+01 2.522550430786000106e+02 -2.270958665691643619e-01 9.732472381109658066e-01 3.488955282856805173e-02
-3.260331226299999940e+00 7.362585913629999368e+01 2.526574534663000122e+02 -2.269120178637647200e-01 9.731136102134850807e-01 3.950743937882974371e-02
-3.263153855500000144e+00 7.360755176409999478e+01 2.530599026513000069e+02 -2.267247451473462794e-01 9.729644714837502040e-01 4.400030872866570603e-02
-3.266040349299999868e+00 7.358739068159999874e+01 2.534623895955000137e+02 -2.265344360529875645e-01 9.728014550012114015e-01 4.836815511967550857e-02
-3.268988952099999956e+00 7.356542684560000112e+01 2.538649132609999981e+02 -2.263414662585966353e-01 9.726261473110504596e-01 5.261100853216741507e-02
-3.271997908199999916e+00 7.354171121260000632e+01 2.542674726099000111e+02 -2.261461994193412484e-01 9.724400880291115268e-01 5.672893161449244631e-02
-3.275065462200000166e+00 7.351629473949999749e+01 2.546700666040999863e+02 -2.259489871532088801e-01 9.722447695389746514e-01 6.072201667060832253e-02
-3.278189858400000212e+00 7.348922838289999504e+01 2.550726942055999871e+02 -2.257501690439316089e-01 9.720416367802581226e-01 6.459038273762479632e-02
-3.281369341300000020e+00 7.346056309950000696e+01 2.554753543765999950e+02 -2.255500726307441139e-01 9.718320871232074554e-01 6.833417281285059097e-02
-3.284602155199999984e+00 7.343034984599999859e+01 2.558780460790999882e+02 -2.253490134654663191e-01 9.716174703102410382e-01 7.195355111506841761e-02
-3.287886544700000080e+00 7.339863957919999393e+01 2.562807682751000016e+02 -2.251472951467251571e-01 9.713990884747510934e-01 7.544870044298758460e-02
-3.291220754199999821e+00 7.336548325559999739e+01 2.566835199266000132e+02 -2.249452093818329057e-01 9.711781962128945844e-01 7.881981969550520828e-02
-3.294603028000000045e+00 7.333093183210000632e+01 2.570862999955999726e+02 -2.247430360653043802e-01 9.709560007162156836e-01 8.206712139049150700e-02
-3.298031610599999830e+00 7.329503626529999849e+01 2.574891074442999752e+02 -2.245410433577385845e-01 9.707336619473230233e-01 8.519082937827662794e-02
-3.301504746400000023e+00 7.325784751199999789e+01 2.578919412345999831e+02 -2.243394877827676326e-01 9.705122928598918230e-01 8.819117659494592198e-02
-3.305020679900000147e+00 7.321941652879999651e+01 2.582948003285000027e+02 -2.241386143252050989e-01 9.702929596556757463e-01 9.106840292332905873e-02
-3.308577655500000159e+00 7.317979427230000056e+01 2.586976836882000157e+02 -2.239386565470825319e-01 9.700766820690783776e-01 9.382275315581141417e-02
-3.312173917500000009e+00 7.313903169949999494e+01 2.591005902755999841e+02 -2.227420950833167712e-01 9.701565037266106639e-01 9.582440897210592334e-02
-3.315807710500000116e+00 7.309717976679999651e+01 2.595035190528000157e+02 -2.215552519313312430e-01 9.702147356890118424e-01 9.796242643761680913e-02
-3.319477278899999995e+00 7.305428943110000262e+01 2.599064689818000033e+02 -2.204264068172239188e-01 9.702409991284035584e-01 1.002227658167800239e-01
-3.323180867000000038e+00 7.301041164900000524e+01 2.603094390246000103e+02 -2.194810405762785133e-01 9.702153235898999251e-01 1.025197478484008023e-01
-3.326916719300000214e+00 7.296559737719999816e+01 2.607124281432999737e+02 -2.190037351907632712e-01 9.700976472658034977e-01 1.046323025735680506e-01
-3.330683080300000043e+00 7.291989757250000537e+01 2.611154352999000139e+02 -2.185597492587233182e-01 9.699345727038717335e-01 1.070446667411403679e-01
-3.334478194299999920e+00 7.287336319150000463e+01 2.615184594565000111e+02 -2.192721233122641722e-01 9.695746721254723255e-01 1.088333180184911514e-01
-3.338300305699999804e+00 7.282604519090000394e+01 2.619214995749999844e+02 -2.202119675213927152e-01 9.691463217136914166e-01 1.107343508997066517e-01
-3.342147659100000112e+00 7.277799452749999887e+01 2.623245546175999721e+02 -2.214717627740000194e-01 9.686227511118974398e-01 1.127839719206425034e-01
-2.808085489000000212e+00 7.266416746870000054e+01 2.378021394664000070e+02 -2.077477266645285092e-01 9.610354762503821036e-01 -1.823504742355269159e-01
-2.807311095799999823e+00 7.275026603400000624e+01 2.382024619489999964e+02 -2.067311103454991805e-01 9.622047563625808486e-01 -1.772688772699352322e-01
-2.806665523399999973e+00 7.283262549120000529e+01 2.386028605955000046e+02 -2.060377233430297494e-01 9.632338096346356737e-01 -1.724212415463004799e-01
-2.806147016200000177e+00 7.291129679680000208e+01 2.390033343679999973e+02 -2.055706838668116265e-01 9.641551851665832729e-01 -1.677661254572055949e-01
-2.805753818699999957e+00 7.298633090760000641e+01 2.394038822285999970e+02 -2.065159611096571979e-01 9.648858937375408562e-01 -1.623156488859339164e-01
-2.805484175300000160e+00 7.305777878029999783e+01 2.398045031391999942e+02 -2.074165524230764945e-01 9.655160263325734959e-01 -1.573441345455318940e-01
-2.805336330299999847e+00 7.312569137159999855e+01 2.402051960619999988e+02 -2.090019735371446419e-01 9.660209109585236043e-01 -1.520584579970566674e-01
-2.805308528299999882e+00 7.319011963820000233e+01 2.406059599588000140e+02 -2.104910851257957849e-01 9.664516013375779035e-01 -1.471896917402716887e-01
-2.805399013700000221e+00 7.325111453680000295e+01 2.410067937919000087e+02 -2.125922787158678329e-01 9.667922688445156343e-01 -1.418352281094809042e-01
-2.805606030799999928e+00 7.330872702409999420e+01 2.414076965232000020e+02 -2.147530605164668371e-01 9.670667133469306176e-01 -1.366129383886331705e-01
-2.805927824099999857e+00 7.336300805669999647e+01 2.418086671147000004e+02 -2.148573566011298952e-01 9.681151480249469143e-01 -1.287997534120686738e-01
-2.806362637999999965e+00 7.341400859149999292e+01 2.422097045284999979e+02 -2.153234385250327454e-01 9.690410432322202894e-01 -1.208108991489017792e-01
-2.806908717000000220e+00 7.346177958500000216e+01 2.426108077266000009e+02 -2.153916361326318474e-01 9.699443391531348269e-01 -1.132008040117060271e-01
-2.807564305500000135e+00 7.350637199400000554e+01 2.430119756711000036e+02 -2.154444520288553433e-01 9.707792881323568102e-01 -1.056941901110027282e-01
-2.808327647800000104e+00 7.354783677529999864e+01 2.434132073238999965e+02 -2.154824178606718765e-01 9.715481434666677352e-01 -9.829309497309693389e-02
-2.809196988500000103e+00 7.358622488540000006e+01 2.438145016471999895e+02 -2.155060676595668412e-01 9.722531754112065938e-01 -9.099943793637420286e-02
-2.810170572000000089e+00 7.362158728110000538e+01 2.442158576029000017e+02 -2.155159367243195678e-01 9.728966661917154424e-01 -8.381502210752377058e-02
-2.811246642600000012e+00 7.365397491909999417e+01 2.446172741530999986e+02 -2.155125605447501258e-01 9.734809052131334628e-01 -7.674153655526898266e-02
-2.812423444899999847e+00 7.368343875610000282e+01 2.450187502597999867e+02 -2.154642695869326552e-01 9.740230869955668336e-01 -6.967190632526493177e-02
-2.813699223199999988e+00 7.371002974889999848e+01 2.454202848850999885e+02 -2.154377757764509016e-01 9.744941192995125734e-01 -6.283133150875633288e-02
-2.815072221899999949e+00 7.373379885399999978e+01 2.458218769910000105e+02 -2.153996610183897820e-01 9.749128617836936295e-01 -5.610613123261971175e-02
-2.816540685500000141e+00 7.375479702820000227e+01 2.462235255395000024e+02 -2.153504511217066431e-01 9.752815873697568971e-01 -4.949756094197779732e-02
-2.818102858400000077e+00 7.377307522819999974e+01 2.466252294926999866e+02 -2.152906674683066623e-01 9.756025551879806690e-01 -4.300677634668745308e-02
-2.819756985100000168e+00 7.378868441070000017e+01 2.470269878125999981e+02 -2.152208262484382462e-01 9.758780070721135846e-01 -3.663483672543121905e-02
-2.821501309899999921e+00 7.380167553239999734e+01 2.474287994611999864e+02 -2.151414377466595029e-01 9.761101642746694562e-01 -3.038270830551953461e-02
-2.823334077300000189e+00 7.381209955010000101e+01 2.478306634004999864e+02 -2.150530056880851082e-01 9.763012243945342616e-01 -2.425126780712921412e-02
-2.825253531700000043e+00 7.382000742030000140e+01 2.482325785927000084e+02 -2.149560266207078685e-01 9.764533585256683912e-01 -1.824130596694759424e-02
-2.827257917499999884e+00 7.382545009979999406e+01 2.486345439997000142e+02 -2.148509893619339750e-01 9.765687086107271986e-01 -1.235353117835530541e-02
-2.829345479300000132e+00 7.382847854540000299e+01 2.490365585835999980e+02 -2.147383744785417714e-01 9.766493850047033298e-01 -6.588573157188287038e-03
-2.831514461199999833e+00 7.382914371360000416e+01 2.494386213063999946e+02 -2.146186538227685958e-01 9.766974642373386084e-01 -9.469866186468123021e-04
-2.833763107999999864e+00 7.382749656129999494e+01 2.498407311301000107e+02 -2.144922901144611371e-01 9.767149869697915321e-01 4.570745021733929950e-03
-2.836089663800000160e+00 7.382358804499999394e+01 2.502428870168000117e+02 -2.143597365565298452e-01 9.767039561416896998e-01 9.964205968751827305e-03
-2.838492373199999808e+00 7.381746912159999852e+01 2.506450879285000042e+02 -2.142214365028415612e-01 9.766663352968522060e-01 1.523304436005505635e-02
-2.840969480600000097e+00 7.380919074770000066e+01 2.510473328271999947e+02 -2.140778231564378631e-01 9.766040470839965071e-01 2.037696865972932550e-02
-2.843519230400000097e+00 7.379880387999999414e+01 2.514496206750000056e+02 -2.139293193120325454e-01 9.765189719230795706e-01 2.539574399347582084e-02
-2.846139867100000220e+00 7.378635947520000116e+01 2.518519504340000026e+02 -2.137821004093339861e-01 9.764111051361276106e-01 3.030787540259318250e-02
-2.848829634999999971e+00 7.377190849000000128e+01 2.522543210661000046e+02 -2.136230420911370831e-01 9.762865016845480026e-01 3.506939572155343826e-02
-2.851586778600000205e+00 7.375550188110000249e+01 2.526567315332999897e+02 -2.134603074243538734e-01 9.761445487683255706e-01 3.970537827779203888e-02
-2.854409542299999991e+00 7.373719060530000036e+01 2.530591807977999963e+02 -2.132942752111479934e-01 9.759869450466069907e-01 4.421578067547977248e-02
-2.857296170600000185e+00 7.371702561909999929e+01 2.534616678216000025e+02 -2.131253130321740519e-01 9.758153424884121740e-01 4.860059988477934134e-02
-2.860244907799999847e+00 7.369505787939999664e+01 2.538641915665999989e+02 -2.129537771717159023e-01 9.756313458638601332e-01 5.285986905178816087e-02
-2.863253998499999842e+00 7.367133834279999860e+01 2.542667509949000078e+02 -2.127800125744876703e-01 9.754365123422472639e-01 5.699365436953422043e-02
-2.866321686900000110e+00 7.364591796599999896e+01 2.546693450687000109e+02 -2.126043528064178179e-01 9.752323511938143508e-01 6.100205203719313157e-02
-2.869446217600000182e+00 7.361884770579999326e+01 2.550719727498000111e+02 -2.124271200582034114e-01 9.750203235788897915e-01 6.488518530369363768e-02
-2.872625835000000016e+00 7.359017851870000015e+01 2.554746330003000025e+02 -2.122486251501293220e-01 9.748018424220671330e-01 6.864320164752701903e-02
-2.875858783400000007e+00 7.355996136160000276e+01 2.558773247823000077e+02 -2.120691675598158632e-01 9.745782723659824898e-01 7.227626998277668358e-02
-2.879143307400000129e+00 7.352824719109999307e+01 2.562800470577000169e+02 -2.118890354642316010e-01 9.743509297899262123e-01 7.578457803236655910e-02
-2.882477651399999896e+00 7.349508696389999329e+01 2.566827987886999836e+02 -2.117085057941168191e-01 9.741210828916964104e-01 7.916832978111466856e-02
-2.885860059700000146e+00 7.346053163669999719e+01 2.570855789372999993e+02 -2.115278443039784739e-01 9.738899518290792257e-01 8.242774296597597805e-02
-2.889288776799999958e+00 7.342463216630000034e+01 2.574883864655000139e+02 -2.113473056458922694e-01 9.736587089041760512e-01 8.556304676245865548e-02
-2.892762047100000178e+00 7.338743950929999471e+01 2.578912203352999768e+02 -2.111671334596635918e-01 9.734284787923703774e-01 8.857447952091318522e-02
-2.896278115099999884e+00 7.334900462240000252e+01 2.582940795087999959e+02 -2.109875604666493765e-01 9.732003388107254294e-01 9.146228658316542248e-02
-2.899835225099999914e+00 7.330937846240000511e+01 2.586969629480000208e+02 -2.108088085653065380e-01 9.729753192146264329e-01 9.422671824101643001e-02
-2.903431621699999798e+00 7.326861198580000689e+01 2.590998696149000011e+02 -2.095982606880480992e-01 9.730288442595748100e-01 9.635059603043932830e-02
-2.907065549199999932e+00 7.322675614950000522e+01 2.595027984715999878e+02 -2.083976189007769320e-01 9.730576745564493146e-01 9.863667889422061963e-02
-2.910735251999999829e+00 7.318386191010000630e+01 2.599057484800999873e+02 -2.072684941354686339e-01 9.730501159088866814e-01 1.010605920649451650e-01
-2.914438974599999899e+00 7.313998022440000568e+01 2.603087186024000061e+02 -2.063491975753964092e-01 9.729863019397005930e-01 1.035261556211559131e-01
-2.918174961400000100e+00 7.309516204899999536e+01 2.607117078005999815e+02 -2.059298053875297241e-01 9.728307969735019434e-01 1.057977112841059358e-01
-2.921941456799999948e+00 7.304945834059999754e+01 2.611147150368000212e+02 -2.055461620616636509e-01 9.726237513373349186e-01 1.084150063238968342e-01
-2.925736705299999851e+00 7.300292005590000599e+01 2.615177392727999859e+02 -2.063387119255146729e-01 9.722355109494067449e-01 1.103741238237725963e-01
-2.929558951300000214e+00 7.295559815170000206e+01 2.619207794709000154e+02 -2.073691483164178395e-01 9.717747110775781794e-01 1.124808749815403436e-01
-2.933406439200000104e+00 7.290754358460000617e+01 2.623238345930000150e+02 -2.087321958809855715e-01 9.712139458175039763e-01 1.147795358602583526e-01
-2.399738957899999914e+00 7.278226042020000364e+01 2.378016527976000134e+02 -1.947144178025036754e-01 9.633900101506556179e-01 -1.842986268037607178e-01
-2.398964699199999995e+00 7.286835508190000610e+01 2.382019753595999987e+02 -1.935772418513117266e-01 9.646278979094978778e-01 -1.789437621487318941e-01
-2.398319261400000180e+00 7.295071063540000011e+01 2.386023740857000064e+02 -1.927737096696516550e-01 9.657161855089175795e-01 -1.738693357274555262e-01
-2.397800888699999966e+00 7.302937803739999367e+01 2.390028479377000110e+02 -1.922057604164618128e-01 9.666888461163295476e-01 -1.690255023865010753e-01
-2.397407825700000217e+00 7.310440824459999476e+01 2.394033958777999942e+02 -1.918096003083848144e-01 9.675701917805489272e-01 -1.643684921366915241e-01
-2.397138316699999994e+00 7.317585221369999715e+01 2.398040168679999908e+02 -1.926983336471920771e-01 9.682982892806056840e-01 -1.589521160156352197e-01
-2.396990606300000159e+00 7.324376090130000705e+01 2.402047098701999914e+02 -1.942343465949910863e-01 9.688963574349332974e-01 -1.533390594471445989e-01
-2.396962938700000212e+00 7.330818526420000580e+01 2.406054738466000060e+02 -1.956922302382418932e-01 9.694005542479237070e-01 -1.482130778582007591e-01
-2.397053558600000134e+00 7.336917625910000140e+01 2.410063077592000127e+02 -1.977281496951812101e-01 9.698166986114852284e-01 -1.426854929992527055e-01
-2.397260710199999867e+00 7.342678484280000362e+01 2.414072105699999895e+02 -1.998239093899600860e-01 9.701575718344520594e-01 -1.373487933998432942e-01
-2.397582637999999822e+00 7.348106197180000265e+01 2.418081812409999998e+02 -2.009341732531736424e-01 9.710479394834622413e-01 -1.291950356785667442e-01
-2.398017586399999956e+00 7.353205860289999407e+01 2.422092187343000091e+02 -2.010267098225569649e-01 9.720275442562539281e-01 -1.214525221848996167e-01
-2.398563799899999793e+00 7.357982569269999829e+01 2.426103220120000117e+02 -2.011042371415086849e-01 9.729357665085335283e-01 -1.138115989351864005e-01
-2.399219522800000171e+00 7.362441419809999843e+01 2.430114900359000103e+02 -2.011672489102562245e-01 9.737748606722490541e-01 -1.062744498391831049e-01
-2.399982999700000175e+00 7.366587507570000071e+01 2.434127217683000026e+02 -2.015980599706365672e-01 9.744968960834186067e-01 -9.855973691045703811e-02
-2.400852474900000200e+00 7.370425928219999889e+01 2.438140161711000076e+02 -2.016302276069686372e-01 9.752029209434759371e-01 -9.123877628768967130e-02
-2.401826192800000204e+00 7.373961777419999919e+01 2.442153722063000032e+02 -2.016136670351989235e-01 9.758623999759954426e-01 -8.393155293279010165e-02
-2.402902397900000153e+00 7.377200150859999894e+01 2.446167888360000120e+02 -2.016223305262360987e-01 9.764448052437129100e-01 -7.683734863812498317e-02
-2.404079334700000015e+00 7.380146144200000435e+01 2.450182650222999996e+02 -2.016189916351482370e-01 9.769697558092810263e-01 -6.985612676051342063e-02
-2.405355247400000174e+00 7.382804853099999320e+01 2.454197997271000133e+02 -2.016041506403903616e-01 9.774395664720371135e-01 -6.298936687666648049e-02
-2.406728380700000169e+00 7.385181373250000547e+01 2.458213919124999904e+02 -2.015783054037392497e-01 9.778565459750631073e-01 -5.623844133932812822e-02
-2.408196978799999943e+00 7.387280800310000473e+01 2.462230405404999942e+02 -2.015419505381661203e-01 9.782229929886078201e-01 -4.960461835032110856e-02
-2.409759286199999906e+00 7.389108229939999717e+01 2.466247445731999903e+02 -2.014955766293625994e-01 9.785411923184433869e-01 -4.308906514186047754e-02
-2.411413547300000015e+00 7.390668757829999436e+01 2.470265029726000137e+02 -2.014396695067972309e-01 9.788134113357904731e-01 -3.669285132263204463e-02
-2.413158006599999794e+00 7.391967479630000071e+01 2.474283147007000139e+02 -2.013747095641919560e-01 9.790418966309726301e-01 -3.041695233196821738e-02
-2.414990908500000089e+00 7.393009491029999936e+01 2.478301787196000134e+02 -2.013011711288256733e-01 9.792288708895406923e-01 -2.426225295717834851e-02
-2.416910497399999969e+00 7.393799887689999650e+01 2.482320939912999904e+02 -2.012195218776289540e-01 9.793765299856060924e-01 -1.822955097337090880e-02
-2.418915017699999837e+00 7.394343765280000014e+01 2.486340594778000082e+02 -2.011302222983678278e-01 9.794870402920636820e-01 -1.231956079179055349e-02
-2.421002713900000103e+00 7.394646219470000403e+01 2.490360741412000039e+02 -2.010337251983044249e-01 9.795625361997361003e-01 -6.532917176353031201e-03
-2.423171830399999838e+00 7.394712345930000197e+01 2.494381369435000124e+02 -2.009304752591934973e-01 9.796051178412010785e-01 -8.701789705382750612e-04
-2.425420611599999887e+00 7.394547240330000193e+01 2.498402468467000119e+02 -2.008209086326824822e-01 9.796168490136456519e-01 4.668167147824663944e-03
-2.427747302000000218e+00 7.394155998339999769e+01 2.502424028128999964e+02 -2.007054525742647533e-01 9.795997552943576103e-01 1.008170294119029725e-02
-2.430150145899999892e+00 7.393543715629999724e+01 2.506446038041000008e+02 -2.005845251185911227e-01 9.795558223403012521e-01 1.537007489134601876e-02
-2.432627387700000199e+00 7.392715487869999436e+01 2.510468487823999908e+02 -2.004585347951224339e-01 9.794869943640687193e-01 2.053299051369841463e-02
-2.435177271999999782e+00 7.391676410739999881e+01 2.514491367097000136e+02 -2.003278803781638473e-01 9.793951727800200846e-01 2.557021467228823286e-02
-2.437798043199999931e+00 7.390431579890000080e+01 2.518514665481999941e+02 -2.001929506731138231e-01 9.792822150100830569e-01 3.048156599877692788e-02
-2.440487945600000153e+00 7.388986091009999768e+01 2.522538372598000080e+02 -2.000541243260231250e-01 9.791499334445027403e-01 3.526691332924974942e-02
-2.443245223699999968e+00 7.387345039759999565e+01 2.526562478065999926e+02 -1.999083880561773885e-01 9.790011433439188560e-01 3.991738613787972068e-02
-2.446068121899999781e+00 7.385513521800000092e+01 2.530586971506000111e+02 -1.997606486424027550e-01 9.788362209981883444e-01 4.444474902564096025e-02
-2.448954884700000001e+00 7.383496632829999839e+01 2.534611842538000133e+02 -1.996100940597743123e-01 9.786571817194760214e-01 4.884599285858439582e-02
-2.451903756400000134e+00 7.381299468490000493e+01 2.538637080784000091e+02 -1.994570606790308509e-01 9.784656478370918897e-01 5.312115348918548807e-02
-2.454912981500000146e+00 7.378927124460000186e+01 2.542662675862999890e+02 -1.993018741981306685e-01 9.782631934485285230e-01 5.727030020001200317e-02
-2.457980804500000005e+00 7.376384696419999898e+01 2.546688617394999881e+02 -1.991448496151569381e-01 9.780513441187618229e-01 6.129353260532754977e-02
-2.461105469700000103e+00 7.373677280030000247e+01 2.550714895001000002e+02 -1.989862912166740216e-01 9.778315766699623435e-01 6.519097771140468234e-02
-2.464285221499999956e+00 7.370809970960000612e+01 2.554741498301000036e+02 -1.988264925860128984e-01 9.776053190619614641e-01 6.896278697751048736e-02
-2.467518304499999982e+00 7.367787864880000370e+01 2.558768416915999921e+02 -1.983831881390113738e-01 9.774156227433760113e-01 7.282040291690214384e-02
-2.470802962900000121e+00 7.364616057460000320e+01 2.562795640466000009e+02 -1.982249200922908683e-01 9.771792183247761665e-01 7.633908781603471194e-02
-2.474137441399999915e+00 7.361299644380000018e+01 2.566823158570999794e+02 -1.980662340347363881e-01 9.769403581152651395e-01 7.973270107625045344e-02
-2.477519984200000192e+00 7.357843721300000084e+01 2.570850960852000071e+02 -1.979073805977667466e-01 9.767002740282345608e-01 8.300146636115417198e-02
-2.480948835800000030e+00 7.354253383889999895e+01 2.574879036928999767e+02 -1.977485999752963408e-01 9.764601495046163482e-01 8.614561879301718683e-02
-2.484422240599999832e+00 7.350533727820000252e+01 2.578907376422000084e+02 -1.975901220062844521e-01 9.762211197515352490e-01 8.916540268848940909e-02
-2.487938442999999999e+00 7.346689848770000708e+01 2.582935968951999826e+02 -1.974321662585679926e-01 9.759842720232756452e-01 9.206106934880706194e-02
-2.491495687600000064e+00 7.342726842400000464e+01 2.586964804139000194e+02 -1.972749421240795886e-01 9.757506459280649302e-01 9.483287500073764309e-02
-2.495092218599999967e+00 7.338649804380000319e+01 2.590993871603999992e+02 -1.960503682938906367e-01 9.757726352699664929e-01 9.711857366196730013e-02
-2.498726280600000127e+00 7.334463830379999649e+01 2.595023160965999978e+02 -1.948455433368787015e-01 9.757645911269097194e-01 9.959255466495095521e-02
-2.502396117900000050e+00 7.330174016079999433e+01 2.599052661846000092e+02 -1.929461811953203376e-01 9.758462479277828505e-01 1.024493609907393826e-01
-2.506099975000000146e+00 7.325785457140000290e+01 2.603082363863999831e+02 -1.920519738301827983e-01 9.757282099117045027e-01 1.052164423007707628e-01
-2.509836096299999930e+00 7.321303249230000176e+01 2.607112256642000148e+02 -1.916617183977110950e-01 9.755171107187856627e-01 1.078524566048871813e-01
-2.513602726199999804e+00 7.316732488030000070e+01 2.611142329798000219e+02 -1.923428127208356986e-01 9.751600957145836190e-01 1.098500346862111149e-01
-2.517398109200000178e+00 7.312078269200000591e+01 2.615172572953999861e+02 -1.932076540331162662e-01 9.747461787578652892e-01 1.119852196495560032e-01
-2.521220489700000122e+00 7.307345688409999696e+01 2.619202975730000276e+02 -1.943194045518746860e-01 9.742558893593009639e-01 1.143041165633255640e-01
-2.525068112000000031e+00 7.302539841339999782e+01 2.623233527745999822e+02 -1.957745428455634207e-01 9.736612781807313377e-01 1.168590764342895272e-01
-1.991797760999999944e+00 7.288858828349999897e+01 2.378014057782999942e+02 -1.814870644486096529e-01 9.655763076154755264e-01 -1.863460211796619248e-01
-1.991023636800000052e+00 7.297467904149999640e+01 2.382017284199000073e+02 -1.802428412419801451e-01 9.668796842283259307e-01 -1.807102498685430880e-01
-1.990378333400000033e+00 7.305703069140000139e+01 2.386021272254999985e+02 -1.793411562652782454e-01 9.680241336138428743e-01 -1.754024697961863721e-01
-1.989860095200000067e+00 7.313569418970000413e+01 2.390026011569999866e+02 -1.786830675445471861e-01 9.690450871055831250e-01 -1.703642583683668832e-01
-1.989467166699999900e+00 7.321072049320000019e+01 2.394031491766000102e+02 -1.782037020471322619e-01 9.699683121482169934e-01 -1.655442962020623188e-01
-1.989197792199999926e+00 7.328216055859999756e+01 2.398037702462999903e+02 -1.789974087715353879e-01 9.707612390886291021e-01 -1.599454417486954327e-01
-1.989050216299999896e+00 7.335006534260000421e+01 2.402044633280999903e+02 -1.804496617351691035e-01 9.714290641472589360e-01 -1.541541206378983508e-01
-1.989022683199999975e+00 7.341448580189999973e+01 2.406052273839999884e+02 -1.818290542877374349e-01 9.719932219155072994e-01 -1.488871101443585143e-01
-1.989113437499999915e+00 7.347547289320000630e+01 2.410060613761000070e+02 -1.838035518518027212e-01 9.724725626027275194e-01 -1.432248906843563707e-01
-1.989320723599999896e+00 7.353307757310000170e+01 2.414069642663999957e+02 -1.849556109996338127e-01 9.731452367883285381e-01 -1.370393012093252816e-01
-1.989642785900000099e+00 7.358735079849999750e+01 2.418079350168999895e+02 -1.850670300568548754e-01 9.741999457638982340e-01 -1.291691141858340441e-01
-1.990077868800000038e+00 7.363834352589999810e+01 2.422089725897999983e+02 -1.851640443107918088e-01 9.751803161868108916e-01 -1.213986310312548667e-01
-1.990624216799999902e+00 7.368610671220000086e+01 2.426100759468999968e+02 -1.852471050840427125e-01 9.760886005773712348e-01 -1.137301801673179097e-01
-1.991280074300000091e+00 7.373069131389999598e+01 2.430112440503999949e+02 -1.853166683214111654e-01 9.769270802475001902e-01 -1.061659659276292106e-01
-1.992043685599999892e+00 7.377214828779999323e+01 2.434124758622999991e+02 -1.853370782706651454e-01 9.777132916286958020e-01 -9.862498056108427724e-02
-1.992913295299999943e+00 7.381052859060000060e+01 2.438137703445999875e+02 -1.853832623880453390e-01 9.784175464565720848e-01 -9.128061575310933429e-02
-1.993887147699999973e+00 7.384588317899999765e+01 2.442151264592999951e+02 -1.854173548784551762e-01 9.790590407274786244e-01 -8.404641146215785508e-02
-1.994963487299999949e+00 7.387826300970000659e+01 2.446165431686000034e+02 -1.854398190938230384e-01 9.796401166255450654e-01 -7.692408850508845874e-02
-1.996140558600000059e+00 7.390771903949999455e+01 2.450180194342999869e+02 -1.868444581914371627e-01 9.799421581207609089e-01 -6.930018167922653849e-02
-1.997416605800000022e+00 7.393430222489999437e+01 2.454195542187000001e+02 -1.868421362912096872e-01 9.804055151209860597e-01 -6.241027180273168995e-02
-1.998789873500000036e+00 7.395806352270000161e+01 2.458211464835999891e+02 -1.868295190172621911e-01 9.808156193845181114e-01 -5.563678275334008050e-02
-2.000258606100000058e+00 7.397905388959999584e+01 2.462227951911000048e+02 -1.859660198672475062e-01 9.812987553034256960e-01 -4.969298033607918302e-02
-2.001821048000000047e+00 7.399732428229999925e+01 2.466244993033000128e+02 -1.859402332753927745e-01 9.816130679406697146e-01 -4.315106600767334988e-02
-2.003475443700000191e+00 7.401292565750000563e+01 2.470262577821999912e+02 -1.859055276924994060e-01 9.818809060272286615e-01 -3.672902329931680004e-02
-2.005220037499999997e+00 7.402590897189999453e+01 2.474280695898000033e+02 -1.858623481302388303e-01 9.821045434484818593e-01 -3.042783734284521674e-02
-2.007053073799999865e+00 7.403632518220000236e+01 2.478299336881999864e+02 -1.858111341509339764e-01 9.822862299005215014e-01 -2.424840145995679416e-02
-2.008972797200000215e+00 7.404422524519999627e+01 2.482318490394000037e+02 -1.857523193141674134e-01 9.824281879304422871e-01 -1.819152080269390709e-02
-2.010977452100000118e+00 7.404966011739999487e+01 2.486338146054999925e+02 -1.856863306731091900e-01 9.825326101940284884e-01 -1.225791607354524866e-02
-2.013065282699999958e+00 7.405268075559999374e+01 2.490358293484000001e+02 -1.856135883029013112e-01 9.826016569303276382e-01 -6.448227283189228096e-03
-2.015234533700000163e+00 7.405333811660000265e+01 2.494378922301999921e+02 -1.855345048739381053e-01 9.826374536447416430e-01 -7.630175364098342513e-04
-2.017483449399999795e+00 7.405168315689999758e+01 2.498400022129000035e+02 -1.854494852789261572e-01 9.826420889925666646e-01 4.797223166148033464e-03
-2.019810274200000144e+00 7.404776683340000432e+01 2.502421582586999875e+02 -1.861643419397149279e-01 9.824722814697537387e-01 9.542218493093532899e-03
-2.022213252599999844e+00 7.404164010259999884e+01 2.506443593294000038e+02 -1.860641655718898169e-01 9.824252917404882046e-01 1.485504758165772342e-02
-2.024690629000000186e+00 7.403335392140000693e+01 2.510466043872000057e+02 -1.859591736210090551e-01 9.823530462213471148e-01 2.004191422571609954e-02
-2.027240647799999795e+00 7.402295924640000635e+01 2.514488923940000120e+02 -1.858497388498836500e-01 9.822574688664864606e-01 2.510257806349059512e-02
-2.029861553399999963e+00 7.401050703430000510e+01 2.518512223120000044e+02 -1.857362247995136550e-01 9.821404391623309582e-01 3.003685335131268605e-02
-2.032551590300000210e+00 7.399604824179999696e+01 2.522535931031000018e+02 -1.845809280646511230e-01 9.821873694348228767e-01 3.518312546512781386e-02
-2.035309002900000053e+00 7.397963382560000412e+01 2.526560037293999983e+02 -1.841477630294470202e-01 9.820797613087188793e-01 4.011164168991852158e-02
-2.038132035599999892e+00 7.396131474249999371e+01 2.530584531529999879e+02 -1.840267881716210197e-01 9.819058886511492501e-01 4.466505420834367135e-02
-2.041018932900000138e+00 7.394114194899999859e+01 2.534609403357000019e+02 -1.838881292468954876e-01 9.817221839490680724e-01 4.905822524663201734e-02
-2.043967939099999853e+00 7.391916640200000188e+01 2.538634642398000096e+02 -1.837597604089624415e-01 9.815221879909946656e-01 5.335302180581334014e-02
-2.046977298699999892e+00 7.389543905809999558e+01 2.542660238272000015e+02 -1.836293191638816436e-01 9.813111551639095431e-01 5.752121255921721632e-02
-2.050045256100000213e+00 7.387001087400000188e+01 2.546686180599000124e+02 -1.834970985485681050e-01 9.810906299077755133e-01 6.156290060922495200e-02
-2.053170055799999894e+00 7.384293280640000035e+01 2.550712459000000081e+02 -1.833633817038424763e-01 9.808621072146929132e-01 6.547821683951877969e-02
-2.056349942100000217e+00 7.381425581210000075e+01 2.554739063096000109e+02 -1.832284418769694057e-01 9.806270325104088359e-01 6.926731694794753535e-02
-2.059583159599999824e+00 7.378403084759999331e+01 2.558765982506000114e+02 -1.830925424352116693e-01 9.803868016129183571e-01 7.293037863471187043e-02
-2.062867952599999999e+00 7.375230886980000378e+01 2.562793206851000036e+02 -1.829559369049522100e-01 9.801427607616756132e-01 7.646759887502659059e-02
-2.066202565499999810e+00 7.371914083529999573e+01 2.566820725750999941e+02 -1.828188690055097543e-01 9.798962067166819834e-01 7.987919126908962775e-02
-2.069585242700000105e+00 7.368457770089999315e+01 2.570848528828000212e+02 -1.826815727064685368e-01 9.796483869085883534e-01 8.316538354923795617e-02
-2.073014228799999970e+00 7.364867042310000045e+01 2.574876605700000027e+02 -1.825442722891243708e-01 9.794004996444515276e-01 8.632641513831594560e-02
-2.076487768099999798e+00 7.361146995880000077e+01 2.578904945987999895e+02 -1.824071824217680382e-01 9.791536943552660022e-01 8.936253483080092153e-02
-2.080004105100000000e+00 7.357302726460000031e+01 2.582933539312999756e+02 -1.822705082290945189e-01 9.789090718839533745e-01 9.227399857600486477e-02
-2.083561484100000083e+00 7.353339329729999463e+01 2.586962375295000243e+02 -1.821344453845013533e-01 9.786676848008102336e-01 9.506106737830058440e-02
-2.087158149700000020e+00 7.349261901340000236e+01 2.590991443555000160e+02 -1.815507308568782840e-01 9.784766021463855434e-01 9.809623426715832761e-02
-2.090792346100000199e+00 7.345075536980000663e+01 2.595020733712000265e+02 -1.803334260635889585e-01 9.784266945385314829e-01 1.008020776500721388e-01
-2.094462317900000148e+00 7.340785332309999944e+01 2.599050235386999930e+02 -1.794357732868494815e-01 9.783201490628832264e-01 1.034044931447762605e-01
-2.098166309499999826e+00 7.336396383010000477e+01 2.603079938201000232e+02 -1.785562389368243741e-01 9.781635445820356933e-01 1.063661110854562664e-01
-2.101902565300000081e+00 7.331913784740000040e+01 2.607109831773000224e+02 -1.782095391885316349e-01 9.779157309601469450e-01 1.091887507158713355e-01
-2.105669329699999981e+00 7.327342633169999431e+01 2.611139905724999721e+02 -1.789496805786666422e-01 9.775381527514305224e-01 1.113380965173824955e-01
-2.109464847199999937e+00 7.322688023969999449e+01 2.615170149676000051e+02 -1.798801198591466199e-01 9.771006681918253944e-01 1.136548577868433940e-01
-2.113287362099999900e+00 7.317955052819999651e+01 2.619200553247000016e+02 -1.810653992794157563e-01 9.765831485556624170e-01 1.161924056937237576e-01
-2.117135118999999843e+00 7.313148815380000656e+01 2.623231106058000250e+02 -1.826034016156727613e-01 9.759571199636456473e-01 1.190113343789217792e-01
-1.584264339500000007e+00 7.298308019840000327e+01 2.378013998520999905e+02 -1.668193895195323739e-01 9.674054151693476378e-01 -1.905204817896285208e-01
-1.583490349799999919e+00 7.306916705279999746e+01 2.382017225731999872e+02 -1.655714101371191238e-01 9.688223881136007742e-01 -1.843075919083785319e-01
-1.582845180899999926e+00 7.315151479899999742e+01 2.386021214582999903e+02 -1.646540940381690521e-01 9.700591487156686732e-01 -1.785336867638766811e-01
-1.582327077199999987e+00 7.323017439369999693e+01 2.390025954692999903e+02 -1.639728653010170678e-01 9.711559795444684173e-01 -1.731154610079602696e-01
-1.581934283100000060e+00 7.330519679360000396e+01 2.394031435685000133e+02 -1.634654407164273515e-01 9.721424555680330259e-01 -1.679824269783568580e-01
-1.581665043099999890e+00 7.337663295529999630e+01 2.398037647175999894e+02 -1.642141869746772398e-01 9.730194182027982475e-01 -1.620707024620240411e-01
-1.581517601700000109e+00 7.344453383559999793e+01 2.402044578789000013e+02 -1.656237975538476515e-01 9.737737954501166637e-01 -1.559915157260689522e-01
-1.581490203099999992e+00 7.350895039130000441e+01 2.406052220143999989e+02 -1.669592677352775278e-01 9.744111058845880136e-01 -1.504911945798634298e-01
-1.581581091899999958e+00 7.356993357890000595e+01 2.410060560860000010e+02 -1.688993688287889761e-01 9.749660952378649270e-01 -1.446171371099126690e-01
-1.581788512499999966e+00 7.362753435519999812e+01 2.414069590558000016e+02 -1.694961863526817658e-01 9.758669000806743377e-01 -1.376765635060383797e-01
-1.582110709299999973e+00 7.368180367690000310e+01 2.418079298858999948e+02 -1.696132650807639641e-01 9.769283560310497716e-01 -1.297779930924848613e-01
-1.582545926699999939e+00 7.373279250070000046e+01 2.422089675381999996e+02 -1.697170039052967039e-01 9.779147093791022982e-01 -1.219793415517371332e-01
-1.583092409200000050e+00 7.378055178329999819e+01 2.426100709748999975e+02 -1.697657768533823996e-01 9.788462586796851106e-01 -1.141909929817183089e-01
-1.583748401100000036e+00 7.382513248130000250e+01 2.430112391579000075e+02 -1.698462774682918397e-01 9.796876191441139525e-01 -1.066039911349540015e-01
-1.584512146900000085e+00 7.386658555159999651e+01 2.434124710492999952e+02 -1.699147096394715561e-01 9.804608580753618741e-01 -9.912364617112949527e-02
-1.585381891099999940e+00 7.390496195080000064e+01 2.438137656110999956e+02 -1.699714963335583751e-01 9.811683200799573568e-01 -9.175193788474089729e-02
-1.586355877999999997e+00 7.394031263550000688e+01 2.442151218052999866e+02 -1.700170621608144694e-01 9.818123628458845786e-01 -8.449072574659652335e-02
-1.587432352099999999e+00 7.397268856259999836e+01 2.446165385941000068e+02 -1.700518324884856824e-01 9.823953520858235144e-01 -7.734175112756877524e-02
-1.588609557899999913e+00 7.400214068859999372e+01 2.450180149393999898e+02 -1.700762325852870904e-01 9.829196566881048813e-01 -7.030663984100879449e-02
-1.589885739599999903e+00 7.402871997040000451e+01 2.454195498031999989e+02 -1.700906868099035241e-01 9.833876440941560215e-01 -6.338690482647682534e-02
-1.591259141799999943e+00 7.405247736459999430e+01 2.458211421475999998e+02 -1.700956178435522326e-01 9.838016758953601615e-01 -5.658394910132122368e-02
-1.592728008899999992e+00 7.407346382779999772e+01 2.462227909346999866e+02 -1.700914459613309948e-01 9.841641036614625637e-01 -4.989906887922477413e-02
-1.594290585300000007e+00 7.409173031689999789e+01 2.466244951264000065e+02 -1.704501716690845770e-01 9.844262540099529835e-01 -4.303126065909770870e-02
-1.595945115399999947e+00 7.410732778839999924e+01 2.470262536847999968e+02 -1.689301220292359629e-01 9.849422958252739280e-01 -3.675986623514879842e-02
-1.597689843700000001e+00 7.412030719919999910e+01 2.474280655720000084e+02 -1.689026844485580214e-01 9.851628251199082698e-01 -3.043174638156072656e-02
-1.599523014499999896e+00 7.413071950590000370e+01 2.478299297499000033e+02 -1.688678179166431537e-01 9.853409380253211891e-01 -2.422593493451759630e-02
