1.049694898829440559e+00 -7.665665844186286826e+00 2.538064466156359060e+02
6.145089512062706927e-02 -8.677283153101488011e+00 2.538043949244449777e+02
1.058335702117128907e+00 -8.664653211554886880e+00 2.548074209291707177e+02
1.061378017000000007e+00 -8.665597114600000594e+00 2.538074260024999944e+02
1.011802375060628423e+00 -4.422531698885891593e+00 2.538032701143667680e+02
2.355837132026150638e-02 -5.434149007770204598e+00 2.538012184231449453e+02
1.020443178317476773e+00 -5.421519066285656052e+00 2.548042444278707421e+02
1.023485493199999929e+00 -5.422462969299999713e+00 2.538042495011999904e+02
9.739098513606289087e-01 -1.179397553485922234e+00 2.538000936131359424e+02
-1.433415237973734158e-02 -2.191014862370298744e+00 2.537980419219449857e+02
9.825506546171564048e-01 -2.178384920854821605e+00 2.548010679266707257e+02
9.855929694999999713e-01 -2.179328823900000156e+00 2.538010730000000024e+02
9.360173276602683501e-01 2.063736591914103968e+00 2.537969171118667475e+02
-5.222667607973419113e-02 1.052119283029434804e+00 2.537948654206449817e+02
9.446581309174979513e-01 1.064749224514372816e+00 2.547978914253707501e+02
9.477004458000000131e-01 1.063805321500000067e+00 2.537978964986999983e+02
8.981248039298008745e-01 5.306870737213718492e+00 2.537937406106359504e+02
-9.011919977937710158e-02 4.295253428298874354e+00 2.537916889194450505e+02
9.067656072171754733e-01 4.307883369845085575e+00 2.547947149241707336e+02
9.098079221000000549e-01 4.306939466800000282e+00 2.537947199975000103e+02
8.602322801606289149e-01 8.550004882614079094e+00 2.537905641093359463e+02
-1.280117235797372244e-01 7.538387573729702140e+00 2.537885124181449044e+02
8.688730834170769191e-01 7.551017515245177947e+00 2.547915384228707296e+02
8.719153982999999775e-01 7.550073612200000284e+00 2.537915434962000063e+02
8.223397564606285126e-01 1.179313902801410840e+01 2.537873876080667799e+02
-1.659042472797381818e-01 1.078152171912979362e+01 2.537853359168449288e+02
8.309805597174628744e-01 1.079415166061435194e+01 2.547883619215707540e+02
8.340228746000000193e-01 1.079320775759999940e+01 2.537883669949000023e+02
7.844472327602686201e-01 1.503627317341407377e+01 2.537842111068358975e+02
-2.037967709797330329e-01 1.402465586452934154e+01 2.537821594156449123e+02
7.930880360171076449e-01 1.403728580604519927e+01 2.547851854203707092e+02
7.961303508999999501e-01 1.403634190300000029e+01 2.537851904936999858e+02
7.465547090602686620e-01 1.827940731871407465e+01 2.537810346055359219e+02
-2.416892946797329911e-01 1.726779000982934065e+01 2.537789829143449367e+02
7.551955123170847051e-01 1.728041995134519837e+01 2.547820089190707336e+02
7.582378271999999919e-01 1.727947604830000117e+01 2.537820139924000102e+02
1.078797202145214573e+00 -1.091284285918608710e+01 2.536098572858513762e+02
9.055319842044229350e-02 -1.192446016808566611e+01 2.536078055946449297e+02
1.087438005417268982e+00 -1.191183022657028800e+01 2.546108315993707549e+02
1.090480320299999972e+00 -1.191277412960000071e+01 2.536108366727000032e+02
1.040904678429800834e+00 -7.669708713786281606e+00 2.536066807846359268e+02
5.266067472062285759e-02 -8.681326022701126632e+00 2.536046290934449701e+02
1.049545481717129247e+00 -8.668696081154923405e+00 2.546076550981707101e+02
1.052587796599999903e+00 -8.669639984199999816e+00 2.536076601714999867e+02
1.003012154660268385e+00 -4.426574568385896136e+00 2.536035042833667603e+02
1.476815092026595444e-02 -5.438191877270565300e+00 2.536014525921449660e+02
1.011652957917476447e+00 -5.425561935785618850e+00 2.546044785968707629e+02
1.014695272800000048e+00 -5.426505838799999815e+00 2.536044836702000111e+02
9.651196309606289159e-01 -1.183440423085921900e+00 2.536003277821359347e+02
-2.312437277973733440e-02 -2.195057731970298409e+00 2.535982760909449780e+02
9.737604342171564120e-01 -2.182427790454821270e+00 2.546013020956707180e+02
9.768027490999999785e-01 -2.183371693499999822e+00 2.536013071689999947e+02
9.272271072298005068e-01 2.059693722313747699e+00 2.535971512808667683e+02
-6.101689647937824645e-02 1.048076413398967066e+00 2.535950995896450024e+02
9.358679105174994017e-01 1.060706354914249694e+00 2.545981255943707424e+02
9.389102254000000203e-01 1.059762451899999958e+00 2.535981306676999907e+02
8.893345834602687239e-01 5.302827867714073662e+00 2.535939747796359143e+02
-9.890942027973304018e-02 4.291210558829341437e+00 2.535919230884450144e+02
8.979753867171740289e-01 4.303840500345208042e+00 2.545949490931707260e+02
9.010177016000000538e-01 4.302896597300000181e+00 2.535949541665000027e+02
8.514420597606285890e-01 8.545962013014108294e+00 2.535907982783667762e+02
-1.368019439797381054e-01 7.534344704129795289e+00 2.535887465871448967e+02
8.600828630174373046e-01 7.546974645614342947e+00 2.545917725918707504e+02
8.631251778999999846e-01 7.546030742600000174e+00 2.535917776651999986e+02
8.135495360606288529e-01 1.178909615841407899e+01 2.535876217771359507e+02
-1.746944676797371754e-01 1.077747884952970203e+01 2.535855700859449371e+02
8.221903393171027252e-01 1.079010879104517784e+01 2.545885960906707339e+02
8.252326542000000265e-01 1.078916488800000018e+01 2.535886011640000106e+02
7.756570123294402874e-01 1.503223030381374237e+01 2.535844452758667558e+02
-2.125869913793738686e-01 1.402061299489860602e+01 2.535823935846449899e+02
7.842978156174689186e-01 1.403324293641428611e+01 2.545854195893707583e+02
7.873401304999999573e-01 1.403229903339999929e+01 2.535854246627000066e+02
7.377644885294403210e-01 1.827536444911374147e+01 2.535812687746667393e+02
-2.504795151793738350e-01 1.726374714019860690e+01 2.535792170834449450e+02
7.464052918174458595e-01 1.727637708171428699e+01 2.545822430881707419e+02
7.494476066999999908e-01 1.727543317869999839e+01 2.535822481614999901e+02
1.070006981745214691e+00 -1.091688572878608632e+01 2.534100914548513686e+02
8.176297802044252272e-02 -1.192850303768566533e+01 2.534080397636449220e+02
1.078647785017269101e+00 -1.191587309617028723e+01 2.544110657683707473e+02
1.081690099900000090e+00 -1.191681699919999993e+01 2.534110708416999955e+02
1.032114457960628950e+00 -7.673751583385922892e+00 2.534069149536359475e+02
4.387045422026270014e-02 -8.685368892270298957e+00 2.534048632624449624e+02
1.040755261217128247e+00 -8.672738950754823151e+00 2.544078892671707308e+02
1.043797576100000013e+00 -8.673682853800000814e+00 2.534078943405000075e+02
9.942219342602682808e-01 -4.430617437985896245e+00 2.534037384523667527e+02
5.977930520265850589e-03 -5.442234746870565409e+00 2.534016867611449584e+02
1.002862737517476344e+00 -5.429604805385618960e+00 2.544047127658707552e+02
1.005905052399999944e+00 -5.430548708399999924e+00 2.534047178392000035e+02
9.563294105298008052e-01 -1.187483292686282166e+00 2.534005619511359271e+02
-3.191459317937717088e-02 -2.199100601601126304e+00 2.533985102599449988e+02
9.649702138171576404e-01 -2.186470660054923965e+00 2.544015362646707104e+02
9.680125286999999856e-01 -2.187414563099999931e+00 2.534015413379999870e+02
9.184368867606285125e-01 2.055650852714108190e+00 2.533973854498667890e+02
-6.980711697973851493e-02 1.044033543829794963e+00 2.533953337586449663e+02
9.270776900174981794e-01 1.056663485314352391e+00 2.543983597633707632e+02
9.301200049000000192e-01 1.055719582300000070e+00 2.533983648367000114e+02
8.805443630602686200e-01 5.298784998114073552e+00 2.533942089486359066e+02
-1.076996406797331440e-01 4.287167689229341327e+00 2.533921572574450067e+02
8.891851663171739251e-01 4.299797630745207933e+00 2.543951832621707183e+02
8.922274811999999500e-01 4.298853727700000071e+00 2.533951883354999950e+02
8.426518393606285962e-01 8.541919143414109072e+00 2.533910324473667686e+02
-1.455921643797382092e-01 7.530301834529795180e+00 2.533889807561448890e+02
8.512926426174373118e-01 7.542931776014342837e+00 2.543920067608707427e+02
8.543349574999999918e-01 7.541987873000000064e+00 2.533920118341999910e+02
8.047593156298008532e-01 1.178505328881371739e+01 2.533878559461359430e+02
-1.834846880793769008e-01 1.077343597989887236e+01 2.533858042549449578e+02
8.134001189171038426e-01 1.078606592144508269e+01 2.543888302596707263e+02
8.164424338000000336e-01 1.078512201839999918e+01 2.533888353330000029e+02
7.668667918602682931e-01 1.502818743421410375e+01 2.533846794448667481e+02
-2.213772118797341371e-01 1.401657012532943547e+01 2.533826277536449254e+02
7.755075951174679183e-01 1.402920006681437215e+01 2.543856537583707507e+02
7.785499099999999562e-01 1.402825616380000007e+01 2.533856588316999989e+02
7.289742681602683350e-01 1.827132157951410463e+01 2.533815029436667601e+02
-2.592697355797339842e-01 1.725970427062943457e+01 2.533794512524449374e+02
7.376150714174448675e-01 1.727233421211436948e+01 2.543824772571707626e+02
7.406573862999999980e-01 1.727139030909999917e+01 2.533824823305000109e+02
1.061216761260628694e+00 -1.092092859838590613e+01 2.532103256239513769e+02
7.297275752026233242e-02 -1.193254590727025111e+01 2.532082739327449303e+02
1.069857564517268544e+00 -1.191991596577023849e+01 2.542112999374707556e+02
1.072899879399999978e+00 -1.192085986879999915e+01 2.532113050108000039e+02
1.023324237560628402e+00 -7.677794452985891915e+00 2.532071491226667774e+02
3.508023382026148607e-02 -8.689411761870205808e+00 2.532050974314449547e+02
1.031965040817488299e+00 -8.676781820385656374e+00 2.542081234361707516e+02
1.035007355699999909e+00 -8.677725723400000035e+00 2.532081285094999998e+02
9.854317138602686210e-01 -4.434660307585926553e+00 2.532039726214359234e+02
-2.812289879733032016e-03 -5.446277616470658778e+00 2.532019209302449667e+02
9.940725171171160834e-01 -5.433647674954793061e+00 2.542049469349707351e+02
9.971148319999999510e-01 -5.434591578000000034e+00 2.532049520083000118e+02
9.475391901298008124e-01 -1.191526162286282275e+00 2.532007961201359478e+02
-4.070481357937716371e-02 -2.203143471201126413e+00 2.531987444289450195e+02
9.561799934171575366e-01 -2.190513529654915192e+00 2.542017704336707311e+02
9.592223082999999928e-01 -2.191457432700000041e+00 2.532017755070000078e+02
9.096466663606285197e-01 2.051607983114108080e+00 2.531976196188667814e+02
-7.859733737973850776e-02 1.039990674229794854e+00 2.531955679276449587e+02
9.182874696174981866e-01 1.052620615714352281e+00 2.541985939323707555e+02
9.213297845000000263e-01 1.051676712699999960e+00 2.531985990057000038e+02
8.717541426602686272e-01 5.294742128514073443e+00 2.531944431176358989e+02
-1.164898610797331369e-01 4.283124819629341218e+00 2.531923914264449991e+02
8.803949459171740433e-01 4.295754761145198941e+00 2.541954174311707106e+02
8.834372607999999572e-01 4.294810858099999962e+00 2.531954225044999873e+02
8.338616189298004855e-01 8.537876273813747474e+00 2.531912666163667893e+02
-1.543823847793780457e-01 7.526258964898967285e+00 2.531892149251449382e+02
8.425024222174382071e-01 7.538888906414257463e+00 2.541922409298707635e+02
8.455447370999999990e-01 7.537945003399999955e+00 2.531922460032000117e+02
7.959690951606288589e-01 1.178101041921407699e+01 2.531880901151359353e+02
-1.922749085797371693e-01 1.076939311032970181e+01 2.531860384239449218e+02
8.046098984171027313e-01 1.078202305184517762e+01 2.541890644286707186e+02
8.076522133000000325e-01 1.078107914879999996e+01 2.531890695019999953e+02
7.580765714602683003e-01 1.502414456461410452e+01 2.531849136138667404e+02
-2.301674322797341299e-01 1.401252725572943625e+01 2.531828619226449177e+02
7.667173747174679255e-01 1.402515719721437293e+01 2.541858879273707430e+02
7.697596895999999633e-01 1.402421329420000085e+01 2.531858930006999913e+02
7.201840477602683421e-01 1.826727870991410541e+01 2.531817371126667524e+02
-2.680599559797339770e-01 1.725566140102943535e+01 2.531796854214449297e+02
7.288248510174448747e-01 1.726829134251437026e+01 2.541827114261707550e+02
7.318671659000000052e-01 1.726734743949999995e+01 2.531827164995000032e+02
1.052426540860628812e+00 -1.092497146798590713e+01 2.530105597929513692e+02
6.418253712026245061e-02 -1.193658877687025210e+01 2.530085081017449227e+02
1.061067344117268663e+00 -1.192395883537023948e+01 2.540115341064707479e+02
1.064109659000000097e+00 -1.192490273840000015e+01 2.530115391797999962e+02
1.014534017160628521e+00 -7.681837322585891137e+00 2.530073832916667698e+02
2.629001342026160426e-02 -8.693454631470205030e+00 2.530053316004449471e+02
1.023174820417488418e+00 -8.680824689985655596e+00 2.540083576051707439e+02
1.026217135300000027e+00 -8.681768592999999257e+00 2.530083626784999922e+02
9.766414934294406214e-01 -4.438703177186286375e+00 2.530042067904359158e+02
-1.160251027937297952e-02 -5.450320486101486672e+00 2.530021550992449875e+02
9.852822967171172008e-01 -5.437690544554886429e+00 2.540051811039707275e+02
9.883246115999999581e-01 -5.438634447600000144e+00 2.530051861773000041e+02
9.387489696606285960e-01 -1.195569031885892031e+00 2.530010302891667777e+02
-4.949503407973843139e-02 -2.207186340770205035e+00 2.529989785979449834e+02
9.473897729175166926e-01 -2.194556399285656489e+00 2.540020046026707519e+02
9.504320877999999917e-01 -2.195500302300000151e+00 2.530020096760000001e+02
9.008564459606288599e-01 2.047565113514077773e+00 2.529978537879359521e+02
-8.738755777973727934e-02 1.035947804629701485e+00 2.529958020967449670e+02
9.094972492171380374e-01 1.048577746145178624e+00 2.539988281014707354e+02
9.125395641000000335e-01 1.047633843100000073e+00 2.529988331748000121e+02
8.629639222602686344e-01 5.290699258914073333e+00 2.529946772866359197e+02
-1.252800814797331297e-01 4.279081950029341108e+00 2.529926255954450198e+02
8.716047255171739394e-01 4.291711891545207713e+00 2.539956516001707314e+02
8.746470403999999643e-01 4.290767988499999852e+00 2.529956566735000081e+02
8.250713985298004927e-01 8.533833404213748253e+00 2.529915007853667817e+02
-1.631726051793780385e-01 7.522216095298967176e+00 2.529894490941449305e+02
8.337122018174382143e-01 7.534846036814257353e+00 2.539924750988707558e+02
8.367545167000000061e-01 7.533902133799999845e+00 2.529924801722000041e+02
7.871788747606288661e-01 1.177696754961407954e+01 2.529883242841359277e+02
-2.010651289797371621e-01 1.076535024072970259e+01 2.529862725929449141e+02
7.958196780171028495e-01 1.077798018224516952e+01 2.539892985976707109e+02
7.988619929000000397e-01 1.077703627920000073e+01 2.529893036709999876e+02
7.492863510606284638e-01 1.502010169501410886e+01 2.529851477828667896e+02
-2.389576526797382305e-01 1.400848438612979407e+01 2.529830960916449385e+02
7.579271543174681547e-01 1.402111432761435239e+01 2.539861220963707638e+02
7.609694691999999705e-01 1.402017042459999985e+01 2.529861271697000120e+02
7.113938273606286167e-01 1.826323584041410797e+01 2.529819712816667732e+02
-2.768501763797381887e-01 1.725161853152979319e+01 2.529799195904449221e+02
7.200346306174451039e-01 1.726424847301435150e+01 2.539829455951707473e+02
7.230769455000000123e-01 1.726330456999999896e+01 2.529829506684999956e+02
1.043636320445214594e+00 -1.092901433758608576e+01 2.528107939619513616e+02
5.539231672044242494e-02 -1.194063164648566477e+01 2.528087422707449150e+02
1.052277123717269003e+00 -1.192800170497028667e+01 2.538117682754707403e+02
1.055319438599999993e+00 -1.192894560799999937e+01 2.528117733487999885e+02
1.005743796729800410e+00 -7.685880192186251847e+00 2.528076174606667905e+02
1.749979302062176778e-02 -8.697497501101032924e+00 2.528055657694449962e+02
1.014384600017489424e+00 -8.684867559585741859e+00 2.538085917741707647e+02
1.017426914899999923e+00 -8.685811462600000254e+00 2.528085968475000129e+02
9.678512729602686271e-01 -4.442746046785926772e+00 2.528044409594359081e+02
-2.039273077973302595e-02 -5.454363355670658997e+00 2.528023892682449514e+02
9.764920762171160895e-01 -5.441733414154793280e+00 2.538054152729707198e+02
9.795343910999999570e-01 -5.442677317200000253e+00 2.528054203462999965e+02
9.299587492606286032e-01 -1.199611901485891696e+00 2.528012644581667701e+02
-5.828525447973842422e-02 -2.211229210370204701e+00 2.527992127669449758e+02
9.385995525175166998e-01 -2.198599268885656155e+00 2.538022387716707442e+02
9.416418673999999989e-01 -2.199543171899999816e+00 2.528022438449999925e+02
8.920662255606288671e-01 2.043522243914077663e+00 2.527980879569359445e+02
-9.617777817973727217e-02 1.031904935029701376e+00 2.527960362657449593e+02
9.007070288171380446e-01 1.044534876545178514e+00 2.537990622704707278e+02
9.037493437000000407e-01 1.043590973499999963e+00 2.527990673438000044e+02
8.541737018298004580e-01 5.286656389313748150e+00 2.527949114556667780e+02
-1.340703018793782952e-01 4.275039080398967073e+00 2.527928597644450406e+02
8.628145051175356572e-01 4.287669021914250145e+00 2.537958857691707522e+02
8.658568199999999715e-01 4.286725118899999742e+00 2.527958908425000004e+02
8.162811780602686751e-01 8.529790534714074113e+00 2.527917349544359240e+02
-1.719628256797329779e-01 7.518173225829341000e+00 2.527896832632449104e+02
8.249219813170766136e-01 7.530803167345206717e+00 2.537927092679707357e+02
8.279642962000000050e-01 7.529859264299999744e+00 2.527927143413000124e+02
7.783886543606285402e-01 1.177292468001410874e+01 2.527885584531667860e+02
-2.098553493797381542e-01 1.076130737112979396e+01 2.527865067619449349e+02
7.870294576174629020e-01 1.077393731261435228e+01 2.537895327666707601e+02
7.900717725000000469e-01 1.077299340959999974e+01 2.527895378400000084e+02
7.404961306606289151e-01 1.501605882541407766e+01 2.527853819519359320e+02
-2.477478730797372242e-01 1.400444151652970248e+01 2.527833302607449184e+02
7.491369339171080055e-01 1.401707145804517829e+01 2.537863562654707152e+02
7.521792487999999777e-01 1.401612755500000063e+01 2.527863613387999919e+02
7.026036069606289569e-01 1.825919297081407677e+01 2.527822054506359279e+02
-2.856403967797371823e-01 1.724757566192970160e+01 2.527801537594449144e+02
7.112444102170849547e-01 1.726020560344517918e+01 2.537831797641707112e+02
7.142867251000000195e-01 1.725926170039999974e+01 2.527831848374999879e+02
1.034846100045034634e+00 -1.093305720708609030e+01 2.526110281309513539e+02
4.660209632044454153e-02 -1.194467451598584695e+01 2.526089764397449358e+02
1.043486903317268899e+00 -1.193204457447026812e+01 2.536120024444707610e+02
1.046529218200000111e+00 -1.193298847750000036e+01 2.526120075178000093e+02
9.969535762606285267e-01 -7.689923061785891356e+00 2.526078516296667829e+02
8.709572520261832373e-03 -8.701540370670205249e+00 2.526057999384449602e+02
1.005594379517488424e+00 -8.688910429185646933e+00 2.536088259431707570e+02
1.008636694400000033e+00 -8.689854332199999476e+00 2.526088310165000053e+02
9.590610525606289016e-01 -4.446788916385922441e+00 2.526046751284359289e+02
-2.918295117973734865e-02 -5.458406225270298506e+00 2.526026234372449437e+02
9.677018558171165408e-01 -5.445776283754830693e+00 2.536056494419707121e+02
9.707441706999999642e-01 -5.446720186800000363e+00 2.526056545152999888e+02
9.211685288602683430e-01 -1.203654770985896016e+00 2.526014986271667624e+02
-6.707547487973430922e-02 -2.215272079870565403e+00 2.525994469359449965e+02
9.298093321175162629e-01 -2.202642138385618509e+00 2.536024729406707650e+02
9.328516470000000060e-01 -2.203586041399999917e+00 2.526024780140000132e+02
8.832760051298008674e-01 2.039479374313717841e+00 2.525983221259359368e+02
-1.049679985793769976e-01 1.027862065398873703e+00 2.525962704347450085e+02
8.919168084171390509e-01 1.040492006945084702e+00 2.535992964394707201e+02
8.949591233000000479e-01 1.039548103900000076e+00 2.525993015127999968e+02
8.453834813606285747e-01 5.282613519714107753e+00 2.525951456246667703e+02
-1.428605223797385637e-01 4.270996210829794748e+00 2.525930939334450045e+02
8.540242846175345459e-01 4.283626152314343294e+00 2.535961199381707445e+02
8.570665994999999704e-01 4.282682249299999633e+00 2.525961250114999928e+02
8.074909576602686823e-01 8.525747665114073115e+00 2.525919691234359163e+02
-1.807530460797329708e-01 7.514130356229340890e+00 2.525899174322449028e+02
8.161317609170766207e-01 7.526760297745206607e+00 2.535929434369707280e+02
8.191740758000000122e-01 7.525816394699999634e+00 2.525929485103000047e+02
7.695984339606285474e-01 1.176888181041410952e+01 2.525887926221667783e+02
-2.186455697797381470e-01 1.075726450152979474e+01 2.525867409309449272e+02
7.782392372174630202e-01 1.076989444301434418e+01 2.535897669356707524e+02
7.812815521000000540e-01 1.076895054000000052e+01 2.525897720090000007e+02
7.317059102298008044e-01 1.501201595581371784e+01 2.525856161209359527e+02
-2.565380934793769496e-01 1.400039864689887281e+01 2.525835644297449960e+02
7.403467135171090119e-01 1.401302858844508314e+01 2.535865904344707360e+02
7.433890283999999848e-01 1.401208468539999963e+01 2.525865955078000127e+02
6.938133864298008380e-01 1.825515010121371873e+01 2.525824396196359487e+02
-2.944306172793769161e-01 1.724353279229887548e+01 2.525803879284449636e+02
7.024541897170860638e-01 1.725616273384508403e+01 2.535834139331707320e+02
7.054965046000000184e-01 1.725521883080000052e+01 2.525834190065000087e+02
1.026055879560448636e+00 -1.093710007668590833e+01 2.524112622999513462e+02
3.781187582026435123e-02 -1.194871738557043095e+01 2.524092106087449281e+02
1.034696682817268343e+00 -1.193608744407022471e+01 2.534122366134707534e+02
1.037738997699999999e+00 -1.193703134709999958e+01 2.524122416868000016e+02
9.881633558606288670e-01 -7.693965931385922552e+00 2.524080857987359536e+02
-8.064787973727227666e-05 -8.705583240270298617e+00 2.524060341075449685e+02
9.968041591171281635e-01 -8.692953298754822811e+00 2.534090601122707369e+02
9.998464740000000406e-01 -8.693897201800000474e+00 2.524090651856000136e+02
9.502708321606289088e-01 -4.450831785985921663e+00 2.524049092974359496e+02
-3.797317157973734147e-02 -5.462449094870297728e+00 2.524028576062449645e+02
9.589116354171164369e-01 -5.449819153354821033e+00 2.534058836109707329e+02
9.619539502999999714e-01 -5.450763056399999584e+00 2.524058886843000096e+02
9.123783084294403434e-01 -1.207697640586256282e+00 2.524017327961667547e+02
-7.586569527937414570e-02 -2.219314949501393297e+00 2.523996811049450173e+02
9.210191117175173803e-01 -2.206685007985712321e+00 2.534027071096707573e+02
9.240614266000000132e-01 -2.207628911000000027e+00 2.524027121830000056e+02
8.744857846606288732e-01 2.035436504714077888e+00 2.523985562949359291e+02
-1.137582190797372661e-01 1.023819195829701600e+00 2.523965046037449440e+02
8.831265879171381616e-01 1.036449137345169635e+00 2.533995306084707124e+02
8.861689028000000468e-01 1.035505234299999966e+00 2.523995356817999891e+02
8.365932609606285819e-01 5.278570650114108531e+00 2.523953797936667911e+02
-1.516507427797385565e-01 4.266953341229795527e+00 2.523933281024450253e+02
8.452340642175345531e-01 4.279583282714352954e+00 2.533963541071707652e+02
8.482763790999999776e-01 4.278639379700000411e+00 2.523963591805000135e+02
7.987007372602686894e-01 8.521704795514073894e+00 2.523922032924359087e+02
-1.895432664797328526e-01 7.510087486629341669e+00 2.523901516012448951e+02
8.073415405170766279e-01 7.522717428145207386e+00 2.533931776059707204e+02
8.103838554000000194e-01 7.521773525100000413e+00 2.523931826792999971e+02
7.608082135298004367e-01 1.176483894081374793e+01 2.523890267911667706e+02
-2.274357901793782055e-01 1.075322163189896685e+01 2.523869750999449479e+02
7.694490168174640266e-01 1.076585157341424903e+01 2.533900011046707448e+02
7.724913316999999502e-01 1.076490767039999952e+01 2.523900061779999930e+02
7.229156897606289212e-01 1.500797308621407922e+01 2.523858502899359451e+02
-2.653283139797372181e-01 1.399635577732970226e+01 2.523837985987449315e+02
7.315564930171080116e-01 1.400898571884517807e+01 2.533868246034707283e+02
7.345988078999999837e-01 1.400804181580000041e+01 2.523868296768000050e+02
6.850231660606289630e-01 1.825110723161407833e+01 2.523826737886359410e+02
-3.032208376797371763e-01 1.723948992272970315e+01 2.523806220974449275e+02
6.936639693170849608e-01 1.725211986424518074e+01 2.533836481021707243e+02
6.967062842000000256e-01 1.725117596120000130e+01 2.523836531755000010e+02
1.017265659160448532e+00 -1.094114294628590933e+01 2.522114964689513386e+02
2.902165542026424738e-02 -1.195276025517043195e+01 2.522094447777449204e+02
1.025906462417268239e+00 -1.194013031367022570e+01 2.532124707824707457e+02
1.028948777299999895e+00 -1.194107421670000058e+01 2.522124758557999940e+02
9.793731354606288741e-01 -7.698008800985921773e+00 2.522083199677359460e+02
-8.870868279737154083e-03 -8.709626109870297839e+00 2.522062682765449608e+02
9.880139387171281706e-01 -8.696996168354822032e+00 2.532092942812707292e+02
9.910562536000000478e-01 -8.697940071399999695e+00 2.522092993546000059e+02
9.414806117298004651e-01 -4.454874655586252175e+00 2.522051434664667795e+02
-4.676339197937817715e-02 -5.466491964501032363e+00 2.522030917752449852e+02
9.501214150174778217e-01 -5.453862022985750180e+00 2.532061177799707536e+02
9.531637298999999786e-01 -5.454805925999999694e+00 2.522061228533000019e+02
9.035880879602686822e-01 -1.211740510185926656e+00 2.522019669652359255e+02
-8.465591577973308191e-02 -2.223357819070658881e+00 2.521999152740449972e+02
9.122288912171561126e-01 -2.210727877554792276e+00 2.532029412787707372e+02
9.152712061000000121e-01 -2.211671780600000137e+00 2.522029463521000139e+02
8.656955642606285473e-01 2.031393635114108420e+00 2.521987904639667875e+02
-1.225484394797384802e-01 1.019776326229794972e+00 2.521967387727449648e+02
8.743363675174982141e-01 1.032406267714352399e+00 2.531997647774707616e+02
8.773786824000000539e-01 1.031462364700000078e+00 2.521997698508000099e+02
8.278030405606289222e-01 5.274527780514078223e+00 2.521956139627359335e+02
-1.604409631797374391e-01 4.262910471629702158e+00 2.521935622715450052e+02
8.364438438171742929e-01 4.275540413145178853e+00 2.531965882762707167e+02
8.394861586999999847e-01 4.274596510100000302e+00 2.521965933495999934e+02
7.899105168294406898e-01 8.517661925913714072e+00 2.521924374614359010e+02
-1.983334868793726891e-01 7.506044616998513774e+00 2.521903857702449159e+02
7.985513201170778563e-01 7.518674558545104247e+00 2.531934117749707127e+02
8.015936350000000266e-01 7.517730655500000303e+00 2.521934168482999894e+02
7.520179930606285534e-01 1.176079607121410930e+01 2.521892609601667914e+02
-2.362260106797382520e-01 1.074917876232979452e+01 2.521872092689449403e+02
7.606587963174628042e-01 1.076180870381435284e+01 2.531902352736707655e+02
7.637011111999999491e-01 1.076086480080000030e+01 2.521902403470000138e+02
7.141254693606289283e-01 1.500393021661407644e+01 2.521860844589359374e+02
-2.741185343797372109e-01 1.399231290772970127e+01 2.521840327677449238e+02
7.227662726171080187e-01 1.400494284924517707e+01 2.531870587724707207e+02
7.258085874999999909e-01 1.400399894619999941e+01 2.521870638457999974e+02
6.762329456606289702e-01 1.824706436201407556e+01 2.521829079576359334e+02
-3.120110580797371691e-01 1.723544705312970038e+01 2.521808562664449198e+02
6.848737489170849679e-01 1.724807699464517796e+01 2.531838822711707166e+02
6.879160638000000327e-01 1.724713309159999852e+01 2.521838873444999933e+02
1.008475438760448650e+00 -1.094518581588590855e+01 2.520117306379513309e+02
2.023143502026436558e-02 -1.195680312477043117e+01 2.520096789467449128e+02
1.017116242017268357e+00 -1.194417318327022492e+01 2.530127049514707380e+02
1.020158556900000013e+00 -1.194511708629999980e+01 2.520127100247999863e+02
9.705829150606288813e-01 -7.702051670585922771e+00 2.520085541367359383e+02
-1.766108867973725793e-02 -8.713668979470298837e+00 2.520065024455449532e+02
9.792237183171281778e-01 -8.701039037954823030e+00 2.530095284502707216e+02
9.822660332000000549e-01 -8.701982941000000693e+00 2.520095335235999983e+02
9.326903913298004722e-01 -4.458917525186251396e+00 2.520053776354667718e+02
-5.555361237937816998e-02 -5.470534834101032473e+00 2.520033259442449776e+02
9.413311946174778289e-01 -5.457904892585750289e+00 2.530063519489707460e+02
9.443735094999999857e-01 -5.458848795599999804e+00 2.520063570222999942e+02
8.947978675602686893e-01 -1.215783379785926321e+00 2.520022011342359178e+02
-9.344613617973307473e-02 -2.227400688670658546e+00 2.520001494430449895e+02
9.034386708171561198e-01 -2.214770747154791941e+00 2.530031754477707295e+02
9.064809857000000193e-01 -2.215714650199999802e+00 2.520031805211000062e+02
8.569053438606285544e-01 2.027350765514108311e+00 2.519990246329667798e+02
-1.313386598797385840e-01 1.015733456629795084e+00 2.519969729417449571e+02
8.655461471174982213e-01 1.028363398114343408e+00 2.529999989464707539e+02
8.685884619999999501e-01 1.027419495099999969e+00 2.520000040198000022e+02
8.190128201298008115e-01 5.270484910913718402e+00 2.519958481317359542e+02
-1.692311835793771646e-01 4.258867601998874264e+00 2.519937964405450543e+02
8.276536234171754103e-01 4.271497543545085485e+00 2.529968224452707375e+02
8.306959382999999919e-01 4.270553640500000192e+00 2.519968275186000142e+02
7.811202963606285188e-01 8.513619056314109201e+00 2.519926716304667877e+02
-2.071237073797381756e-01 7.502001747429795309e+00 2.519906199392449082e+02
7.897610996174372344e-01 7.514631688914351848e+00 2.529936459439707619e+02
7.928034145000000255e-01 7.513687785900000193e+00 2.519936510173000102e+02
7.432277726602686263e-01 1.175675320171407279e+01 2.519894951292359053e+02
-2.450162310797330267e-01 1.074513589282934056e+01 2.519874434380449202e+02
7.518685759171023220e-01 1.075776583434520717e+01 2.529904694427707170e+02
7.549108907999999563e-01 1.075682193129999931e+01 2.519904745160999937e+02
7.053352489606289355e-01 1.499988734701407900e+01 2.519863186279359297e+02
-2.829087547797372038e-01 1.398827003812970204e+01 2.519842669367449162e+02
7.139760522171080259e-01 1.400089997964516897e+01 2.529872929414707130e+02
7.170183670999999981e-01 1.399995607660000019e+01 2.519872980147999897e+02
6.674427252606289773e-01 1.824302149241407633e+01 2.519831421266359541e+02
-3.208012784797371619e-01 1.723140418352970116e+01 2.519810904354449406e+02
6.760835285170850861e-01 1.724403412504516808e+01 2.529841164401707374e+02
6.791258434000000399e-01 1.724309022199999930e+01 2.519841215135000141e+02
9.996852183450345430e-01 -1.094922868548609074e+01 2.518119648069513516e+02
1.144121462044445092e-02 -1.196084599438584739e+01 2.518099131157449335e+02
1.008326021617268697e+00 -1.194821605287026856e+01 2.528129391204707588e+02
1.011368336499999909e+00 -1.194915995590000080e+01 2.518129441938000070e+02
9.617926946298007707e-01 -7.706094540186281705e+00 2.518087883057359306e+02
-2.645130907937709441e-02 -8.717711849101126731e+00 2.518067366145449739e+02
9.704334979171291842e-01 -8.705081907554914622e+00 2.528097626192707139e+02
9.734758127999999511e-01 -8.706025810599999915e+00 2.518097676925999906e+02
9.239001708606285890e-01 -4.462960394785891793e+00 2.518056118044667642e+02
-6.434383287973843846e-02 -5.474577703670204798e+00 2.518035601132449415e+02
9.325409741174767175e-01 -5.461947762185656252e+00 2.528065861179707383e+02
9.355832889999999846e-01 -5.462891665199999913e+00 2.518065911912999866e+02
8.860076471606288528e-01 -1.219826249385921990e+00 2.518024353032359386e+02
-1.022363565797372864e-01 -2.231443558270298499e+00 2.518003836120449819e+02
8.946484504171564600e-01 -2.218813616754821361e+00 2.528034096167707219e+02
8.976907653000000264e-01 -2.219757519799999912e+00 2.518034146900999986e+02
8.481151234294402874e-01 2.023307896013744056e+00 2.517992588019667437e+02
-1.401288802793740906e-01 1.011690587098606819e+00 2.517972071107450063e+02
8.567559267174988946e-01 1.024320528614278913e+00 2.528002331154707463e+02
8.597982415999999573e-01 1.023376625600000089e+00 2.518002381887999945e+02
8.102225996606289282e-01 5.266442041314078004e+00 2.517960823007359465e+02
-1.780214040797374331e-01 4.254824732429701939e+00 2.517940306095450183e+02
8.188634029171742990e-01 4.267454673945178634e+00 2.527970566142707298e+02
8.219057177999999908e-01 4.266510770900000082e+00 2.517970616876000065e+02
7.723300759606285260e-01 8.509576186714108204e+00 2.517929057994667801e+02
-2.159139277797380574e-01 7.497958877829795199e+00 2.517908541082449005e+02
7.809708792174372416e-01 7.510588819314351738e+00 2.527938801129707542e+02
7.840131941000000326e-01 7.509644916300000084e+00 2.517938851863000025e+02
7.344375522602686335e-01 1.175271033211407357e+01 2.517897292982358977e+02
-2.538064514797330196e-01 1.074109302322934134e+01 2.517876776070449125e+02
7.430783555171024402e-01 1.075372296474519906e+01 2.527907036117707094e+02
7.461206703999999634e-01 1.075277906170000009e+01 2.517907086850999860e+02
6.965450285298004918e-01 1.499584447741374760e+01 2.517865527969667880e+02
-2.916989751793781505e-01 1.398422716849896652e+01 2.517845011057449938e+02
7.051858318174692997e-01 1.399685711001425759e+01 2.527875271104707622e+02
7.082281467000000053e-01 1.399591320699999919e+01 2.517875321838000104e+02
6.586525047298005253e-01 1.823897862281374671e+01 2.517833762957667716e+02
-3.295914989793781169e-01 1.722736131389896741e+01 2.517813246045449489e+02
6.672933080174462406e-01 1.723999125541425670e+01 2.527843506092707457e+02
6.703356229000000388e-01 1.723904735240000008e+01 2.517843556825999940e+02
9.908949979604487757e-01 -1.095327155508592476e+01 2.516121989760359270e+02
2.650994220264935031e-03 -1.196488886397047935e+01 2.516101472848449134e+02
9.995358012170882933e-01 -1.195225892245481170e+01 2.526131732895707103e+02
1.002578116100000027e+00 -1.195320282550000002e+01 2.516131783628999870e+02
9.530024742602686283e-01 -7.710137409685925647e+00 2.516090224747359230e+02
-3.524152947973313577e-02 -8.721754718570657872e+00 2.516069707835449663e+02
9.616432775171277481e-01 -8.709124777054791267e+00 2.526099967882707347e+02
9.646855923999999582e-01 -8.710068680099999128e+00 2.516100018616000114e+02
9.151099505298004866e-01 -4.467003264386251615e+00 2.516058459734667849e+02
-7.313405317937815564e-02 -5.478620573301032692e+00 2.516037942822449907e+02
9.237507538174777322e-01 -5.465990631785741627e+00 2.526068202869707591e+02
9.267930687000000001e-01 -5.466934534800000023e+00 2.516068253603000073e+02
8.772174267606288600e-01 -1.223869118985922100e+00 2.516026694722359309e+02
-1.110265769797372792e-01 -2.235486427870298609e+00 2.516006177810449742e+02
8.858582300171564672e-01 -2.222856486354821470e+00 2.526036437857707142e+02
8.889005449000000336e-01 -2.223800389400000022e+00 2.516036488590999909e+02
8.393249030602683014e-01 2.019265026414103659e+00 2.515994929709667360e+02
-1.489191006797342398e-01 1.007647717529434717e+00 2.515974412797449702e+02
8.479657063174979026e-01 1.020277659014372729e+00 2.526004672844707386e+02
8.510080211999999644e-01 1.019333755999999980e+00 2.516004723577999869e+02
8.014323793298008258e-01 5.262399171713718182e+00 2.515963164697359389e+02
-1.868116243793771503e-01 4.250781862798874045e+00 2.515942647785450390e+02
8.100731826171754246e-01 4.263411804345085265e+00 2.525972907832707222e+02
8.131154975000000062e-01 4.262467901299999973e+00 2.515972958565999988e+02
7.635398555606285331e-01 8.505533317114108982e+00 2.515931399684667724e+02
-2.247041481797380502e-01 7.493916008229795089e+00 2.515910882772448929e+02
7.721806588174373598e-01 7.506545949714342747e+00 2.525941142819707466e+02
7.752229737000000398e-01 7.505602046699999974e+00 2.515941193552999948e+02
7.256473318602686406e-01 1.174866746251407434e+01 2.515899634672359184e+02
-2.625966718797330124e-01 1.073705015362934212e+01 2.515879117760449333e+02
7.342881351171023363e-01 1.074968009514520872e+01 2.525909377807707301e+02
7.373304499999999706e-01 1.074873619210000086e+01 2.515909428541000068e+02
6.877548081606286168e-01 1.499180160781410898e+01 2.515867869659667804e+02
-3.004891955797381886e-01 1.398018429892979420e+01 2.515847352747449293e+02
6.963956114174681966e-01 1.399281424041435251e+01 2.525877612794707545e+02
6.994379263000000124e-01 1.399187033739999997e+01 2.515877663528000028e+02
6.498622844606286586e-01 1.823493575321410987e+01 2.515836104647667639e+02
-3.383817192797381468e-01 1.722331844432979508e+01 2.515815587735449128e+02
6.585030877174451458e-01 1.723594838581435340e+01 2.525845847782707381e+02
6.615454026000000542e-01 1.723500448280000086e+01 2.515845898515999863e+02
3.870111906245034650e+00 -1.092100872688608959e+01 2.514211851474513537e+02
2.881867902520444780e+00 -1.193262603578584624e+01 2.514191334562449640e+02
3.878752709517297781e+00 -1.191999609427026741e+01 2.524221594609707608e+02
3.881795024400000127e+00 -1.192093999729999965e+01 2.514221645343000091e+02
3.832219382529440388e+00 -7.677874581486256567e+00 2.514180086461667543e+02
2.843975378820626343e+00 -8.689491890401393803e+00 2.514159569549449600e+02
3.840860185817461137e+00 -8.676861948885713716e+00 2.524189829596707568e+02
3.843902500700000058e+00 -8.677805851900000533e+00 2.514189880330000051e+02
3.794326858760628696e+00 -4.434740436185921730e+00 2.514148321449359287e+02
2.806082855020262556e+00 -5.446357745070297796e+00 2.514127804537449151e+02
3.802967662017095574e+00 -5.433727803554830871e+00 2.524158064584707120e+02
3.806009976899999980e+00 -5.434671706599999652e+00 2.514158115317999886e+02
3.756434335060628626e+00 -1.191606290785891975e+00 2.514116556436667906e+02
2.768190331320261599e+00 -2.203223599670204980e+00 2.514096039524449679e+02
3.765075138317477421e+00 -2.190593658185647996e+00 2.524126299571707648e+02
3.768117453199999911e+00 -2.191537561200000095e+00 2.514126350305000130e+02
3.718541811329800773e+00 2.051527854613717672e+00 2.514084791424359366e+02
2.730297807620623018e+00 1.039910545698873756e+00 2.514064274512449799e+02
3.727182614617130074e+00 1.052540487245084533e+00 2.524094534559707199e+02
3.730224929499999842e+00 1.051596584199999906e+00 2.514094585292999966e+02
3.680649287560268323e+00 5.294662000014104031e+00 2.514053026411667418e+02
2.692405283820265893e+00 4.283044691129434867e+00 2.514032509499449475e+02
3.689290090817483492e+00 4.295674632614372435e+00 2.524062769546707443e+02
3.692332405700000209e+00 4.294730729600000352e+00 2.514062820279999926e+02
3.642756763860628855e+00 8.537796145314079155e+00 2.514021261399359446e+02
2.654512760120263604e+00 7.526178836429701313e+00 2.514000744487447605e+02
3.651397567116929199e+00 7.538808777945176232e+00 2.524031004534707279e+02
3.654439882000000139e+00 7.537864874900000345e+00 2.514031055268000046e+02
3.604864240160628786e+00 1.178093029071407827e+01 2.513989496386359406e+02
2.616620236420263090e+00 1.076931298182970131e+01 2.513968979474448702e+02
3.613505043417037932e+00 1.078194292334517712e+01 2.523999239521707239e+02
3.616547358300000070e+00 1.078099902029999946e+01 2.513999290255000005e+02
3.566971716429440331e+00 1.502406443611374343e+01 2.513957731373667457e+02
2.578727712720626286e+00 1.401244712719860708e+01 2.513937214461449230e+02
3.575612519717432214e+00 1.402507706871427828e+01 2.523967474508707483e+02
3.578654834600000001e+00 1.402413316570000035e+01 2.513967525241999965e+02
3.529079192629440254e+00 1.826719858141374431e+01 2.513925966361667577e+02
2.540835188920626209e+00 1.725558127249860974e+01 2.513905449449449350e+02
3.537719995917429028e+00 1.726821121401427916e+01 2.523935709496707602e+02
3.540762310799999923e+00 1.726726731100000123e+01 2.513935760230000085e+02
9.821047774604486635e-01 -1.095731442468590799e+01 2.514124331450513523e+02
-6.139226279735621183e-03 -1.196893173357043061e+01 2.514103814538449342e+02
9.907455807172683704e-01 -1.195630179207021904e+01 2.524134074585707594e+02
9.937878956000000263e-01 -1.195724569509999924e+01 2.514134125319000077e+02
9.442122537602682941e-01 -7.714180279285896447e+00 2.514092566437667529e+02
-4.403174997973424709e-02 -8.725797588170564723e+00 2.514072049525449586e+02
9.528530570174879033e-01 -8.713167646685619161e+00 2.524102309572707554e+02
9.558953718999999571e-01 -8.714111549700000126e+00 2.514102360306000037e+02
9.063197300606289364e-01 -4.471046133985922211e+00 2.514060801425359273e+02
-8.192427367973731389e-02 -5.482663442870298276e+00 2.514040284513449421e+02
9.149605333171165755e-01 -5.470033501354830463e+00 2.524070544560707106e+02
9.180028481999999990e-01 -5.470977404400000133e+00 2.514070595293999872e+02
8.684272063298005273e-01 -1.227911988586252168e+00 2.514029036412667892e+02
-1.198167973793781149e-01 -2.239529297501033245e+00 2.514008519500450234e+02
8.770680096175177409e-01 -2.226899355985741291e+00 2.524038779547707634e+02
8.801103245000000408e-01 -2.227843259000000131e+00 2.514038830281000116e+02
8.305346825602686334e-01 2.015222156814073795e+00 2.513997271400359068e+02
-1.577093211797331307e-01 1.003604847929341348e+00 2.513976754488449785e+02
8.391754858171376341e-01 1.016234789445207731e+00 2.524007014535707185e+02
8.422178006999999633e-01 1.015290886400000092e+00 2.514007065268999952e+02
7.926421588606289426e-01 5.258356302114077785e+00 2.513965506387359312e+02
-1.956018448797374187e-01 4.246738993229701720e+00 2.513944989475450029e+02
8.012829621171743133e-01 4.259368934745178414e+00 2.523975249522707145e+02
8.043252770000000051e-01 4.258425031699999863e+00 2.513975300255999912e+02
7.547496351606285403e-01 8.501490447514107984e+00 2.513933741374667648e+02
-2.334943685797380430e-01 7.489873138629794980e+00 2.513913224462448852e+02
7.633904384174373670e-01 7.502503080114342637e+00 2.523943484509707389e+02
7.664327533000000470e-01 7.501559177099999864e+00 2.513943535242999872e+02
7.168571114294406410e-01 1.174462459291371275e+01 2.513901976362359107e+02
-2.713868922793729599e-01 1.073300728399851245e+01 2.513881459450449540e+02
7.254979147171034537e-01 1.074563722554511358e+01 2.523911719497707224e+02
7.285402295999999778e-01 1.074469332249999987e+01 2.513911770230999991e+02
6.789645876606286157e-01 1.498775873821410975e+01 2.513870211349667727e+02
-3.092794160797381897e-01 1.397614142932979497e+01 2.513849694437449216e+02
6.876053909174683065e-01 1.398877137081434441e+01 2.523879954484707469e+02
6.906477058000000113e-01 1.398782746780000075e+01 2.513880005217999951e+02
6.410720639606286575e-01 1.823089288361411064e+01 2.513838446337667847e+02
-3.471719397797381479e-01 1.721927557472979586e+01 2.513817929425449336e+02
6.497128672174452557e-01 1.723190551621434352e+01 2.523848189472707588e+02
6.527551821000000531e-01 1.723096161320000164e+01 2.513848240206000071e+02
-1.905902351254965321e+00 -1.099362012248610476e+01 2.514036811426359463e+02
-2.894146354979555191e+00 -1.200523743138589339e+01 2.514016294514449612e+02
-1.897261547982896257e+00 -1.199260748985485492e+01 2.524046554561707296e+02
-1.894219233100000066e+00 -1.199355139290000061e+01 2.514046605295000063e+02
-1.943794874970559361e+00 -7.750485977086285949e+00 2.514005046413359139e+02
-2.932038878679372740e+00 -8.762103286001487135e+00 2.513984529501449856e+02
-1.935154071682867460e+00 -8.749473344454886004e+00 2.524014789548707256e+02
-1.932111756799999913e+00 -8.750417247499999718e+00 2.514014840282000023e+02
-1.981687398739371497e+00 -4.507351831785891605e+00 2.513973281400667759e+02
-2.969931402479738303e+00 -5.518969140670204609e+00 2.513952764488449532e+02
-1.973046595482507160e+00 -5.506339199185656064e+00 2.523983024535707500e+02
-1.970004280599999991e+00 -5.507283102199999725e+00 2.513983075268999983e+02
-2.019579922439371344e+00 -1.264217686385922246e+00 2.513941516388359503e+02
-3.007823926179737484e+00 -2.275834995270298755e+00 2.513920999476449936e+02
-2.010939119182845403e+00 -2.263205053754821616e+00 2.523951259523707336e+02
-2.007896804300000060e+00 -2.264148956800000168e+00 2.513951310257000102e+02
-2.057472446139732014e+00 1.978916459014103957e+00 2.513909751375667554e+02
-3.045716449879734000e+00 9.672991501294345706e-01 2.513889234463449611e+02
-2.048831642882527060e+00 9.799290916143810204e-01 2.523919494510707580e+02
-2.045789328000000129e+00 9.789851885999999448e-01 2.513919545244000062e+02
-2.095364969870199268e+00 5.222050604313718480e+00 2.513877986363359298e+02
-3.083608973579377466e+00 4.210433295398874343e+00 2.513857469451450015e+02
-2.086724166582845541e+00 4.223063236945076682e+00 2.523887729498707131e+02
-2.083681851700000198e+00 4.222119333900000271e+00 2.513887780231999898e+02
-2.133257493639371116e+00 8.465184749714108392e+00 2.513846221350667918e+02
-3.121501497379738144e+00 7.453567440829795387e+00 2.513825704438449122e+02
-2.124616690382561401e+00 7.466197382314351927e+00 2.523855964485707659e+02
-2.121574375499999832e+00 7.465253479300000272e+00 2.513856015219000142e+02
-2.171150017339731342e+00 1.170831889511407375e+01 2.513814456338359093e+02
-3.159394021079732884e+00 1.069670158622934153e+01 2.513793939426449242e+02
-2.162509214082902531e+00 1.070933152774520813e+01 2.523824199473707210e+02
-2.159466899199999901e+00 1.070838762470000027e+01 2.513824250206999977e+02
-2.209042541039371255e+00 1.495145304041410839e+01 2.513782691325667713e+02
-3.197286544779738282e+00 1.393983573152979361e+01 2.513762174413449202e+02
-2.200401737782534450e+00 1.395246567301434304e+01 2.523792434460707454e+02
-2.197359422899999970e+00 1.395152176999999938e+01 2.513792485193999937e+02
-2.246935064739371324e+00 1.819458718581410750e+01 2.513750926313667833e+02
-3.235179068479738351e+00 1.718296987692979272e+01 2.513730409401449037e+02
-2.238294261482566494e+00 1.719559981841434038e+01 2.523760669448707574e+02
-2.235251946600000039e+00 1.719465591539999849e+01 2.513760720182000057e+02
3.861321685845214624e+00 -1.092505159648608704e+01 2.512214193164513745e+02
2.873077682120442233e+00 -1.193666890538566605e+01 2.512193676252449563e+02
3.869962489117297455e+00 -1.192403896387028617e+01 2.522223936299707532e+02
3.873004803999999801e+00 -1.192498286690000064e+01 2.512223987033000014e+02
3.823429162060628883e+00 -7.681917451085891635e+00 2.512182428151667750e+02
2.835185158320261856e+00 -8.693534759970205528e+00 2.512161911239449239e+02
3.832069965317460358e+00 -8.680904818485656094e+00 2.522192171286707492e+02
3.835112280200000168e+00 -8.681848721499999755e+00 2.512192222019999974e+02
3.785536638360268658e+00 -4.438783305685926273e+00 2.512150663139359210e+02
2.797292634620267116e+00 -5.450400614570658497e+00 2.512130146227449359e+02
3.794177441617095248e+00 -5.437770673054792780e+00 2.522160406274707327e+02
3.797219756500000098e+00 -5.438714576099999753e+00 2.512160457008000094e+02
3.747644114660628745e+00 -1.195649160385892085e+00 2.512118898126667830e+02
2.759400110920261717e+00 -2.207266469270205089e+00 2.512098381214449603e+02
3.756284917917477539e+00 -2.194636527785648106e+00 2.522128641261707571e+02
3.759327232800000029e+00 -2.195580430800000205e+00 2.512128691995000054e+02
3.709751590929800891e+00 2.047484985013718006e+00 2.512087133114359290e+02
2.721507587220623137e+00 1.035867676098873646e+00 2.512066616202449723e+02
3.718392394217130192e+00 1.048497617645075763e+00 2.522096876249707122e+02
3.721434709099999960e+00 1.047553714600000019e+00 2.512096926982999889e+02
3.671859067160267998e+00 5.290619130414103921e+00 2.512055368101667625e+02
2.683615063420266011e+00 4.279001821529434757e+00 2.512034851189449682e+02
3.680499870417483166e+00 4.291631763014381207e+00 2.522065111236707651e+02
3.683542185299999883e+00 4.290687860000000242e+00 2.512065161970000133e+02
3.633966543460628973e+00 8.533753275714078157e+00 2.512023603089359369e+02
2.645722539720263278e+00 7.522135966829702092e+00 2.512003086177447528e+02
3.642607346716928873e+00 7.534765908345176122e+00 2.522033346224707202e+02
3.645649661599999813e+00 7.533822005300000235e+00 2.512033396957999969e+02
3.596074019729800675e+00 1.177688742111374864e+01 2.511991838076667705e+02
2.607830016020622033e+00 1.076527011219896757e+01 2.511971321164448909e+02
3.604714823017399539e+00 1.077790005371424797e+01 2.522001581211707446e+02
3.607757137900000188e+00 1.077695615070000024e+01 2.512001631944999929e+02
3.558181495960268670e+00 1.502002156651407283e+01 2.511960073064359165e+02
2.569937492220267128e+00 1.400840425762934061e+01 2.511939556152449029e+02
3.566822299217070835e+00 1.402103419914520543e+01 2.521969816199707282e+02
3.569864614100000111e+00 1.402009029609999935e+01 2.511969866933000048e+02
3.520288972260268601e+00 1.826315571181407194e+01 2.511928308051359124e+02
2.532044968520267059e+00 1.725153840292933793e+01 2.511907791139448989e+02
