1.326608758355194428e+00 1.436288755207885437e+01 2.552390340927051113e+02
2.330139176925180244e+00 1.535934390115997239e+01 2.552378326849143946e+02
1.337414914178851388e+00 1.535677387062582255e+01 2.562450525879633005e+02
1.330171756599999977e+00 1.536286282270000036e+01 2.552450973583000007e+02
1.314746929713885848e+00 1.103379942082092491e+01 2.552188484258246604e+02
2.318277348225143530e+00 1.203025576994970791e+01 2.552176470085143194e+02
1.325553085512770624e+00 1.202768574894546916e+01 2.562248669116210067e+02
1.318309927899999900e+00 1.203377469149999968e+01 2.552249116819000108e+02
1.302885101471734641e+00 7.704711291736778378e+00 2.551986628266681691e+02
2.306415519924992275e+00 8.701167640907284451e+00 2.551974613955140399e+02
1.313691257262096457e+00 8.698597633788955008e+00 2.562046812987049407e+02
1.306448099600000079e+00 8.704686562499999170e+00 2.552047260688999870e+02
1.291023273400621729e+00 4.375623164484235161e+00 2.551784772684170264e+02
2.294553691824872121e+00 5.372079513673525319e+00 2.551772758286138583e+02
1.301829429192912668e+00 5.369509515237721686e+00 2.561844957318573961e+02
1.294586271500000052e+00 5.375598435299999700e+00 2.551845405020000044e+02
1.279161445430049060e+00 1.046535038163191711e+00 2.551582917337702838e+02
2.282691863824887868e+00 2.042991387377938395e+00 2.551570902905138780e+02
1.289967601205217251e+00 2.040421392391105204e+00 2.561643101937783058e+02
1.282724443500000033e+00 2.046510308999999861e+00 2.551643549638999957e+02
1.267299617500264874e+00 -2.282553087625776911e+00 2.551381062053684730e+02
2.270830035924828127e+00 -1.286096738438793130e+00 2.551369047639138046e+02
1.278105773298796599e+00 -1.288666735210878489e+00 2.561441246671673753e+02
1.270862615600000023e+00 -1.282577816799999937e+00 2.551441694373000075e+02
1.255437789471341548e+00 -5.611641213583431487e+00 2.551179206658016483e+02
2.258968207924905158e+00 -4.615184864417253507e+00 2.551167192313139083e+02
1.266243945273973326e+00 -4.617754868177665450e+00 2.561239391345251306e+02
1.259000787600000004e+00 -4.611665942800000195e+00 2.551239839046999975e+02
1.243575961343066139e+00 -8.940729340409403036e+00 2.550977350978094194e+02
2.247106379825118960e+00 -7.944272991257217420e+00 2.550965336755142800e+02
1.254382117130532048e+00 -7.946843007269708714e+00 2.561037535786512080e+02
1.247138959499999977e+00 -7.940754069699999640e+00 2.551037983488999998e+02
1.231714133025647806e+00 -1.226981746860355926e+01 2.550775494840223416e+02
2.235244551625148901e+00 -1.127336111954869224e+01 2.550763480791143252e+02
1.242520288868579348e+00 -1.127593115295705672e+01 2.560835679821457802e+02
1.235277131299999942e+00 -1.126984219799999920e+01 2.550836127524999881e+02
1.219852304425647960e+00 -1.559890559910355989e+01 2.550573638297223624e+02
2.223382723025149055e+00 -1.460244925004869287e+01 2.550561624248143460e+02
1.230658460268579502e+00 -1.460501928345705736e+01 2.560633823278457726e+02
1.223415302700000096e+00 -1.459893032849999983e+01 2.550634270982000089e+02
1.325691808455141008e+00 1.435568362817885557e+01 2.550391659795050145e+02
2.329222227025180114e+00 1.535213997725991852e+01 2.550379645717143831e+02
1.336497964278851258e+00 1.534956994672573494e+01 2.560451844747632322e+02
1.329254806700000069e+00 1.535565889879999979e+01 2.550452292450999892e+02
1.313829979883740950e+00 1.102659549692085150e+01 2.550189803125545325e+02
2.317360398425035495e+00 1.202305184601934940e+01 2.550177788952141498e+02
1.324636135712876417e+00 1.202048182507511065e+01 2.560249987983211781e+02
1.317392978100000001e+00 1.202657076760000088e+01 2.550250435686000117e+02
1.301968151571841537e+00 7.697507367936778699e+00 2.549987947134683566e+02
2.305498570024992588e+00 8.693963717107390465e+00 2.549975932823140568e+02
1.312774307362096771e+00 8.691393709989130301e+00 2.560048131855049292e+02
1.305531149699999949e+00 8.697482638700000379e+00 2.550048579557000039e+02
1.290106323500514574e+00 4.368419240584236363e+00 2.549786091552168159e+02
2.293636741924871991e+00 5.364875589773419939e+00 2.549774077154138467e+02
1.300912479292911872e+00 5.362305591337547916e+00 2.559846276186573562e+02
1.293669321599999922e+00 5.368394511400000013e+00 2.549846723887999929e+02
1.278244495530155955e+00 1.039331114363190700e+00 2.549584236205704713e+02
2.281774913924888182e+00 2.035787463578044854e+00 2.549572221773138949e+02
1.289050651305217787e+00 2.033217468591279609e+00 2.559644420805783227e+02
1.281807493599999903e+00 2.039306385200000182e+00 2.549644868507000126e+02
1.266382667600264744e+00 -2.289757011525777042e+00 2.549382380921684614e+02
2.269913086024827997e+00 -1.293300662338793261e+00 2.549370366507137931e+02
1.277188823398796469e+00 -1.295870659110878620e+00 2.559442565539673922e+02
1.269945665699999893e+00 -1.289781740700000068e+00 2.549443013240999960e+02
1.254520839601378723e+00 -5.618845137483537755e+00 2.549180525526016368e+02
2.258051258025012054e+00 -4.622388788287217665e+00 2.549168511181140957e+02
1.265326995373974306e+00 -4.624958792077447534e+00 2.559240710213251191e+02
1.258083837700000096e+00 -4.618869866699999882e+00 2.549241157914999860e+02
