-6.877009	-6.131393	40.209194	79	78	96
-6.506569	-6.132200	40.196938	76	77	94
-6.320442	-6.132810	40.182671	76	76	93
-5.573727	-6.135717	40.107140	76	70	91
-5.202165	-6.136748	40.086075	73	72	91
-5.017158	-6.137088	40.082436	74	70	90
-4.465287	-6.137414	40.098896	74	70	90
-3.913755	-6.137681	40.117733	71	68	82
-3.157816	-6.142443	39.969151	64	64	76
-2.777340	-6.145310	39.875713	77	69	85
-2.589420	-6.146242	39.848782	81	74	89
-2.031021	-6.147890	39.813187	76	76	94
-1.473624	-6.149312	39.786453	78	74	91
-0.729142	-6.151450	39.741364	75	71	89
-0.352956	-6.153300	39.688034	75	73	94
0.399568	-6.156972	39.582497	77	74	89
0.970981	-6.161051	39.451199	78	75	93
1.719674	-6.163835	39.380695	79	75	98
2.094451	-6.165291	39.342907	84	82	99
2.283734	-6.166376	39.309978	84	80	102
2.850295	-6.169353	39.222118	88	80	103
3.407487	-6.170535	39.204922	86	83	103
5.319456	-6.184282	38.761631	87	83	106
5.705798	-6.187649	38.648689	83	82	103
5.897373	-6.189034	38.603989	87	81	101
6.673080	-6.196154	38.362934	83	79	98
7.059237	-6.199358	38.256451	82	77	100
7.821834	-6.203986	38.113571	89	84	107
8.206858	-6.206904	38.018353	89	83	109
8.403152	-6.208998	37.945759	89	83	103
9.374432	-6.217582	37.657131	85	84	103
9.565562	-6.218747	37.621094	85	84	107
10.343040	-6.225498	37.394810	87	85	108
10.734366	-6.229246	37.267014	83	81	103
11.523687	-6.237709	36.973476	81	79	103
11.915493	-6.241411	36.847507	81	77	99
13.109007	-6.255163	36.365753	82	76	100
13.306723	-6.257223	36.294605	81	76	101
13.907806	-6.264582	36.034805	82	79	101
14.310267	-6.269694	35.853500	79	76	96
14.506845	-6.271508	35.792046	78	75	94
15.095295	-6.276699	35.617554	77	73	93
15.491344	-6.280691	35.480339	74	72	89
15.690432	-6.282834	35.405945	77	72	93
16.095118	-6.288076	35.219612	81	75	95
16.299606	-6.291002	35.114487	78	74	96
16.503412	-6.293809	35.014015	79	75	96
16.908926	-6.299067	34.827122	81	77	97
17.112339	-6.301775	34.730606	82	78	98
17.518921	-6.307111	34.540634	84	81	102
17.720259	-6.309470	34.457825	84	81	102
18.121866	-6.313994	34.299778	83	79	99
18.324898	-6.316568	34.208530	84	79	98
18.737782	-6.322675	33.988373	80	79	101
18.946423	-6.326025	33.866604	80	79	102
19.567766	-6.335315	33.531303	81	78	97
19.981674	-6.341386	33.312614	82	79	96
20.191967	-6.344878	33.185349	81	77	98
21.035437	-6.358999	32.670300	79	77	96
21.246229	-6.362475	32.543671	78	78	96
21.881111	-6.373153	32.154034	76	77	96
22.091593	-6.376518	32.031822	81	77	98
22.301783	-6.379825	31.911865	79	79	99
22.941896	-6.390975	31.503819	80	76	94
23.156933	-6.394885	31.360189	80	75	93
23.370317	-6.398550	31.226248	77	75	94
23.796595	-6.405758	30.963104	75	75	95
24.012691	-6.409741	30.816668	75	75	92
24.230495	-6.413937	30.661852	76	74	93
24.668379	-6.422579	30.342472	76	72	92
24.888746	-6.427062	30.176430	77	74	93
25.109566	-6.431585	30.008846	77	75	91
25.547213	-6.440029	29.697283	74	73	92
25.762865	-6.443797	29.559370	73	71	91
25.977324	-6.447387	29.428413	73	70	91
26.840366	-6.462273	28.884081	74	73	90
27.062250	-6.466759	28.717978	75	73	92
27.515089	-6.476861	28.341505	72	68	91
28.178211	-6.489735	27.866314	73	71	89
28.396935	-6.493685	27.721296	76	76	96
28.848892	-6.503410	27.359720	73	70	90
29.082136	-6.509177	27.143463	73	70	88
29.316113	-6.515011	26.924564	72	71	87
29.778559	-6.525894	26.517632	75	70	86
30.009975	-6.531322	26.314682	75	70	86
30.480713	-6.543111	25.872259	76	71	86
30.719618	-6.549414	25.635044	74	71	86
30.960419	-6.555928	25.389549	73	71	88
31.201622	-6.562463	25.143240	74	72	88
31.670374	-6.573728	24.721472	75	72	89
31.894175	-6.577997	24.564110	74	73	88
32.116402	-6.582050	24.415218	75	71	89
33.071762	-6.606321	23.503613	72	72	92
33.795895	-6.625179	22.794350	75	75	90
34.029942	-6.630510	22.595421	72	74	89
34.266254	-6.636095	22.386538	74	73	88
34.509888	-6.642549	22.143545	73	73	89
35.018337	-6.657951	21.559834	76	74	89
35.531429	-6.673780	20.959465	75	72	89
36.039536	-6.688869	20.388166	76	74	89
36.541199	-6.703053	19.852379	74	75	92
36.787842	-6.709599	19.605959	74	72	89
37.800453	-6.738587	18.510302	73	73	89
38.330162	-6.755661	17.861464	72	71	87
38.817795	-6.767640	17.412399	71	72	87
39.032856	-6.770217	17.321634	70	68	86
-72.960304	-7.064409	7.655807	50	50	61
-72.753357	-7.062109	7.756055	53	52	64
-72.541504	-7.057641	7.940921	59	55	70
-72.105476	-7.043045	8.531489	71	68	86
-71.887154	-7.035413	8.839746	73	72	86
-71.668861	-7.027660	9.152737	73	73	84
-71.450790	-7.019869	9.467192	71	72	84
-71.233398	-7.012247	9.775049	69	70	84
-71.017052	-7.004965	10.069633	69	69	83
-70.587212	-6.991323	10.622715	70	68	84
-70.372849	-6.984575	10.896438	70	69	83
-70.158356	-6.977635	11.177578	67	67	81
-69.943703	-6.970486	11.466878	65	65	76
-69.729134	-6.963237	11.760088	64	62	73
-69.301491	-6.949051	12.334245	62	62	78
-68.877365	-6.936069	12.861374	67	65	78
-68.456459	-6.924206	13.344834	69	66	93
-68.246819	-6.918507	13.577485	80	76	103
-68.037766	-6.913000	13.802618	79	77	96
-67.414604	-6.897914	14.421973	73	69	86
-66.792984	-6.882663	15.047682	69	67	86
-66.170311	-6.865738	15.738558	75	72	89
-65.550026	-6.849017	16.421373	69	70	83
-64.936478	-6.835204	16.990746	70	70	92
-64.325294	-6.821826	17.543047	80	75	102
-63.712929	-6.806577	18.168177	78	77	97
-63.104572	-6.792813	18.735315	80	74	94
-62.499527	-6.780223	19.256670	75	75	97
-61.893787	-6.765956	19.843241	80	78	98
-61.291054	-6.752685	20.390955	73	71	89
-61.090809	-6.748501	20.564142	74	71	87
-60.492489	-6.737110	21.038469	77	77	98
-60.095207	-6.730217	21.327326	78	79	98
-59.499332	-6.718955	21.796532	76	74	93
-59.102306	-6.710932	22.129335	80	79	99
-58.115551	-6.693886	22.843895	77	77	88
-57.918278	-6.690116	23.000860	73	72	84
-57.523735	-6.682069	23.334446	76	75	98
-57.326939	-6.678297	23.491480	77	77	97
-57.130558	-6.674824	23.636820	75	77	98
-56.934471	-6.671527	23.775291	72	75	96
-55.760277	-6.651001	24.634995	77	74	93
-54.785839	-6.634142	25.341637	78	74	93
-53.816490	-6.620165	25.935921	80	79	97
-53.622883	-6.617202	26.061274	80	80	99
-53.042736	-6.608165	26.443092	80	76	94
-52.656609	-6.602149	26.697233	76	71	90
-52.271172	-6.596611	26.932789	74	72	89
-52.078716	-6.594070	27.041670	71	69	87
-51.694031	-6.588699	27.270658	77	74	97
-51.501724	-6.585609	27.400871	80	78	103
-51.309498	-6.582353	27.537580	84	83	105
-51.117420	-6.579140	27.672571	86	83	107
-50.925529	-6.576139	27.799328	87	86	114
-50.350826	-6.568133	28.140726	87	82	107
-50.159451	-6.565298	28.261009	86	82	105
-49.968163	-6.562288	28.388069	84	83	104
-49.586025	-6.556677	28.626286	87	84	105
-49.395187	-6.554345	28.726938	85	84	106
-49.013813	-6.549706	28.927299	82	79	104
-48.823257	-6.547092	29.038902	80	76	95
-48.252254	-6.539661	29.357758	65	64	74
-48.062126	-6.537498	29.451809	67	64	77
-47.872093	-6.535296	29.547384	72	68	85
-47.682163	-6.532943	29.648817	77	73	91
-47.302647	-6.527766	29.870003	84	81	105
-47.113060	-6.525092	29.983925	86	85	108
-46.923576	-6.522500	30.094614	89	86	110
-46.544849	-6.517852	30.295176	91	89	111
-45.977375	-6.511466	30.573189	86	84	113
-45.599472	-6.507383	30.751730	83	82	104
-45.410568	-6.505647	30.829115	82	79	100
-44.844185	-6.500826	31.046186	79	76	91
-44.655712	-6.498726	31.137709	79	73	91
-44.467487	-6.496208	31.245474	79	74	100
-44.091557	-6.490682	31.480051	87	86	110
-43.527599	-6.484382	31.754520	87	84	107
-43.152077	-6.480186	31.937313	88	85	110
-42.964691	-6.477633	32.046432	86	87	112
-42.402840	-6.470570	32.350479	84	82	104
-42.027859	-6.467322	32.496353	83	78	100
-41.652855	-6.464553	32.623642	82	79	101
-41.465538	-6.463038	32.692337	81	76	94
-41.091507	-6.459449	32.851429	73	69	83
-40.718029	-6.455549	33.022633	73	73	88
-40.531448	-6.453562	33.109673	78	76	97
-40.158459	-6.449692	33.279663	79	79	99
-39.971867	-6.448025	33.354214	79	77	96
-39.411739	-6.443920	33.543125	77	73	88
-39.225315	-6.442377	33.612869	72	70	84
-39.039265	-6.440506	33.695374	71	70	86
-38.668270	-6.435869	33.895073	74	70	91
-38.111233	-6.430173	34.145706	75	73	88
-37.925018	-6.428951	34.202923	75	74	90
-37.738914	-6.427676	34.262249	74	71	91
-37.367901	-6.424201	34.416767	77	74	93
-37.182877	-6.422135	34.506760	73	72	87
-36.812840	-6.418223	34.678253	74	69	87
-36.442848	-6.414559	34.840084	78	76	100
-36.257782	-6.412885	34.914864	76	74	97
-35.886322	-6.410778	35.016167	76	74	93
-35.700069	-6.410198	35.048454	79	73	94
-35.328800	-6.408164	35.146919	77	72	92
-35.144196	-6.406426	35.224136	76	72	89
-34.959923	-6.404499	35.308735	73	69	88
-34.036583	-6.397105	35.644485	78	72	93
-33.851540	-6.396024	35.696190	76	72	89
-33.482239	-6.393436	35.816120	73	71	84
-33.115131	-6.389574	35.985516	79	75	93
-32.931557	-6.387736	36.066574	79	73	88
-32.562550	-6.385384	36.177322	70	67	83
-32.192478	-6.383821	36.257385	73	71	94
-32.007496	-6.383047	36.297157	75	73	92
-31.452900	-6.380651	36.419250	72	71	88
-31.268490	-6.379637	36.468342	72	71	90
-30.900911	-6.376986	36.590633	78	77	92
-30.350889	-6.372519	36.793045	82	76	99
-30.167303	-6.371238	36.852470	82	79	101
-29.433699	-6.366034	37.093163	80	78	100
-29.067474	-6.363321	37.217793	77	78	97
-28.518105	-6.359499	37.395096	76	75	96
-28.334101	-6.358718	37.435078	76	75	97
-27.964895	-6.357797	37.490131	76	74	97
-27.413876	-6.355198	37.619961	74	71	89
-27.049894	-6.352006	37.763103	75	74	91
-26.684462	-6.349605	37.875565	73	72	89
-26.133015	-6.347657	37.980103	74	70	89
-25.766315	-6.346028	38.062588	71	71	85
-25.582920	-6.345260	38.102005	69	67	81
-24.847881	-6.342968	38.229507	71	74	93
-24.115017	-6.340002	38.383068	71	65	79
-23.932463	-6.339032	38.430302	68	65	83
-23.017288	-6.335395	38.619488	77	75	95
-22.835207	-6.334344	38.669865	74	71	88
-21.739056	-6.329784	38.904411	77	72	90
-21.555431	-6.329417	38.928249	78	74	94
-21.004562	-6.328368	38.997761	74	71	92
-20.640072	-6.326733	39.080368	74	71	91
-19.351757	-6.325729	39.186584	66	64	78
-19.169554	-6.324986	39.224983	61	59	74
-18.806522	-6.323082	39.317978	65	64	80
-18.258461	-6.321488	39.408535	72	71	90
-17.350666	-6.317239	39.621162	80	79	102
-16.793621	-6.318700	39.593338	82	76	95
-16.606726	-6.319559	39.569687	80	78	98
-16.235750	-6.320394	39.556545	79	75	98
-16.051991	-6.320283	39.570419	83	80	102
-14.777099	-6.316289	39.792236	73	71	89
-14.593914	-6.316064	39.810551	76	74	94
-14.231313	-6.314545	39.888535	76	70	86
-13.868516	-6.313127	39.962627	72	70	84
-13.316751	-6.313199	39.988571	69	64	81
-12.944986	-6.314348	39.963253	71	66	82
-12.759004	-6.314945	39.949696	70	66	84
-12.389714	-6.315401	39.951233	70	66	85
-12.021757	-6.315498	39.966618	72	68	83
-11.836840	-6.315803	39.964397	70	67	85
-11.466471	-6.316554	39.954479	70	69	87
-11.282182	-6.316691	39.958755	73	69	86
-10.914632	-6.316700	39.977566	74	72	92
-10.363597	-6.316658	40.007889	71	69	83
-9.621063	-6.318626	39.970047	71	69	89
-9.434257	-6.319409	39.949318	73	70	90
-9.066951	-6.319385	39.969418	73	71	90
-8.518556	-6.318737	40.023216	75	74	94
-7.781039	-6.319467	40.033257	78	74	96
-7.225795	-6.320527	40.020954	80	76	99
-5.926660	-6.323804	39.961136	71	69	85
-5.738932	-6.324759	39.933781	70	68	86
-5.365707	-6.326141	39.899460	73	73	92
-5.179860	-6.326653	39.889240	74	71	90
-4.810496	-6.327145	39.889347	73	70	87
-4.443233	-6.327168	39.907589	74	68	87
-4.259748	-6.327151	39.917831	72	68	84
-3.892553	-6.327173	39.936115	69	67	82
-3.517678	-6.328887	39.888966	66	65	77
-2.565070	-6.336403	39.646229	81	74	91
-2.193405	-6.337343	39.629005	74	73	96
-2.007621	-6.337801	39.620876	74	73	90
-1.635635	-6.338801	39.601379	77	72	90
-1.449674	-6.339292	39.591984	76	71	89
-0.891144	-6.340888	39.559006	71	69	89
-0.515992	-6.342517	39.515137	77	70	88
-0.139862	-6.344331	39.464188	75	70	90
0.047727	-6.345134	39.442730	75	69	91
0.615765	-6.348579	39.338326	75	71	91
1.000716	-6.352092	39.221725	75	73	94
1.378095	-6.354062	39.164753	78	72	90
1.563281	-6.354348	39.163277	77	75	93
2.501527	-6.358164	39.063721	83	78	99
3.247843	-6.360338	39.018040	82	82	98
3.435382	-6.361059	38.999744	82	82	102
4.011324	-6.365715	38.848667	92	88	113
4.393297	-6.368402	38.764030	96	89	111
4.582688	-6.369437	38.733624	98	91	116
4.964902	-6.372128	38.648884	95	91	116
5.354471	-6.376140	38.513092	85	82	106
5.931468	-6.380733	38.364479	85	81	102
6.122983	-6.382099	38.321316	86	82	105
6.705981	-6.387671	38.134956	83	79	99
6.899744	-6.389405	38.077587	82	79	99
7.092622	-6.390972	38.026684	81	78	98
7.476352	-6.393721	37.939709	86	79	105
8.439814	-6.401192	37.699284	85	79	100
8.636722	-6.403395	37.623859	86	82	101
9.028606	-6.407430	37.487305	84	81	104
9.221436	-6.408895	37.440342	85	86	106
9.602654	-6.411046	37.376568	83	83	103
9.794368	-6.412301	37.337708	84	82	103
10.380091	-6.417817	37.153671	84	83	104
10.774884	-6.422167	37.004978	82	79	95
11.172313	-6.426911	36.841167	84	80	98
11.371090	-6.429274	36.759609	84	79	100
11.765183	-6.433389	36.620037	81	79	100
12.354383	-6.439164	36.426071	80	76	94
12.554021	-6.441597	36.341816	81	76	93
12.754986	-6.444233	36.249748	81	77	96
12.956022	-6.446867	36.157787	82	77	100
13.155873	-6.449294	36.073761	82	75	98
13.752975	-6.456108	35.839817	80	77	99
14.157687	-6.461649	35.645340	80	76	97
14.357454	-6.463987	35.564804	78	74	94
14.748443	-6.467278	35.457157	75	76	95
15.534754	-6.474441	35.219471	71	71	87
15.734313	-6.476673	35.143021	73	71	86
15.936062	-6.479234	35.053909	81	72	86
16.342886	-6.484829	34.857437	79	75	99
16.748411	-6.490169	34.670876	80	78	97
16.951754	-6.492906	34.574959	83	78	97
17.156389	-6.495827	34.472000	84	80	100
17.566139	-6.501697	34.264992	83	81	101
18.172880	-6.509206	34.004498	83	78	95
18.375771	-6.511781	33.914902	83	77	96
18.580845	-6.514669	33.813221	82	78	96
18.788345	-6.517905	33.698166	80	78	94
18.997513	-6.521371	33.574200	80	80	95
19.414654	-6.528077	33.335094	76	75	90
19.621235	-6.531111	33.227829	80	76	90
20.037893	-6.537646	32.995277	82	76	95
20.463537	-6.545427	32.714764	78	75	93
20.676052	-6.549244	32.577354	79	75	92
20.886982	-6.552812	32.449551	77	74	93
21.307714	-6.559732	32.202263	81	77	97
21.519508	-6.563372	32.071686	79	75	96
21.731886	-6.567078	31.938585	79	74	93
22.366228	-6.577691	31.558798	79	76	97
22.790970	-6.584941	31.298849	80	73	91
23.004749	-6.588739	31.162245	77	73	89
23.218191	-6.592472	31.028175	77	74	90
23.644669	-6.599825	30.764326	74	73	90
24.516743	-6.616974	30.142643	77	73	90
25.185471	-6.631639	29.606960	73	74	87
25.405453	-6.636079	29.445696	74	74	90
26.048386	-6.646956	29.056057	73	70	89
26.262903	-6.650577	28.926399	76	70	87
26.914572	-6.662431	28.499184	76	77	93
27.136036	-6.666916	28.336235	74	74	91
27.360903	-6.671837	28.156521	78	72	92
27.813339	-6.681971	27.785864	74	71	90
28.036175	-6.686553	27.619257	72	71	87
28.256577	-6.690789	27.465925	74	74	89
28.701200	-6.699709	27.142071	77	72	89
29.633595	-6.722955	26.286354	74	72	85
30.335129	-6.740400	25.644236	74	71	85
30.810369	-6.752874	25.183716	72	71	86
31.530874	-6.772355	24.463411	76	73	88
31.987665	-6.782187	24.104738	74	75	87
32.211582	-6.786499	23.948654	73	74	88
32.680130	-6.797695	23.537535	74	69	88
32.925430	-6.804651	23.279703	72	70	86
33.418697	-6.818806	22.754726	75	72	86
33.899914	-6.831324	22.292833	75	74	90
34.136986	-6.837099	22.080515	73	72	88
34.621735	-6.849894	21.608023	74	74	87
35.127335	-6.865161	21.040419	75	72	88
35.892403	-6.888632	20.167198	75	72	87
36.401382	-6.903979	19.596712	74	71	88
36.652222	-6.911156	19.330585	72	71	88
36.897938	-6.917676	19.089735	72	71	85
37.379185	-6.929396	18.658888	70	72	84
37.888973	-6.944467	18.099144	71	70	83
38.634537	-6.964536	17.357260	70	70	85
39.067444	-6.970105	17.163160	66	65	82
-72.769974	-7.270072	7.484667	55	54	66
-71.462669	-7.225183	9.265078	63	62	70
-71.027946	-7.209614	9.881618	60	59	67
-70.812065	-7.202313	10.171362	61	59	74
-70.596962	-7.195247	10.452121	66	62	78
-70.382149	-7.188186	10.732646	64	61	73
-70.167290	-7.180972	11.018993	60	59	69
-69.952370	-7.173586	11.311927	60	60	70
-69.737610	-7.166140	11.607157	59	57	66
-69.523369	-7.158806	11.898078	56	53	62
-69.310020	-7.151773	12.177448	55	53	63
-69.097816	-7.145188	12.439670	57	54	64
-68.676567	-7.133247	12.917037	61	58	72
-68.466766	-7.127525	13.146183	66	63	85
-68.047821	-7.116064	13.605111	77	73	90
-67.839043	-7.110525	13.827212	76	72	89
-67.630966	-7.105252	14.039137	76	71	87
-67.423523	-7.100206	14.242338	74	68	84
-67.216385	-7.095226	14.443028	71	67	80
-67.009209	-7.090108	14.648973	67	67	78
-66.801727	-7.084699	14.866062	66	67	83
-66.593925	-7.078988	15.094685	68	66	82
-66.386032	-7.073091	15.330451	69	67	84
-66.178337	-7.067173	15.566936	71	68	78
-65.764114	-7.055623	16.029039	66	64	78
-65.557831	-7.050138	16.248924	66	68	74
-65.147850	-7.040380	16.642382	67	64	81
-64.944061	-7.036067	16.817421	69	71	86
-64.536858	-7.027359	17.170626	77	77	94
-64.332878	-7.022587	17.363251	81	75	98
-63.924370	-7.012295	17.777002	74	75	89
-63.720303	-7.007069	17.986929	76	73	85
-63.313900	-6.997385	18.377346	74	70	84
-63.111713	-6.993052	18.553062	72	68	83
-62.506172	-6.980041	19.080679	72	69	85
-61.899704	-6.965130	19.680864	75	77	95
-60.697487	-6.939803	20.709110	78	76	99
-60.299309	-6.932398	21.012083	83	80	105
-59.703068	-6.921205	21.469845	76	73	94
-58.908569	-6.904706	22.140221	79	78	95
-58.710674	-6.900896	22.295801	82	78	96
-58.316353	-6.894303	22.567583	72	73	86
-57.725155	-6.883628	23.005260	68	66	86
-57.528042	-6.879697	23.165407	74	73	90
-57.134754	-6.872373	23.465096	73	73	88
-56.938557	-6.868973	23.604885	72	72	88
-56.350609	-6.858551	24.032742	70	65	80
-56.154835	-6.854980	24.179085	73	69	90
-55.568604	-6.844577	24.606102	76	72	90
-55.178440	-6.837578	24.893227	72	69	89
-54.594727	-6.827836	25.294905	77	75	95
-54.400639	-6.824951	25.414970	79	75	96
-53.819099	-6.816313	25.774364	79	75	93
-53.431843	-6.810250	26.025593	79	79	96
-53.238354	-6.807119	26.154980	79	77	93
-52.851814	-6.800976	26.409218	77	72	90
-52.658810	-6.798090	26.529255	75	70	88
-52.273293	-6.792645	26.756817	71	71	85
-51.888168	-6.787043	26.990295	70	66	81
-51.503246	-6.780623	27.255035	77	74	96
-50.926933	-6.771343	27.638708	88	85	109
-50.352005	-6.763244	27.977217	84	81	103
-49.777908	-6.753990	28.359795	86	83	101
-49.586845	-6.751278	28.473061	85	81	100
-49.205128	-6.746590	28.671535	81	80	97
-48.823769	-6.741379	28.889902	81	76	96
-48.252544	-6.733920	29.203806	65	63	79
-47.682213	-6.727269	29.486794	75	69	85
-47.302532	-6.722037	29.705893	79	75	97
-47.112865	-6.719302	29.819998	83	82	102
-46.733822	-6.714201	30.034075	88	84	108
-46.544403	-6.711964	30.129124	87	84	107
-46.355061	-6.709856	30.219282	86	82	107
-45.976650	-6.705586	30.401588	83	81	104
-45.409523	-6.699874	30.648581	80	78	97
-45.031635	-6.696742	30.787424	79	77	92
-44.090096	-6.684084	31.318686	85	81	104
-43.713936	-6.679650	31.507145	89	84	109
-43.525841	-6.677767	31.588615	88	86	109
-42.962929	-6.670405	31.898367	87	86	111
-42.588280	-6.665298	32.112484	84	80	105
-42.400784	-6.663321	32.197475	82	80	104
-41.463055	-6.655692	32.536579	80	78	96
-40.155552	-6.641907	33.129528	77	78	96
-39.968884	-6.640206	33.203979	77	73	91
-39.221870	-6.634616	33.455502	70	70	86
-38.664337	-6.628237	33.727448	75	72	90
-38.292992	-6.624092	33.904659	72	70	88
-37.179062	-6.613486	34.366375	68	68	83
-36.253284	-6.604317	34.763603	80	76	100
-35.323635	-6.599707	34.987022	75	73	89
-34.954697	-6.595888	35.151642	72	68	87
-34.770451	-6.593902	35.236862	73	70	86
-34.401421	-6.590507	35.385307	71	70	86
-34.216534	-6.589158	35.446239	75	72	89
-34.031406	-6.588021	35.499073	77	72	91
-33.846153	-6.587008	35.547180	74	70	87
-33.476715	-6.584353	35.667366	69	67	80
-33.292999	-6.582412	35.750870	71	69	87
-33.109543	-6.580351	35.838905	77	72	90
-32.741028	-6.577442	35.968765	73	70	87
-32.555683	-6.576748	36.004681	72	69	86
-32.370121	-6.576212	36.034622	71	69	89
-32.184742	-6.575582	36.068127	73	72	92
-31.999649	-6.574797	36.107544	75	72	89
-31.630089	-6.572918	36.198093	75	70	89
-31.261400	-6.570633	36.304161	71	71	88
-31.077581	-6.569228	36.367172	72	69	82
-30.710949	-6.565951	36.510952	81	74	92
-30.344166	-6.562921	36.645378	80	77	99
-30.160431	-6.561652	36.703190	80	77	98
-29.793203	-6.559074	36.820297	83	78	96
-29.426620	-6.556279	36.945709	77	77	95
-29.243347	-6.554923	37.006859	80	77	93
-28.877020	-6.552188	37.129932	78	76	94
-28.510155	-6.549851	37.237862	75	73	96
-28.325893	-6.549142	37.274338	76	76	99
-27.955996	-6.548456	37.319386	77	73	92
-27.587397	-6.547185	37.386696	76	71	90
-27.404581	-6.545861	37.446583	75	71	92
-27.040646	-6.542494	37.593655	75	75	89
-26.306684	-6.538944	37.766628	70	70	91
-25.940022	-6.537144	37.854069	76	74	89
-25.757023	-6.536125	37.902306	70	67	83
-25.573784	-6.535232	37.945717	67	65	80
-25.206375	-6.533911	38.014908	70	71	85
-24.838892	-6.532681	38.080597	68	71	87
-24.655361	-6.531998	38.116043	68	68	86
-24.471897	-6.531301	38.151985	67	68	81
-24.288622	-6.530541	38.190350	71	64	78
-23.922720	-6.528802	38.275387	69	65	87
-23.555885	-6.527511	38.343403	66	66	79
-23.371960	-6.527091	38.368805	66	66	80
-23.005424	-6.525760	38.438339	74	71	90
-22.823109	-6.524740	38.486549	77	70	88
-22.458923	-6.522584	38.587425	75	75	88
-22.093924	-6.520817	38.673496	77	79	97
-21.911083	-6.520089	38.710651	77	76	93
-21.544249	-6.519103	38.766975	77	71	92
-21.176462	-6.518512	38.808304	77	73	90
-20.993336	-6.517947	38.839199	75	70	87
-20.261530	-6.515550	38.968033	71	66	81
-19.891056	-6.516032	38.968536	75	70	90
-19.706047	-6.516193	38.971802	67	67	83
-18.975241	-6.513707	39.104019	61	62	76
-18.793392	-6.512825	39.146969	63	61	78
-18.610693	-6.512243	39.178478	71	69	88
-18.244040	-6.511530	39.224407	71	67	86
-17.880377	-6.509865	39.306526	69	65	81
-17.518442	-6.507692	39.407932	75	74	96
-17.335928	-6.507130	39.438702	77	75	98
-16.965456	-6.507772	39.433067	76	73	93
-16.778774	-6.508552	39.412815	78	72	92
-16.406902	-6.509626	39.390789	75	71	92
-16.037384	-6.509959	39.396931	80	79	99
-15.854026	-6.509695	39.416336	75	75	92
-15.490989	-6.508066	39.497059	73	67	83
-14.944728	-6.506224	39.595242	76	70	86
-14.398096	-6.504579	39.685902	76	71	87
-14.217113	-6.503689	39.729118	71	66	80
-14.035431	-6.503016	39.764099	67	62	76
-13.668165	-6.502825	39.790108	62	60	75
-13.297544	-6.503608	39.779110	71	66	83
-13.111804	-6.504120	39.769024	72	67	82
-12.741002	-6.504946	39.756390	70	67	81
-12.372590	-6.505103	39.769218	69	66	84
-12.188778	-6.505075	39.779644	70	66	82
-11.819395	-6.505511	39.781845	67	65	82
-11.448702	-6.506305	39.770435	71	69	88
-11.264004	-6.506525	39.771450	72	70	87
-10.894689	-6.506946	39.774212	75	74	91
-10.525616	-6.507306	39.779308	71	68	84
-10.342174	-6.507199	39.792732	72	68	82
-9.973962	-6.507343	39.806015	70	65	81
-9.600496	-6.508852	39.767445	71	67	83
-9.414512	-6.509408	39.755722	72	69	84
-9.048566	-6.508977	39.790817	71	68	86
-8.683784	-6.508272	39.836353	77	75	92
-8.499516	-6.508399	39.840878	79	76	94
-8.129925	-6.508921	39.839809	75	73	94
-7.760505	-6.509401	39.840302	78	74	95
-7.575130	-6.509806	39.834324	79	75	96
-7.205263	-6.510396	39.830654	78	74	96
-6.838679	-6.510194	39.857040	78	74	95
-6.655067	-6.510176	39.867126	76	75	91
-6.282734	-6.511362	39.840839	76	71	89
-6.093943	-6.512572	39.804245	74	69	88
-5.716372	-6.514967	39.732075	71	67	85
-5.342788	-6.516402	39.696342	74	71	90
-5.157057	-6.516868	39.688015	72	70	88
-4.787939	-6.517257	39.692001	73	70	86
-4.420310	-6.517309	39.708755	72	66	83
-4.236426	-6.517354	39.716412	72	66	84
-3.868584	-6.517467	39.730850	68	67	81
-3.493283	-6.519253	39.681812	64	64	77
-3.108330	-6.523157	39.552410	65	62	78
-2.916901	-6.524858	39.497253	67	64	81
-2.727995	-6.525992	39.463562	74	68	85
-2.355656	-6.527049	39.442204	72	71	94
-1.983898	-6.527972	39.425911	76	71	90
-1.797428	-6.528559	39.413021	77	75	90
-1.424542	-6.529714	39.387936	71	68	88
-1.051631	-6.530866	39.363003	71	70	87
-0.864707	-6.531537	39.346916	75	69	87
-0.489429	-6.533170	39.303707	78	68	88
-0.301684	-6.534002	39.281494	74	69	90
0.072644	-6.535414	39.246685	75	70	92
0.450461	-6.537531	39.185146	73	69	85
0.642849	-6.539293	39.127693	75	71	91
1.777763	-6.545749	38.939087	75	72	93
2.152993	-6.547244	38.901157	80	75	94
2.530285	-6.549132	38.848309	82	74	96
2.904283	-6.550356	38.820660	79	76	95
3.090128	-6.550739	38.815506	81	78	94
3.465502	-6.552217	38.778210	80	80	100
3.656780	-6.553646	38.733444	86	83	104
3.849726	-6.555387	38.676819	89	85	111
4.042826	-6.557147	38.619465	88	87	112
4.425616	-6.559987	38.530556	86	82	103
4.615840	-6.561173	38.494976	88	81	102
5.195184	-6.566323	38.327919	87	83	109
5.584671	-6.570315	38.195377	84	81	104
5.966382	-6.572819	38.119221	85	82	103
6.157270	-6.574068	38.081287	86	82	106
6.544317	-6.577513	37.969524	84	82	103
6.738530	-6.579346	37.909424	83	81	102
7.702895	-6.587158	37.660374	87	82	107
8.088282	-6.590160	37.565418	84	79	100
8.282125	-6.591854	37.510643	82	80	99
8.673020	-6.595782	37.380615	85	81	99
8.869544	-6.597919	37.309040	82	80	100
9.451367	-6.602908	37.148270	86	84	104
9.642138	-6.604001	37.116257	86	83	105
9.833790	-6.605242	37.078648	87	82	106
10.223411	-6.608795	36.962864	83	80	107
10.420734	-6.610990	36.889145	82	79	104
10.817657	-6.615732	36.728348	81	78	98
11.416101	-6.623266	36.471252	84	79	98
11.810972	-6.627532	36.328526	83	80	99
12.006001	-6.629244	36.273087	80	78	98
12.398198	-6.632999	36.149719	80	76	95
13.002250	-6.641162	35.868893	81	78	99
13.203357	-6.643814	35.777927	79	73	96
13.402708	-6.646163	35.698406	80	73	94
13.601594	-6.648424	35.622242	79	76	97
13.801538	-6.650845	35.539997	79	77	98
14.600880	-6.660335	35.218452	78	73	96
14.990695	-6.663427	35.120281	73	74	92
15.186343	-6.665081	35.067135	71	72	90
15.382968	-6.666882	35.008404	71	70	91
15.581124	-6.668918	34.940796	72	71	88
16.185425	-6.676512	34.681667	79	75	97
16.792191	-6.684377	34.412361	80	78	97
17.617346	-6.697170	33.966049	82	79	100
17.821878	-6.700057	33.866272	80	78	98
18.024668	-6.702661	33.777172	81	76	96
18.842485	-6.713963	33.387424	78	78	93
19.262983	-6.721279	33.129539	76	76	90
19.888836	-6.731383	32.775726	78	74	92
20.099535	-6.735028	32.647316	78	75	94
20.526058	-6.743025	32.363770	76	72	92
21.159525	-6.753940	31.979370	76	74	92
22.223009	-6.772896	31.309910	78	77	98
22.434275	-6.776424	31.185984	78	73	95
22.857208	-6.783487	30.937897	76	73	92
23.069054	-6.787048	30.812761	75	70	90
23.494743	-6.794404	30.553642	73	70	90
24.146496	-6.807183	30.099009	75	72	95
24.812651	-6.821808	29.574659	76	72	90
25.908409	-6.843700	28.794756	71	70	87
26.555223	-6.855120	28.391764	74	73	90
26.774410	-6.859385	28.240135	76	74	91
27.439627	-6.873106	27.750221	77	74	93
28.340525	-6.892992	27.036980	72	73	88
28.563025	-6.897538	26.874765	74	74	89
29.253635	-6.914149	26.275824	71	68	86
29.491039	-6.920597	26.041746	71	68	85
29.727266	-6.926858	25.814751	71	70	85
30.429930	-6.944674	25.170441	75	70	88
30.665648	-6.950756	24.950279	73	72	90
30.903322	-6.957067	24.721428	73	73	92
31.143354	-6.963660	24.481976	75	74	92
32.307751	-6.991533	23.477251	77	73	88
32.540878	-6.997065	23.277946	75	70	87
33.029198	-7.010900	22.774645	70	70	89
33.524906	-7.025561	22.240215	76	68	88
33.769978	-7.032486	21.988361	74	72	90
34.254650	-7.045546	21.514479	73	72	89
34.743919	-7.059073	21.022985	75	73	92
34.993122	-7.066371	20.757093	73	73	89
35.496422	-7.081487	20.205688	72	72	87
36.001774	-7.096727	19.649622	76	73	88
36.755516	-7.118805	18.845179	70	69	86
36.996552	-7.124831	18.627419	70	70	83
37.227901	-7.129631	18.455994	71	68	83
37.446190	-7.132793	18.346371	70	69	85
37.929806	-7.144875	17.909807	70	67	81
38.190731	-7.153227	17.604256	69	66	83
-71.039001	-7.414525	9.690785	55	54	68
-67.849449	-7.313924	13.620318	73	72	92
-66.186577	-7.268913	15.390265	64	63	75
-65.566231	-7.251800	16.062586	63	63	75
-64.951706	-7.237144	16.642546	70	68	85
-63.727955	-7.207931	17.798502	73	70	86
-63.119015	-7.193586	18.366508	69	67	82
-62.714939	-7.184721	18.718910	68	66	83
-62.512817	-7.180032	18.904730	68	65	83
-62.310543	-7.175089	19.100071	69	71	83
-61.906078	-7.164817	19.505249	76	75	93
-61.704445	-7.159919	19.698896	78	75	97
-61.503529	-7.155440	19.876776	78	75	93
-61.303261	-7.151342	20.040342	75	72	91
-61.103382	-7.147437	20.196705	73	72	85
-60.903660	-7.143530	20.353096	72	71	92
-60.704014	-7.139556	20.511993	79	78	103
-60.305161	-7.131584	20.830688	84	84	112
-60.106007	-7.127630	20.988817	84	83	104
-59.907024	-7.123688	21.146477	81	78	98
-59.509441	-7.115724	21.464796	77	75	96
-59.310688	-7.111556	21.630951	78	71	91
-58.913376	-7.102923	21.974308	75	74	93
-58.715233	-7.098865	22.136290	77	72	93
-58.517647	-7.095218	22.282824	77	75	99
-58.123642	-7.088702	22.546715	68	69	84
-57.926670	-7.085262	22.685482	69	66	82
-57.532448	-7.077603	22.992191	72	71	89
-57.138966	-7.070103	23.292917	72	70	88
-56.942631	-7.066574	23.434996	73	70	88
-56.746449	-7.063062	23.576418	71	68	85
-56.354359	-7.055846	23.866407	68	65	86
-55.572521	-7.042307	24.412865	78	75	97
-55.377388	-7.038903	24.550173	77	74	95
-55.182304	-7.035367	24.692436	79	73	95
-54.987335	-7.031795	24.836058	77	72	95
-54.598019	-7.024973	25.111143	77	76	99
-54.209576	-7.018729	25.364544	75	73	93
-54.015629	-7.015764	25.485373	76	71	90
-53.821827	-7.012841	25.604597	79	72	95
-53.628113	-7.009860	25.725965	80	76	95
-52.854099	-6.997141	26.241287	76	74	96
-52.468155	-6.991513	26.471491	75	73	94
-52.082619	-6.985763	26.706245	72	69	83
-51.697330	-6.979349	26.965858	73	72	91
-51.504848	-6.976053	27.098988	78	77	98
-50.928474	-6.967224	27.458672	84	84	105
-50.544910	-6.961762	27.682491	85	83	104
-50.161655	-6.955583	27.933214	82	80	98
-49.587730	-6.946513	28.301798	79	77	100
-49.015030	-6.939120	28.607452	78	75	95
-48.633705	-6.933534	28.835833	79	73	93
-48.443218	-6.930980	28.941061	73	69	89
-48.062550	-6.926443	29.130096	72	67	91
-47.872356	-6.924175	29.224592	74	67	86
-47.492283	-6.919168	29.431248	73	69	91
-46.733444	-6.908598	29.865242	86	84	109
-46.543941	-6.906348	29.959024	84	82	106
-46.165157	-6.902109	30.136801	78	75	95
-45.975906	-6.899959	30.226830	76	74	96
-45.408482	-6.894275	30.468197	80	75	99
-44.841660	-6.888944	30.696289	77	76	94
-44.276615	-6.880733	31.032244	75	74	90
-43.712204	-6.873367	31.336464	86	83	109
-43.524075	-6.871331	31.422157	88	86	109
-43.336155	-6.869032	31.517679	88	87	109
-42.773724	-6.860709	31.857719	85	83	107
-42.398567	-6.856506	32.033936	81	79	102
-42.210846	-6.854881	32.104233	82	79	99
-41.835495	-6.851813	32.237953	78	78	96
-41.647995	-6.850162	32.309200	79	76	98
-41.273636	-6.846225	32.475418	78	77	95
-41.086704	-6.844076	32.565296	78	75	91
-40.899796	-6.842020	32.651691	73	72	88
-40.525990	-6.838237	32.812126	75	74	94
-39.965763	-6.832709	33.047241	75	73	90
-39.405075	-6.828540	33.231503	74	72	91
-39.218433	-6.827003	33.298420	68	68	85
-38.846161	-6.823032	33.465820	70	67	81
-38.660435	-6.820740	33.561005	72	68	85
-38.102634	-6.815068	33.801430	69	70	87
-37.544769	-6.810151	34.013535	64	62	76
-37.359787	-6.807724	34.113754	65	63	77
-36.990337	-6.802670	34.321579	71	66	81
-36.805271	-6.800591	34.408726	77	73	93
-36.619934	-6.798829	34.484039	80	76	94
-36.248775	-6.795907	34.612099	83	78	103
-35.690166	-6.793451	34.732014	76	76	96
-35.134014	-6.789357	34.913200	71	71	85
-34.949535	-6.787385	34.996311	70	69	85
-34.580692	-6.783539	35.158859	67	65	77
-34.396061	-6.781865	35.230820	67	66	82
-33.655910	-6.776804	35.457451	68	67	81
-33.287746	-6.773197	35.611023	66	62	78
-33.103966	-6.771267	35.692505	70	65	84
-32.734341	-6.768932	35.798485	76	70	89
-32.548443	-6.768525	35.823021	73	71	87
-31.991774	-6.766754	35.917194	72	70	87
-31.438879	-6.762856	36.090866	73	72	86
-31.254978	-6.761388	36.155075	69	68	83
-30.887857	-6.758162	36.294285	67	64	74
-30.704588	-6.756440	36.367985	73	69	82
-29.603224	-6.747910	36.742668	76	74	87
-29.419693	-6.746590	36.801289	73	71	84
-29.052303	-6.744218	36.908501	72	69	89
-28.868746	-6.743003	36.963207	75	72	90
-28.316933	-6.740110	37.099182	76	75	95
-27.761679	-6.739138	37.163322	75	70	88
-27.213179	-6.734983	37.346443	75	75	93
-27.031204	-6.733243	37.420731	72	70	83
-26.664770	-6.731044	37.521442	65	62	77
-26.480509	-6.730469	37.552170	64	62	77
-25.930141	-6.727728	37.682388	72	72	84
-24.829792	-6.722589	37.929893	70	66	84
-24.646271	-6.721852	37.966686	70	67	85
-24.096161	-6.719543	38.080711	72	68	86
-23.544893	-6.717853	38.171543	64	64	77
-23.360512	-6.717571	38.191307	65	62	79
-22.993248	-6.716429	38.252460	71	67	83
-22.810717	-6.715435	38.298828	75	70	87
-21.532103	-6.709316	38.591980	76	70	90
-21.348028	-6.709042	38.611435	77	74	89
-20.981071	-6.708071	38.666153	74	70	84
-20.615759	-6.706535	38.741947	64	63	78
-18.962383	-6.703574	38.935452	67	64	83
-18.596273	-6.702551	38.992054	67	64	82
-17.684401	-6.699032	39.169472	71	71	87
-17.319864	-6.697637	39.239975	75	74	93
-16.948980	-6.698351	39.231697	72	70	88
-16.762854	-6.698929	39.219345	73	69	87
-16.392693	-6.699405	39.219990	68	65	86
-16.023287	-6.699645	39.229439	70	69	85
-15.839291	-6.699545	39.242340	69	67	85
-15.474838	-6.698261	39.308655	70	64	81
-15.111261	-6.696750	39.383461	73	68	79
-14.565073	-6.694816	39.483189	74	72	90
-14.202226	-6.693196	39.562027	69	64	78
-13.835006	-6.692914	39.590908	62	61	71
-13.649511	-6.693335	39.584427	64	64	79
-13.091385	-6.695061	39.547581	71	67	88
-12.538160	-6.695365	39.563808	69	68	81
-12.354702	-6.695200	39.579117	66	66	79
-11.987088	-6.695082	39.601929	63	61	76
-11.802020	-6.695379	39.600018	64	62	77
-11.245310	-6.696685	39.578850	70	67	85
-10.689152	-6.697829	39.563755	71	71	89
-10.504608	-6.697981	39.567268	70	67	82
-10.137087	-6.697871	39.589722	63	60	73
-9.952327	-6.698087	39.590866	63	61	73
-9.395164	-6.699492	39.566010	66	61	72
-8.846948	-6.698573	39.627838	72	71	88
-8.293611	-6.699006	39.639221	77	74	92
-8.108728	-6.699264	39.638798	75	73	92
-7.739163	-6.699730	39.639778	78	76	94
-7.553743	-6.700123	39.634308	79	75	94
-7.000291	-6.700603	39.643913	74	73	90
-6.447465	-6.700942	39.658829	72	69	86
-6.259601	-6.701927	39.631271	74	69	88
-5.880627	-6.704660	39.547779	68	68	81
-5.692132	-6.705775	39.515396	73	69	83
-5.133637	-6.707427	39.481369	71	68	85
-4.580827	-6.707733	39.497482	71	66	84
-4.396354	-6.707885	39.500988	71	68	85
-4.026672	-6.708363	39.501545	74	69	89
-3.841646	-6.708644	39.500229	67	66	80
-3.655310	-6.709226	39.487759	66	65	80
-3.083486	-6.713844	39.343189	67	65	81
-2.704301	-6.716419	39.265640	70	67	83
-2.145680	-6.717975	39.235203	72	71	89
-1.959121	-6.718567	39.222305	75	70	90
-1.585254	-6.719909	39.190697	71	69	86
-1.398568	-6.720521	39.177063	70	68	89
-1.024942	-6.721793	39.148045	69	69	85
-0.837388	-6.722584	39.127754	73	70	85
-0.274320	-6.725021	39.064541	74	69	89
0.286612	-6.726973	39.019390	75	72	92
0.477106	-6.728354	38.977127	74	68	85
0.865065	-6.732541	38.839584	74	70	90
1.058803	-6.734564	38.773438	75	71	88
1.436580	-6.736578	38.716793	74	72	89
1.621942	-6.736856	38.715649	77	69	89
2.183912	-6.738880	38.667858	77	73	91
2.747473	-6.741197	38.609146	76	72	91
3.307784	-6.742839	38.575577	80	76	94
3.497474	-6.743959	38.543064	82	81	99
4.076182	-6.749167	38.376778	91	90	115
4.651661	-6.753660	38.237122	84	81	101
5.231862	-6.758981	38.066666	84	82	109
5.812141	-6.764225	37.899082	85	82	107
6.385634	-6.768109	37.782158	87	83	104
6.579005	-6.769802	37.728352	85	82	104
6.964911	-6.773005	37.627567	82	79	97
7.157866	-6.774594	37.577652	81	79	101
7.545712	-6.778101	37.465561	83	82	103
7.740059	-6.779918	37.407173	87	85	101
8.320915	-6.784913	37.248981	87	81	103
8.905732	-6.790538	37.067337	82	78	97
9.491961	-6.796323	36.879787	84	81	102
10.071863	-6.800901	36.737183	85	80	103
10.863257	-6.810060	36.433437	81	79	101
11.262242	-6.815133	36.263229	82	78	98
11.461931	-6.817682	36.177647	83	80	97
11.856590	-6.821931	36.038101	83	78	96
12.442532	-6.827194	35.870098	80	76	95
12.642506	-6.829720	35.785446	80	76	98
13.048075	-6.835674	35.582523	81	77	97
13.249942	-6.838473	35.487690	81	74	95
13.849028	-6.845698	35.246807	80	77	96
14.250139	-6.850737	35.078011	76	74	92
14.449831	-6.853094	34.999649	80	72	93
15.039973	-6.858634	34.821476	74	72	89
15.631092	-6.864250	34.640488	75	69	85
16.233816	-6.871646	34.393391	77	71	90
17.464684	-6.890114	33.762703	80	77	96
18.081680	-6.899381	33.446190	81	75	92
18.693319	-6.907677	33.165806	80	76	92
19.535070	-6.922570	32.649658	77	73	90
20.164711	-6.933289	32.279373	76	76	91
20.588863	-6.941010	32.011173	76	72	92
20.800411	-6.944762	31.881121	78	72	93
21.650290	-6.960134	31.347416	81	78	96
21.866570	-6.964497	31.194698	79	77	97
22.294525	-6.972476	30.917013	75	75	92
22.505739	-6.976028	30.794430	78	74	89
22.716133	-6.979443	30.676971	76	72	90
23.348747	-6.989796	30.320513	72	69	88
23.563580	-6.993792	30.181492	73	71	90
24.220552	-7.007467	29.701773	76	73	93
24.441584	-7.012276	29.532589	76	73	90
25.113504	-7.027825	28.983345	76	72	89
25.336433	-7.032810	28.807678	74	71	86
25.770485	-7.041030	28.521267	73	72	86
25.983686	-7.044569	28.399275	73	72	84
26.198151	-7.048270	28.271261	72	70	86
26.415882	-7.052415	28.126802	73	70	88
26.857685	-7.061535	27.807055	78	73	89
27.079056	-7.066129	27.645939	77	73	90
27.301380	-7.070834	27.480700	78	71	88
27.525606	-7.075782	27.306448	75	73	88
27.752224	-7.081038	27.120745	78	72	91
27.980000	-7.086432	26.930006	77	70	91
28.432528	-7.096725	26.566826	73	71	84
28.656031	-7.101456	26.400665	72	73	85
29.111565	-7.112020	26.027494	72	69	87
29.348536	-7.118521	25.795662	73	68	83
29.827473	-7.132112	25.310213	73	69	84
30.062950	-7.138319	25.089317	74	69	85
30.528803	-7.149961	24.676281	76	70	88
31.716866	-7.181725	23.545116	70	68	83
31.949230	-7.187294	23.348005	71	67	82
32.647736	-7.204038	22.755341	70	71	83
33.140827	-7.218678	22.231276	73	69	89
33.888344	-7.241420	21.416250	75	71	90
34.381748	-7.255772	20.903017	73	73	90
34.871784	-7.269561	20.410702	74	73	87
35.117325	-7.276477	20.163744	72	73	86
35.613972	-7.290933	19.646774	73	72	86
36.594254	-7.317811	18.688330	68	68	81
37.489845	-7.333556	18.142984	67	62	79
-72.141350	-7.660650	7.936667	66	65	75
-71.704208	-7.644384	8.556707	58	57	65
-71.486038	-7.636222	8.867750	56	53	65
-71.268059	-7.628005	9.180833	56	54	68
-70.403091	-7.597065	10.361806	61	59	72
-69.972038	-7.581435	10.958139	61	60	71
-69.756927	-7.573607	11.256763	60	58	67
-69.329575	-7.558988	11.815680	53	51	60
-69.117897	-7.552515	12.064281	54	52	61
-68.907425	-7.546555	12.293930	54	53	60
-68.697701	-7.540874	12.513227	54	52	58
-68.488182	-7.535185	12.732847	54	52	60
-67.860085	-7.517653	13.408792	66	64	84
-64.959442	-7.438454	16.465456	71	68	86
-62.519634	-7.380327	18.724003	66	62	76
-61.711376	-7.360199	19.504286	77	74	95
-59.713390	-7.318511	21.136236	78	76	95
-59.117252	-7.306117	21.621552	75	73	89
-58.918636	-7.301758	21.791677	73	73	87
-58.720356	-7.297574	21.955360	72	69	88
-58.522583	-7.293753	22.105644	74	73	92
-57.536831	-7.275656	22.819855	73	71	92
-57.143078	-7.267885	23.125120	70	68	83
-56.750359	-7.260658	23.410301	72	67	86
-56.358238	-7.253479	23.693707	72	70	91
-55.966942	-7.246661	23.963728	75	75	92
-55.771664	-7.243493	24.089869	79	76	95
-55.576527	-7.240348	24.215153	79	73	96
-54.796215	-7.226138	24.776310	76	74	91
-54.601395	-7.222435	24.922125	75	74	88
-54.212513	-7.215612	25.192207	75	73	87
-53.824623	-7.209663	25.430122	81	74	97
-53.437092	-7.203484	25.676504	77	75	97
-53.243362	-7.200088	25.810951	77	75	92
-53.049774	-7.196705	25.944912	73	72	90
-52.663261	-7.190577	26.189344	79	77	95
-52.470249	-7.187665	26.305925	78	75	93
-52.084427	-7.181458	26.553263	75	70	87
-51.506542	-7.171920	26.932537	80	77	95
-51.122128	-7.166355	27.156155	79	80	103
-50.930107	-7.163653	27.264963	80	80	101
-50.546307	-7.157869	27.496580	79	77	97
-50.162834	-7.151376	27.754313	77	72	90
-49.779896	-7.145051	28.005804	73	70	90
-49.588680	-7.142406	28.112488	74	74	94
-49.397598	-7.140011	28.209974	76	73	95
-49.015697	-7.134847	28.418730	75	70	89
-48.443604	-7.126345	28.759583	73	69	88
-48.062759	-7.121401	28.960165	78	74	98
-47.872486	-7.118959	29.059317	76	72	93
-47.302307	-7.111047	29.378397	83	77	99
-47.112465	-7.108318	29.488119	84	82	101
-46.922722	-7.105696	29.593893	84	82	103
-46.733059	-7.103240	29.693535	87	82	103
-46.543468	-7.100949	29.787140	84	80	101
-46.164520	-7.096603	29.965614	73	71	91
-45.975182	-7.094432	30.054771	72	69	88
-45.596703	-7.090337	30.223978	76	72	94
-45.407516	-7.088560	30.298645	78	71	95
-44.840519	-7.082878	30.535461	76	76	94
-44.463409	-7.077696	30.744598	76	70	86
-44.275105	-7.074857	30.858307	74	72	91
-44.086884	-7.072089	30.969374	77	79	98
-43.710453	-7.067297	31.164150	82	79	105
-43.522301	-7.065082	31.254862	84	83	103
-43.146633	-7.059894	31.464182	84	80	103
-42.959095	-7.057014	31.579306	84	79	103
-42.583912	-7.052103	31.778408	82	81	101
-42.396137	-7.050245	31.855978	80	78	98
-42.020599	-7.046901	31.997406	78	77	94
-41.832996	-7.045126	32.071884	77	75	94
-41.645576	-7.043182	32.152596	76	73	97
-41.271336	-7.038744	32.334213	78	75	94
-41.084366	-7.036508	32.425686	75	73	91
-40.710205	-7.032719	32.583393	76	72	91
-40.523106	-7.031011	32.655415	77	73	94
-39.775593	-7.023969	32.951122	73	70	93
-39.588596	-7.022574	33.011604	71	69	90
-39.215004	-7.019536	33.141670	71	69	87
-39.028625	-7.017649	33.220245	68	67	82
-38.284809	-7.009137	33.569862	70	69	90
-37.726040	-7.004566	33.765419	65	64	77
-36.986095	-6.994589	34.168781	69	64	81
-36.615505	-6.990695	34.330200	81	76	94
-36.244095	-6.987800	34.454918	80	78	99
-35.871849	-6.985821	34.545940	79	77	94
-35.129105	-6.980906	34.763145	68	69	80
-34.759678	-6.977194	34.917789	70	67	82
-34.390331	-6.973651	35.066231	64	64	82
-33.835445	-6.969370	35.250916	72	68	85
-32.913342	-6.961226	35.595737	74	71	88
-32.541229	-6.960463	35.642010	75	72	90
-32.169090	-6.959780	35.685318	73	71	90
-31.432331	-6.953915	35.937187	72	70	84
-30.698294	-6.947030	36.226490	61	59	73
-30.331402	-6.943763	36.364628	70	71	90
-30.147675	-6.942352	36.425571	73	72	86
-29.596554	-6.938287	36.602119	72	68	81
-28.859701	-6.934397	36.781288	71	70	87
-28.675817	-6.933310	36.830296	70	71	91
-28.307323	-6.931590	36.911606	75	73	95
-27.936865	-6.930962	36.952824	70	71	87
-27.203444	-6.926126	37.166626	70	68	84
-26.470020	-6.921701	37.365356	65	61	78
-26.102797	-6.919868	37.450756	67	63	79
-25.920221	-6.918499	37.510052	68	67	82
-25.554926	-6.915910	37.623226	69	67	83
-25.187912	-6.914196	37.704212	72	67	84
-24.820229	-6.912852	37.771667	67	61	78
-24.636677	-6.912076	37.809216	70	65	81
-24.269894	-6.910432	37.887638	71	69	85
-23.718128	-6.908766	37.975910	64	63	81
-23.348642	-6.908403	38.007328	67	63	82
-23.164335	-6.908052	38.029263	73	69	89
-22.798271	-6.906336	38.110306	75	69	86
-22.252184	-6.902684	38.271420	74	69	88
-21.702887	-6.900476	38.379559	72	68	84
-21.518785	-6.900156	38.400311	73	66	84
-21.150810	-6.899456	38.444050	70	72	84
-20.784773	-6.898059	38.513374	67	67	83
-20.417719	-6.897092	38.566891	63	61	75
-19.863621	-6.897003	38.597240	71	67	83
-19.679403	-6.896807	38.613472	72	70	84
-19.313276	-6.895606	38.675575	70	68	86
-19.131294	-6.894637	38.720139	70	69	81
-18.949198	-6.893723	38.762650	69	67	85
-18.581556	-6.893148	38.801796	70	67	90
-18.030294	-6.892269	38.861099	70	70	83
-17.849352	-6.891031	38.915485	70	67	80
-17.486629	-6.888893	39.011929	69	67	84
-17.302961	-6.888620	39.030941	71	71	85
-16.193512	-6.889528	39.051762	66	63	77
-15.641801	-6.889044	39.096546	68	68	81
-15.459433	-6.888407	39.128887	67	64	78
-14.912909	-6.886378	39.230263	66	64	80
-14.368241	-6.883876	39.348984	70	67	81
-14.185576	-6.883403	39.375309	69	65	79
-13.816017	-6.883755	39.380424	66	64	78
-13.629676	-6.884400	39.365799	67	66	83
-13.442970	-6.885149	39.347336	67	65	81
-13.071088	-6.886184	39.327442	70	68	89
-12.519641	-6.885869	39.366016	67	65	79
-12.336604	-6.885547	39.386806	65	64	77
-11.969560	-6.885199	39.417557	60	58	71
-11.784466	-6.885478	39.416317	61	58	70
-11.225990	-6.887211	39.379841	67	65	82
-10.668969	-6.888517	39.359001	69	69	85
-10.116059	-6.888692	39.379559	60	56	68
-9.931461	-6.888835	39.383335	59	59	72
-9.561375	-6.889363	39.381992	59	58	68
-9.376818	-6.889498	39.386059	61	59	70
-8.825995	-6.889161	39.425369	71	69	86
-8.271399	-6.889836	39.427631	72	71	89
-8.086486	-6.890074	39.427902	75	73	92
-7.716743	-6.890531	39.429161	76	74	91
-7.531242	-6.890921	39.423904	79	74	92
-6.976901	-6.891540	39.428192	72	70	86
-6.422020	-6.892300	39.427353	69	69	89
-6.233733	-6.893375	39.396999	72	69	87
-5.854942	-6.896046	39.317207	69	68	84
-5.666907	-6.897037	39.289932	71	67	82
-5.294709	-6.898065	39.270290	71	66	85
-5.109623	-6.898332	39.269489	70	67	84
-4.556177	-6.898706	39.282791	72	69	83
-3.998591	-6.900062	39.260136	72	70	90
-3.812413	-6.900585	39.249992	68	67	83
-3.437944	-6.902114	39.212002	68	63	78
-3.248471	-6.903389	39.174332	68	65	81
-2.868539	-6.906141	39.091633	69	66	82
-1.558736	-6.911062	38.974552	70	68	85
-1.372102	-6.911645	38.962204	70	66	87
-0.809751	-6.913918	38.906052	70	68	84
-0.245979	-6.916465	38.839851	73	68	87
0.698155	-6.921585	38.697582	75	70	89
1.086667	-6.925883	38.558380	74	70	87
1.839333	-6.929255	38.471035	73	69	88
2.404222	-6.931823	38.404167	76	71	88
2.778896	-6.933122	38.374653	75	70	91
3.341350	-6.935142	38.327824	75	73	90
3.531215	-6.936288	38.294922	79	78	96
3.722846	-6.937781	38.249313	85	86	108
4.110343	-6.941586	38.128231	88	87	107
4.304411	-6.943534	38.066010	87	85	103
4.689033	-6.946705	37.968117	83	81	100
5.074158	-6.949938	37.867950	86	81	104
5.848322	-6.957050	37.644043	85	81	106
6.423305	-6.961202	37.519348	86	83	102
6.808187	-6.964228	37.426765	83	79	99
7.192537	-6.967123	37.339043	81	80	103
7.778631	-6.973190	37.144375	88	88	106
7.973702	-6.975135	37.082317	89	86	107
8.359854	-6.978256	36.986324	86	83	105
8.552533	-6.979732	36.941448	85	81	102
8.746730	-6.981477	36.886684	87	80	103
8.942994	-6.983592	36.818462	84	79	100
9.337903	-6.988218	36.667511	80	79	102
10.120152	-6.995958	36.420868	84	78	101
10.515501	-7.000519	36.272331	81	81	104
10.713543	-7.002846	36.196369	82	81	105
11.508477	-7.012513	35.879448	81	78	99
11.706365	-7.014749	35.806839	80	78	98
11.902165	-7.016608	35.747952	81	77	97
12.096431	-7.018192	35.699173	80	75	95
12.290921	-7.019806	35.649261	79	77	95
12.687611	-7.024339	35.501835	81	78	100
12.890050	-7.027290	35.403103	80	79	104
13.495472	-7.035726	35.122227	78	75	98
13.695188	-7.038153	35.042679	80	76	97
13.894744	-7.040540	34.964577	81	74	98
14.094760	-7.042992	34.884109	77	76	95
14.694593	-7.050236	34.646828	75	71	95
15.090714	-7.054376	34.513794	73	70	87
15.288029	-7.056307	34.452366	73	71	89
15.684446	-7.060436	34.319809	76	72	91
15.884514	-7.062789	34.242954	78	72	91
16.285133	-7.067541	34.087662	75	71	90
16.684765	-7.072084	33.939987	76	73	93
16.888880	-7.075035	33.841366	76	76	98
17.097713	-7.078732	33.715500	78	78	96
17.731768	-7.090918	33.297997	81	75	93
17.938379	-7.094181	33.188007	79	74	92
18.142422	-7.097018	33.093552	78	74	92
18.345749	-7.099728	33.003777	79	73	94
18.758301	-7.106037	32.791729	76	73	94
18.968653	-7.109810	32.663162	76	75	93
19.180244	-7.113758	32.528210	77	75	91
19.391655	-7.117657	32.395035	78	75	91
19.812035	-7.125016	32.144733	79	73	95
20.021446	-7.128547	32.025017	76	74	94
20.230867	-7.132062	31.905893	77	75	91
20.861605	-7.142881	31.538527	76	71	94
21.072701	-7.146582	31.412645	77	74	93
21.500816	-7.154831	31.129957	76	75	92
21.937441	-7.164288	30.803244	80	75	98
22.154018	-7.168719	30.650753	79	75	98
22.367691	-7.172690	30.515041	74	73	93
22.998472	-7.182956	30.168051	73	71	91
23.209030	-7.186390	30.051968	75	71	90
23.858122	-7.199170	29.613346	75	72	94
24.078411	-7.203968	29.447523	75	74	94
24.520523	-7.213719	29.110239	75	72	94
24.743315	-7.218814	28.933634	74	72	91
25.191067	-7.229245	28.571602	72	70	91
25.412838	-7.234117	28.403137	71	70	88
25.631372	-7.238496	28.252645	71	69	86
25.847134	-7.242454	28.117540	73	70	87
26.500092	-7.255030	27.686611	73	73	91
26.722992	-7.259933	27.517021	75	71	91
27.169865	-7.269825	27.174835	74	74	92
27.393322	-7.274738	27.004913	79	71	91
28.074862	-7.290916	26.442802	74	68	88
28.755404	-7.306729	25.894089	71	70	86
30.168171	-7.344832	24.560816	72	70	87
31.579979	-7.381763	23.270622	71	68	88
32.765614	-7.413004	22.178766	71	67	85
34.013603	-7.451830	20.810791	75	76	88
35.230633	-7.485733	19.622520	70	71	85
36.418770	-7.515149	18.597965	67	65	82
37.104462	-7.528991	18.122040	64	62	76
-73.920509	-7.935693	5.167036	56	54	69
-73.703529	-7.929345	5.406940	61	59	74
-73.480896	-7.920340	5.743154	60	61	73
-73.257401	-7.910794	6.098969	60	60	74
-73.035118	-7.901642	6.440483	62	60	74
-72.814087	-7.892914	6.766628	63	61	73
-72.593422	-7.884207	7.091980	64	61	78
-72.372925	-7.875426	7.419999	65	63	78
