0.752823	-6.687951	66.289536	49	46	58
0.934747	-6.690279	66.216606	51	48	60
1.116420	-6.692541	66.145966	54	52	61
1.298452	-6.694863	66.073250	58	56	64
2.042070	-6.707147	65.678490	53	52	65
2.228889	-6.710355	65.575058	54	51	66
2.973018	-6.722363	65.189941	60	57	71
3.351625	-6.729551	64.956314	53	51	63
3.541088	-6.733144	64.839561	51	49	60
4.108289	-6.743560	64.501923	48	46	56
4.483909	-6.749912	64.297379	53	51	63
4.670215	-6.752769	64.206169	52	52	65
5.235032	-6.762370	63.896893	58	56	71
5.807993	-6.773345	63.539944	58	57	70
6.380874	-6.784114	63.190239	55	56	64
6.572874	-6.787857	63.068378	54	56	65
7.151115	-6.799370	62.692924	50	47	57
7.539986	-6.807557	62.424900	47	46	53
7.738904	-6.812439	62.263569	48	48	54
8.140283	-6.822764	61.921455	48	46	55
8.337314	-6.827216	61.775051	49	47	56
8.912439	-6.837541	61.440960	52	53	61
9.106236	-6.841320	61.317917	50	51	59
10.110456	-6.866142	60.497261	56	52	63
10.721687	-6.882232	59.963516	55	52	62
11.126697	-6.892377	59.627876	52	53	60
11.326281	-6.896899	59.479141	51	50	57
11.728323	-6.906366	59.167019	54	52	61
11.932974	-6.911687	58.990608	54	54	63
12.138903	-6.917200	58.807590	56	55	65
12.751842	-6.932729	58.293472	61	58	67
12.956602	-6.937926	58.121418	61	59	69
13.377625	-6.950181	57.712830	57	56	69
13.591527	-6.956831	57.490452	57	58	67
14.012539	-6.968884	57.088921	59	56	67
14.219544	-6.974277	56.910122	58	56	69
14.638345	-6.985773	56.527920	60	58	72
14.852836	-6.992320	56.309170	61	58	73
15.288106	-7.006346	55.839367	61	59	72
15.936619	-7.026391	55.169212	67	64	75
16.592207	-7.047270	54.470238	63	60	72
17.030235	-7.061166	54.005142	64	62	74
17.243284	-7.067100	53.807732	65	62	73
17.673964	-7.079610	53.390671	68	64	79
17.897663	-7.087152	53.137596	66	64	80
18.125374	-7.095294	52.863758	64	65	76
18.354336	-7.103592	52.584503	66	65	76
18.582554	-7.111730	52.310806	66	65	78
18.809925	-7.119693	52.043194	68	67	78
19.035921	-7.127398	51.784504	69	70	77
19.260647	-7.134866	51.534081	69	66	77
19.712046	-7.149992	51.026642	68	68	80
19.944065	-7.158483	50.740799	68	67	78
20.180355	-7.167595	50.433456	70	66	80
20.417458	-7.176787	50.123352	73	70	81
20.886030	-7.194166	49.538044	70	70	81
21.120728	-7.202853	49.245468	68	67	76
21.358948	-7.212038	48.935684	69	64	74
22.087151	-7.241383	47.944416	67	64	75
23.062582	-7.280518	46.622684	67	65	75
23.309731	-7.290677	46.279289	64	63	72
23.548422	-7.299518	45.981541	62	62	69
23.990770	-7.311841	45.571526	63	62	72
24.218348	-7.318913	45.335052	63	66	71
29.056396	-7.572638	36.697380	86	82	93
30.311205	-7.645911	34.196373	84	79	90
31.565479	-7.717759	31.745083	81	82	91
-74.627792	-7.644357	35.960499	49	47	56
-74.030373	-7.629630	36.493088	46	44	54
-72.329575	-7.537676	39.726875	52	50	61
-69.691574	-7.424524	43.730759	50	50	64
-68.700409	-7.386197	45.091335	52	52	61
-66.747032	-7.314693	47.634392	46	49	59
-66.167984	-7.294488	48.354210	51	50	60
-65.593452	-7.275763	49.023026	56	52	64
-65.403374	-7.270139	49.224678	57	54	67
-65.023987	-7.259004	49.624107	54	52	61
-64.834068	-7.253100	49.835361	52	51	65
-64.643913	-7.246908	50.056515	57	58	67
-64.264008	-7.234354	50.504658	57	55	67
-64.074615	-7.228232	50.723404	58	58	69
-63.696865	-7.216252	51.151764	62	61	76
-63.133175	-7.199254	51.760777	61	60	74
-62.946354	-7.194075	51.946995	60	60	72
-62.573833	-7.184146	52.304703	60	55	68
-62.387802	-7.179153	52.484520	59	58	69
-62.201813	-7.174057	52.667866	61	58	71
-62.015831	-7.168827	52.855808	61	58	72
-61.829922	-7.163508	53.046799	59	56	72
-61.644142	-7.158145	53.239323	60	59	73
-61.458576	-7.152798	53.431255	61	60	75
-61.273174	-7.147433	53.623825	61	61	73
-61.087906	-7.142021	53.818008	62	60	73
-60.718067	-7.131302	54.202690	60	59	74
-60.533890	-7.126334	54.381569	62	60	75
-60.350307	-7.121734	54.547768	61	62	77
-60.167171	-7.117383	54.705429	62	63	75
-59.984241	-7.113077	54.861504	59	60	75
-59.801392	-7.108706	55.019817	64	62	79
-59.436077	-7.099878	55.339363	61	59	76
-59.071606	-7.091259	55.651718	58	59	72
-58.889523	-7.086874	55.810501	59	58	71
-58.707436	-7.082323	55.974941	57	55	67
-58.343460	-7.072924	56.314075	57	59	71
-58.161835	-7.068346	56.479450	61	61	74
-57.799511	-7.059661	56.793953	60	61	73
-57.618679	-7.055429	56.947407	58	57	72
-57.438042	-7.051245	57.099190	56	56	67
-57.077477	-7.043187	57.392105	54	54	64
-56.897514	-7.039285	57.534199	53	51	66
-56.538010	-7.031478	57.818420	56	55	71
-56.358475	-7.027582	57.960281	58	58	69
-56.179089	-7.023696	58.101780	57	55	67
-55.641563	-7.011753	58.536098	63	60	73
-55.462650	-7.007735	58.682095	61	63	75
-55.105457	-7.000008	58.963493	67	64	81
-54.749187	-6.992871	59.224602	70	69	87
-54.571369	-6.989507	59.348103	73	73	87
-54.038910	-6.979882	59.702583	74	71	89
-53.861664	-6.976679	59.820530	71	70	89
-53.684456	-6.973336	59.943306	70	69	89
-53.330158	-6.966136	60.206482	72	70	89
-52.976376	-6.958928	60.469910	71	68	86
-52.623283	-6.952120	60.719563	72	70	88
-52.094772	-6.942455	61.075203	67	66	84
-51.743351	-6.937000	61.278336	72	69	85
-51.567848	-6.934436	61.374268	70	68	84
-51.041798	-6.926365	61.675083	67	66	84
-50.866627	-6.923607	61.777695	67	65	82
-50.341709	-6.915232	62.088909	67	66	82
-49.992218	-6.909280	62.309013	67	67	86
-49.643208	-6.903680	62.517002	73	73	92
-49.120472	-6.895369	62.825901	79	78	101
-48.424915	-6.884133	63.243042	80	77	98
-47.731003	-6.873065	63.654305	81	80	99
-47.384525	-6.869163	63.803913	74	75	96
-47.211365	-6.867548	63.867146	73	73	95
-46.519718	-6.858892	64.195526	74	75	93
-46.174484	-6.854056	64.377129	75	73	92
-46.001957	-6.851850	64.460648	75	75	94
-45.312649	-6.843127	64.791183	77	75	95
-44.968513	-6.838679	64.959435	76	75	96
-44.796555	-6.836508	65.041710	74	74	96
-44.110085	-6.826441	65.418282	78	75	101
-43.595791	-6.819824	65.668671	74	74	94
-43.080814	-6.816067	65.820877	76	74	94
-42.909370	-6.814591	65.879265	77	75	94
-42.396244	-6.808666	66.105835	73	75	95
-41.883259	-6.803605	66.302696	74	76	95
-41.712315	-6.802046	66.363930	75	77	96
-41.030308	-6.794146	66.665924	77	78	98
-40.689186	-6.790970	66.790314	76	78	98
-40.518478	-6.789703	66.841507	75	77	99
-39.835865	-6.784996	67.033897	80	76	98
-39.325024	-6.780757	67.202469	81	78	101
-38.814598	-6.776616	67.367661	78	79	96
-38.644470	-6.775338	67.419189	78	77	96
-38.474422	-6.774031	67.471741	78	75	100
-38.134628	-6.771269	67.581871	80	79	101
-37.625221	-6.767253	67.742706	80	79	103
-37.285942	-6.764521	67.851799	84	80	105
-36.946808	-6.761858	67.958527	82	84	104
-36.777222	-6.760612	68.008965	83	82	104
-36.099545	-6.755498	68.215073	81	78	100
-35.761036	-6.752923	68.318726	81	81	103
-35.422119	-6.750841	68.405487	75	78	98
-35.083305	-6.748815	68.490318	81	76	100
-34.575577	-6.745645	68.622055	79	77	101
-34.405617	-6.745186	68.645454	78	78	101
-34.235416	-6.744918	68.662331	79	79	100
-33.895817	-6.743848	68.714363	81	79	103
-33.726616	-6.742919	68.753883	82	80	107
-33.388565	-6.740904	68.838303	78	80	104
-33.219585	-6.739909	68.880096	81	80	101
-32.542980	-6.736648	69.022545	81	83	104
-32.034199	-6.735275	69.092606	81	79	102
-31.527714	-6.732634	69.206131	77	74	98
-31.359276	-6.731564	69.250458	77	75	99
-31.190727	-6.730586	69.291634	79	77	97
-30.852762	-6.729212	69.354027	80	81	100
-30.683332	-6.728814	69.375336	79	81	102
-30.006586	-6.726798	69.475044	77	76	96
-29.669952	-6.724918	69.554771	79	78	99
-29.331705	-6.723996	69.601669	81	82	104
-28.993408	-6.723152	69.645905	77	80	102
-28.825228	-6.722239	69.684830	78	78	103
-28.489801	-6.719991	69.777115	81	80	102
-28.321590	-6.719157	69.813324	85	84	107
-27.813570	-6.718457	69.860260	83	81	106
-27.643747	-6.718479	69.867165	79	81	99
-27.136295	-6.717595	69.920395	78	77	99
-26.632143	-6.715232	70.024239	81	80	103
-26.463428	-6.714787	70.047089	79	79	99
-25.954491	-6.714798	70.069672	79	79	97
-25.784370	-6.715024	70.069557	79	81	101
-25.444633	-6.715253	70.077011	85	84	102
-25.275331	-6.715120	70.089203	83	85	103
-24.769222	-6.713974	70.151360	82	83	104
-24.600931	-6.713434	70.177505	81	83	104
-24.263815	-6.712613	70.220894	85	86	108
-24.094269	-6.712633	70.227837	85	83	107
-23.583626	-6.713544	70.219582	89	87	108
-23.414246	-6.713503	70.228600	92	89	114
-23.077127	-6.712771	70.268944	86	87	111
-22.741241	-6.711579	70.325005	86	86	110
-22.572817	-6.711192	70.345894	83	84	108
-22.233431	-6.711434	70.352844	81	82	102
-21.893862	-6.711757	70.357086	85	85	104
-21.557516	-6.710854	70.403259	87	87	110
-21.220617	-6.710194	70.441078	85	82	105
-21.050272	-6.710586	70.435310	87	84	107
-20.707029	-6.712308	70.391632	81	77	100
-20.366955	-6.712843	70.388580	76	73	95
-20.030474	-6.712081	70.429909	79	79	100
-19.690243	-6.712688	70.424408	84	83	109
-19.347189	-6.714288	70.384941	83	80	101
-19.176769	-6.714690	70.378815	82	79	99
-18.668665	-6.714801	70.397919	74	75	94
-18.498198	-6.715219	70.391228	75	74	93
-17.986448	-6.716581	70.367523	76	74	91
-17.478924	-6.716525	70.392326	67	67	86
-17.309288	-6.716665	70.395180	68	66	84
-16.799444	-6.717393	70.393135	74	74	94
-16.629255	-6.717715	70.389763	72	73	90
-16.286179	-6.719217	70.353676	73	73	92
-16.114046	-6.720148	70.329460	75	73	90
-15.602717	-6.721317	70.312347	73	72	90
-15.431931	-6.721811	70.303085	69	69	84
-14.912802	-6.725351	70.204948	59	57	71
-14.397443	-6.727672	70.148506	63	62	77
-14.226068	-6.728311	70.134262	63	63	78
-13.712309	-6.730101	70.095970	69	69	88
-13.195269	-6.732817	70.026024	58	56	69
-13.021631	-6.734084	69.990341	55	52	65
-12.498939	-6.738337	69.867889	58	55	68
-11.981374	-6.741047	69.798141	59	58	75
-11.809441	-6.741774	69.780937	60	60	75
-11.292018	-6.744378	69.714867	62	62	79
-11.118764	-6.745449	69.685883	59	60	75
-10.771766	-6.747704	69.624107	53	53	65
-10.598744	-6.748690	69.598053	54	54	65
-9.905617	-6.752847	69.486542	57	59	74
-9.551368	-6.756917	69.362762	58	57	69
-9.375264	-6.758660	69.310860	56	57	68
-8.861307	-6.760083	69.285164	59	57	69
-8.689973	-6.760558	69.276588	55	53	68
-8.337336	-6.764059	69.172272	55	57	64
-8.158526	-6.766427	69.099030	58	58	69
-7.633052	-6.770662	68.977295	50	48	60
-7.111369	-6.773868	68.890755	50	50	61
-6.935431	-6.775430	68.845047	52	52	63
-6.402796	-6.781235	68.669731	54	54	65
-6.225778	-6.783014	68.616615	55	59	68
-5.872604	-6.786328	68.518768	56	59	68
-5.695271	-6.788148	68.464264	55	55	64
-4.624949	-6.800303	68.095184	48	49	59
-4.446202	-6.802365	68.032440	46	45	56
-4.087596	-6.806707	67.899521	48	45	60
-3.908288	-6.808857	67.833778	51	50	61
-3.377684	-6.813543	67.696785	51	51	62
-3.200269	-6.815211	67.647530	54	53	63
-2.840745	-6.819578	67.513779	60	62	75
-2.659907	-6.821983	67.439354	60	60	75
-2.478690	-6.824458	67.362556	63	61	75
-2.115715	-6.829479	67.206528	58	57	70
-1.399467	-6.837189	66.974075	56	54	64
-0.861886	-6.842932	66.801125	50	50	60
-0.119489	-6.855925	66.388496	55	51	64
0.249982	-6.861927	66.199074	50	48	59
0.433281	-6.864594	66.115761	50	48	57
0.798469	-6.869581	65.960999	51	48	58
1.526224	-6.878825	65.676392	51	49	60
1.711369	-6.881766	65.583771	51	47	57
2.085789	-6.888443	65.371399	55	51	63
2.457669	-6.894517	65.179596	57	55	68
2.829502	-6.900508	64.990669	53	54	64
3.779580	-6.919263	64.389542	51	51	60
3.970259	-6.923077	64.267174	52	47	58
4.536471	-6.933234	63.943985	51	48	61
4.721455	-6.935841	63.862801	50	50	64
4.906542	-6.938454	63.781441	51	48	63
5.093618	-6.941439	63.687363	53	52	65
5.283219	-6.944899	63.577129	58	57	69
5.858171	-6.956341	63.210186	60	61	74
6.049117	-6.959974	63.094036	54	56	66
6.239944	-6.963564	62.979389	54	53	60
6.817324	-6.975137	62.608047	48	46	56
7.010765	-6.979136	62.479477	49	47	57
7.203500	-6.982978	62.356243	48	46	56
7.591297	-6.991032	62.097187	49	46	53
7.790062	-6.995934	61.937859	51	46	55
8.390606	-7.011255	61.438889	49	47	58
8.585465	-7.015321	61.308064	49	48	58
8.971204	-7.022654	61.073677	50	49	58
9.362295	-7.030881	60.808823	46	47	54
9.561120	-7.035556	60.657269	51	50	58
9.964318	-7.045830	60.322685	55	50	62
10.167595	-7.051226	60.146587	56	51	66
10.371153	-7.056642	59.969803	54	52	63
10.778562	-7.067436	59.617580	58	53	64
10.981469	-7.072645	59.447849	55	57	67
11.182654	-7.077520	59.289536	52	53	61
11.583328	-7.086891	58.985867	49	51	60
11.786923	-7.092111	58.815815	54	53	64
11.993230	-7.097778	58.630527	54	56	64
12.406830	-7.109192	58.257290	58	54	64
12.611478	-7.114478	58.085030	58	57	67
13.021213	-7.125040	57.740871	59	56	68
13.230975	-7.131122	57.541489	57	55	69
13.444606	-7.137836	57.320576	58	57	73
13.873253	-7.151394	56.874405	57	59	68
14.083771	-7.157469	56.675316	58	58	70
14.501595	-7.168977	56.299026	61	58	71
14.713303	-7.175158	56.096348	62	57	72
15.145301	-7.188865	55.645195	63	61	75
15.363515	-7.196036	55.408833	63	60	73
15.581042	-7.203053	55.177689	62	61	75
16.011162	-7.216157	54.747166	64	60	74
16.226892	-7.222769	54.529884	60	61	72
16.667477	-7.237394	54.047592	62	60	75
17.104824	-7.251336	53.588619	62	63	74
17.318720	-7.257471	53.387615	64	63	76
17.751026	-7.270382	52.963818	70	67	82
17.973822	-7.277866	52.716896	70	68	84
19.099501	-7.316591	51.438034	69	68	82
21.938229	-7.426929	47.777611	64	63	75
22.917688	-7.467371	46.433186	65	62	74
24.025591	-7.499149	45.392059	66	66	78
25.971636	-7.601314	41.972012	67	65	78
27.454596	-7.685906	39.134457	75	73	89
28.275541	-7.725630	37.807541	77	79	91
28.573673	-7.742321	37.247902	76	79	93
28.886536	-7.761079	36.617966	76	79	92
30.762770	-7.871663	32.905731	77	80	92
31.884361	-7.925312	31.114285	83	79	97
-74.845322	-7.843961	35.529171	47	47	56
-74.653534	-7.842313	35.593307	48	47	55
-72.985703	-7.767511	38.192886	49	47	58
-72.356628	-7.735319	39.307755	47	47	55
-72.151169	-7.726225	39.623890	48	49	58
-71.537796	-7.699492	40.553738	50	49	62
-71.131630	-7.682261	41.153519	49	50	58
-70.929741	-7.674016	41.440849	47	48	58
-70.524315	-7.656276	42.057800	51	50	60
-69.918007	-7.629442	42.990723	46	47	57
-69.717529	-7.621021	43.283936	50	49	62
-69.120682	-7.597259	44.112698	53	53	64
-68.724396	-7.581555	44.660488	53	51	60
-68.526413	-7.573574	44.938755	53	51	60
-68.131737	-7.557862	45.486736	49	51	60
-67.935150	-7.550198	45.754223	49	50	59
-67.543259	-7.535156	46.279488	46	46	54
-67.348183	-7.527908	46.532860	46	45	54
-67.153954	-7.521011	46.774311	48	48	56
-66.574554	-7.501424	47.461327	49	47	56
-65.996086	-7.481160	48.171169	51	49	62
-63.524658	-7.401181	50.981094	58	60	76
-62.402683	-7.369264	52.108440	54	54	65
-61.657440	-7.347206	52.886227	60	57	73
-61.101124	-7.331166	53.452412	59	58	72
-60.731194	-7.320489	53.829315	58	58	76
-60.546833	-7.315436	54.008083	60	59	78
-59.996685	-7.301990	54.486454	59	60	75
-59.447956	-7.288545	54.964691	61	59	76
-58.899780	-7.274232	55.472237	60	58	74
-58.171181	-7.255106	56.150261	57	57	72
-57.627506	-7.241924	56.619404	59	58	74
-57.086033	-7.229722	57.055378	57	57	69
-56.905941	-7.225793	57.196011	55	52	67
-56.545925	-7.217618	57.487976	54	54	69
-56.366100	-7.213485	57.635479	57	58	71
-55.827732	-7.201411	58.066998	56	56	73
-55.290737	-7.189480	58.493584	57	56	72
-55.112186	-7.185761	58.627068	58	58	76
-54.577671	-7.175185	59.007828	67	68	83
-54.222111	-7.168409	59.252346	67	69	85
-53.867062	-7.161681	59.495213	65	65	83
-53.334988	-7.150763	59.887424	65	65	81
-52.804321	-7.140409	60.260464	68	67	84
-52.627697	-7.137003	60.383282	68	66	82
-52.451153	-7.133492	60.509686	66	64	79
-52.098587	-7.126883	60.748413	64	61	77
-51.571316	-7.119142	61.033123	65	63	80
-51.395718	-7.116472	61.131016	65	61	80
-51.220154	-7.113569	61.236801	66	62	79
-51.044666	-7.110560	61.346172	63	60	78
-50.869293	-7.107585	61.454372	63	60	79
-50.518906	-7.101795	61.665390	65	61	77
-50.343853	-7.098832	61.773186	62	60	76
-49.644760	-7.087301	62.193436	67	66	83
-49.470257	-7.084511	62.295368	66	67	84
-49.295845	-7.081590	62.401699	68	70	87
-49.121525	-7.078575	62.511215	73	73	92
-48.947319	-7.075580	62.620071	74	74	94
-48.599236	-7.069811	62.830227	74	76	94
-48.425346	-7.066873	62.937141	74	74	95
-48.077892	-7.060707	63.160721	76	75	98
-47.904327	-7.057776	63.267334	79	76	98
-47.384075	-7.051371	63.506618	77	77	100
-47.210762	-7.049799	63.567364	78	77	100
-46.864403	-7.046002	63.710876	74	74	95
-46.691410	-7.043548	63.801407	74	73	94
-46.518539	-7.040902	63.898384	73	73	94
-46.173031	-7.035888	64.082947	72	71	90
-46.000359	-7.033645	64.166321	73	72	92
-45.655239	-7.029248	64.330063	75	74	96
-45.482819	-7.026983	64.414146	76	75	98
-45.310490	-7.024691	64.499184	76	74	97
-44.793995	-7.017849	64.753014	76	75	96
-44.450172	-7.013051	64.930237	75	76	97
-44.278496	-7.010381	65.028000	75	76	99
-44.106930	-7.007669	65.127129	76	72	99
-43.763710	-7.003145	65.295082	76	75	97
-43.591927	-7.001561	65.356178	75	74	96
-43.248207	-6.999099	65.454475	73	72	93
-42.904934	-6.996146	65.569366	78	75	94
-42.220577	-6.987624	65.887390	74	75	96
-42.049431	-6.985919	65.952545	75	75	95
-41.707111	-6.982875	66.070435	75	76	95
-41.365559	-6.979020	66.215698	76	74	97
-41.195080	-6.976816	66.297676	77	75	97
-41.024620	-6.974693	66.376884	77	76	97
-40.683369	-6.971245	66.508385	77	78	97
-40.512558	-6.969906	66.561172	79	78	101
-40.170853	-6.967536	66.656288	76	80	99
-39.829414	-6.965070	66.754646	78	77	98
-39.658863	-6.963723	66.807678	80	78	99
-39.488411	-6.962326	66.862396	82	78	99
-39.318008	-6.960927	66.917160	82	80	99
-38.636719	-6.955592	67.127396	79	78	100
-38.296337	-6.952981	67.230621	76	75	96
-38.126228	-6.951669	67.282433	79	78	97
-37.786140	-6.949074	67.385086	79	78	100
-37.446392	-6.946350	67.492104	79	78	100
-36.937241	-6.942196	67.654854	84	84	104
-36.767532	-6.940903	67.706024	85	83	104
-36.597874	-6.939610	67.757187	82	81	102
-36.258976	-6.936794	67.867256	81	78	103
-35.920471	-6.933831	67.982246	83	81	103
-35.581558	-6.931394	68.079521	78	80	99
-34.903183	-6.927406	68.244186	80	78	104
-34.564251	-6.925404	68.326744	80	76	100
-34.394115	-6.924955	68.349426	79	77	102
-34.053535	-6.924333	68.385498	81	78	100
-33.714542	-6.922628	68.458046	82	79	101
-33.545506	-6.921491	68.503914	80	79	100
-33.207634	-6.919168	68.597290	79	79	100
-32.869564	-6.917108	68.681793	81	81	103
-32.530270	-6.915968	68.735260	78	79	98
-32.020931	-6.914649	68.802315	78	79	101
-31.513762	-6.912108	68.910515	79	76	97
-31.345121	-6.911051	68.953667	76	76	97
-31.007811	-6.909033	69.036728	77	79	98
-30.669434	-6.907743	69.095230	79	80	103
-30.499832	-6.907366	69.115456	80	78	100
-30.161169	-6.906339	69.165131	77	77	96
-29.824009	-6.904522	69.241371	78	77	99
-29.486273	-6.903108	69.304039	80	81	101
-28.809805	-6.901017	69.404541	74	75	100
-28.474216	-6.898664	69.498825	80	79	99
-28.305872	-6.897811	69.535065	82	82	100
-27.457907	-6.896935	69.602142	77	81	100
-27.120075	-6.895968	69.649689	79	77	99
-26.783709	-6.894342	69.719490	77	79	100
-26.446386	-6.893237	69.771713	79	78	100
-26.106897	-6.893196	69.788078	79	77	97
-25.766575	-6.893559	69.790886	80	79	99
-25.596663	-6.893627	69.796074	81	81	100
-25.257816	-6.893332	69.821022	82	79	105
-24.919714	-6.892730	69.856293	86	82	104
-24.074490	-6.891349	69.940277	87	84	110
-23.563601	-6.892188	69.934540	91	88	109
-23.394150	-6.892113	69.944534	91	91	113
-22.888506	-6.890812	70.010826	84	85	106
-22.720142	-6.890321	70.034836	82	85	104
-22.381670	-6.890069	70.058281	84	82	104
-22.211519	-6.890316	70.057503	84	82	103
-21.704348	-6.889774	70.098206	83	83	106
-21.536741	-6.889041	70.130356	84	84	107
-21.028833	-6.888856	70.159058	85	79	106
-20.513809	-6.891367	70.097015	80	78	100
-20.344055	-6.891477	70.100822	77	76	99
-19.836721	-6.891112	70.135551	81	82	104
-19.665726	-6.891683	70.123825	81	78	103
-19.322998	-6.893079	70.091827	77	72	95
-19.152830	-6.893343	70.090446	75	71	91
-18.644459	-6.893387	70.111412	69	70	87
-18.473722	-6.893854	70.103203	72	69	85
-18.131424	-6.895063	70.077484	73	71	91
-17.960953	-6.895431	70.072624	70	69	85
-17.452312	-6.895590	70.089722	64	68	85
-17.282501	-6.895737	70.092270	67	66	84
-16.772146	-6.896487	70.089493	70	68	88
-16.259434	-6.898003	70.060951	69	70	88
-16.087610	-6.898799	70.041641	70	69	87
-15.575982	-6.899937	70.025848	68	66	86
-15.404955	-6.900466	70.015518	67	64	82
-15.232452	-6.901457	69.989693	64	62	76
-14.885413	-6.904049	69.917496	60	58	73
-14.540780	-6.905859	69.871635	59	60	75
-14.197680	-6.907175	69.842346	63	60	78
-14.026196	-6.907807	69.828575	63	62	78
-13.683367	-6.909019	69.802803	64	65	83
-13.339144	-6.910633	69.763535	56	56	71
-12.991966	-6.913095	69.695709	53	51	62
-12.642455	-6.916203	69.606239	54	52	62
-11.777660	-6.921199	69.475723	58	61	72
-11.261279	-6.923415	69.423737	59	60	75
-10.740079	-6.926928	69.328140	52	50	64
-10.566341	-6.928083	69.296791	56	54	68
-10.220692	-6.929872	69.251678	58	55	71
-10.047363	-6.930894	69.224800	57	55	70
-9.695229	-6.934400	69.122009	56	54	68
-9.341019	-6.938407	69.002319	57	55	69
-8.996655	-6.939743	68.972450	54	53	68
-8.827223	-6.939679	68.982086	56	55	70
-8.304705	-6.943213	68.885841	55	52	63
-8.126394	-6.945450	68.818176	57	51	63
-7.774489	-6.948660	68.725327	54	51	64
-7.600697	-6.949695	68.698082	54	51	64
-7.252259	-6.951962	68.636948	52	50	64
-6.899769	-6.955221	68.542450	53	52	65
-6.542963	-6.959517	68.413177	50	50	63
-5.835930	-6.966306	68.215164	53	55	64
-5.659432	-6.967911	68.168770	51	52	61
-5.302830	-6.971966	68.047600	48	50	59
-5.123698	-6.974174	67.980957	49	49	58
-4.765662	-6.978489	67.851051	47	48	59
-4.046650	-6.987641	67.573799	49	47	60
-3.866454	-6.989995	67.502281	55	53	64
-3.512051	-6.993253	67.407928	52	53	66
-3.336667	-6.994442	67.375504	50	49	62
-2.981563	-6.997804	67.277672	59	59	71
-2.257005	-7.007672	66.976471	64	62	75
-2.074799	-7.010341	66.894417	61	60	72
-1.893246	-7.012844	66.817917	59	58	71
-1.712657	-7.015113	66.749268	59	58	72
-1.354380	-7.018959	66.635231	54	53	65
-1.176025	-7.020689	66.584686	52	51	63
-0.632640	-7.027652	66.373596	51	50	62
-0.447147	-7.030902	66.272026	49	49	60
-0.260482	-7.034388	66.162567	50	50	61
0.111818	-7.041068	65.953461	54	52	63
0.479703	-7.046708	65.779266	51	50	60
0.662764	-7.049312	65.699440	51	49	59
1.027565	-7.054188	65.550903	52	48	59
1.390327	-7.058571	65.418907	51	50	58
1.572925	-7.061001	65.344940	48	48	58
1.944087	-7.067068	65.156471	48	47	56
2.317359	-7.073500	64.955765	55	52	65
2.502882	-7.076455	64.864189	54	53	65
3.065055	-7.086365	64.554398	45	45	53
3.446056	-7.094142	64.308624	51	50	60
4.019904	-7.106104	63.930061	51	48	60
4.401107	-7.113683	63.690979	51	49	61
4.588258	-7.116746	63.595806	49	48	59
4.956996	-7.121711	63.444443	52	48	63
5.332130	-7.127885	63.252556	55	53	63
5.523777	-7.131749	63.130539	57	54	65
5.908196	-7.139629	62.881428	56	59	71
6.290223	-7.146951	62.651081	49	48	56
6.482132	-7.150753	62.531155	51	49	58
6.869985	-7.159070	62.267448	48	45	56
7.447963	-7.170639	61.902359	47	45	53
7.642283	-7.174767	61.771553	50	46	54
8.045256	-7.185666	61.421341	50	49	58
8.248082	-7.191320	61.239361	49	49	60
8.836917	-7.204414	60.823242	48	45	54
9.031636	-7.208438	60.695957	48	45	55
9.227441	-7.212641	60.562675	46	47	55
10.024037	-7.231678	59.955059	55	53	65
10.430688	-7.242562	59.605503	54	51	61
10.634131	-7.247980	59.431553	55	53	62
11.040373	-7.258607	59.090630	54	55	64
11.441038	-7.268114	58.787319	52	47	59
12.469940	-7.296261	57.882339	54	51	58
12.675300	-7.301723	57.706951	56	52	60
12.880028	-7.307045	57.536297	58	56	64
16.302654	-7.413225	54.102116	59	58	69
19.623856	-7.523230	50.534279	66	62	74
19.865580	-7.533550	50.196472	67	65	75
20.359373	-7.555696	49.470474	59	56	65
20.605633	-7.566583	49.113728	57	53	61
21.082409	-7.585682	48.489876	60	57	69
21.548981	-7.602972	47.926678	65	64	73
22.525272	-7.643816	46.590572	66	63	75
23.263424	-7.674850	45.575291	58	57	65
23.491543	-7.682304	45.333630	59	61	66
23.692327	-7.685485	45.235115	61	61	67
23.877090	-7.686172	45.220093	64	66	71
27.000095	-7.857799	39.562664	69	69	78
27.547556	-7.884989	38.668716	73	70	83
27.813957	-7.897392	38.261658	75	74	83
28.075848	-7.909064	37.879089	77	77	84
28.333548	-7.920058	37.519230	79	78	87
30.843735	-8.071664	32.510818	77	79	87
-72.171440	-7.920996	39.308979	42	43	47
-71.772186	-7.907834	39.763523	44	46	54
-71.568115	-7.898923	40.068382	46	49	54
-71.364204	-7.889946	40.375412	46	46	51
-71.161430	-7.881380	40.668774	44	45	53
-70.958878	-7.872780	40.963223	44	45	53
-70.551994	-7.854241	41.596722	47	47	57
-70.348701	-7.844805	41.918999	48	47	59
-70.146286	-7.835661	42.231541	48	47	57
-69.944733	-7.826805	42.534470	47	48	57
-69.743881	-7.818160	42.830368	48	47	56
-69.344398	-7.801587	43.398216	51	51	57
-69.145569	-7.793567	43.673256	52	52	59
-68.947083	-7.785587	43.946957	51	50	60
-68.550896	-7.769606	44.495010	52	49	57
-68.353249	-7.761644	44.768063	50	50	58
-67.959015	-7.745856	45.309601	50	51	57
-67.762413	-7.738026	45.578259	48	48	52
-67.566254	-7.730301	45.843369	44	44	49
-67.370773	-7.722823	46.100266	42	43	50
-66.789040	-7.702299	46.807289	49	48	61
-66.595688	-7.695513	47.041092	49	46	59
-66.208992	-7.681521	47.522655	48	47	60
-66.016403	-7.674780	47.754910	53	50	61
-65.633698	-7.662432	48.181717	52	53	65
-65.443176	-7.656591	48.383999	52	52	64
-65.062393	-7.644689	48.795883	52	53	60
-64.871643	-7.638296	49.016521	49	48	55
-64.489532	-7.624647	49.486500	44	43	49
-64.298836	-7.617831	49.721188	43	42	49
-64.108765	-7.611287	49.946819	43	41	50
-63.919308	-7.605025	50.163063	45	42	53
-63.730400	-7.598997	50.371506	46	45	59
-62.978687	-7.576290	51.158394	56	57	69
-62.791515	-7.570818	51.348274	55	55	69
-62.417290	-7.559530	51.739471	50	53	61
-62.043613	-7.548065	52.136547	49	50	58
-61.857185	-7.542426	52.331955	53	54	70
-61.671097	-7.536905	52.523418	57	56	70
-61.485397	-7.531554	52.709217	54	55	62
-61.300045	-7.526337	52.890553	52	53	65
-60.560299	-7.505367	53.619247	57	57	73
-59.826149	-7.486963	54.262424	59	57	71
-59.276604	-7.472570	54.764385	60	55	71
-58.727459	-7.457043	55.303970	55	55	67
-57.999321	-7.438099	55.964859	58	57	70
-56.554024	-7.404316	57.149738	54	54	67
-56.373936	-7.399981	57.301559	57	54	66
-55.297798	-7.375879	58.148857	57	56	72
-55.119175	-7.372250	58.277176	57	56	72
-54.940731	-7.368704	58.402702	59	60	74
-54.050247	-7.350727	59.038467	63	62	78
-53.872551	-7.347180	59.164017	62	60	80
-53.162815	-7.332557	59.680527	56	56	67
-52.632175	-7.322372	60.041878	64	61	76
-52.278831	-7.315119	60.298141	62	58	72
-52.102501	-7.311904	60.412582	61	57	72
-51.926456	-7.309196	60.510159	61	58	76
-51.750618	-7.306823	60.596626	64	62	82
-51.399086	-7.301689	60.782394	65	62	80
-50.872055	-7.292268	61.118225	61	59	77
-50.346058	-7.283039	61.447586	61	61	76
-49.995960	-7.277026	61.662518	62	58	78
-49.646343	-7.271454	61.862778	62	63	78
-49.122616	-7.262474	62.183804	69	68	86
-48.773987	-7.256423	62.399918	69	70	88
-48.425785	-7.250268	62.619461	68	70	89
-47.904301	-7.240878	62.953995	77	74	96
-47.383587	-7.234376	63.192547	79	80	102
-47.210129	-7.232656	63.257217	80	80	101
-46.517353	-7.223233	63.600288	74	73	98
-46.344429	-7.220558	63.696648	73	73	96
-46.171558	-7.218091	63.786057	72	72	93
-45.998737	-7.215819	63.869026	73	73	94
-45.308273	-7.206749	64.200272	77	73	97
-45.135883	-7.204412	64.285400	78	75	97
-44.791359	-7.199725	64.456024	75	76	93
-44.275379	-7.192226	64.727470	76	75	95
-44.103565	-7.189725	64.818016	75	73	96
-43.931725	-7.187513	64.898933	74	73	97
-43.587799	-7.184210	65.023575	74	73	94
-43.071991	-7.180058	65.183853	74	71	90
-42.900379	-7.178234	65.251900	76	74	93
-42.729015	-7.176064	65.331406	76	75	95
-42.557858	-7.173661	65.418663	76	74	94
-42.386784	-7.171253	65.506065	76	75	96
-41.873146	-7.165613	65.715706	76	75	94
-41.701878	-7.164046	65.775162	76	75	93
-41.359909	-7.160318	65.913826	74	73	96
-41.189232	-7.158143	65.993500	73	73	95
-40.847973	-7.153997	66.146011	74	76	95
-40.506329	-7.150803	66.266907	80	76	100
-39.993656	-7.146859	66.420143	75	79	98
-39.822880	-7.145530	66.471710	76	79	100
-39.652195	-7.144151	66.524910	80	79	102
-39.311020	-7.141350	66.632751	80	80	98
-38.969929	-7.138700	66.735588	77	76	100
-38.628967	-7.136136	66.835518	79	77	100
-38.117680	-7.132521	66.977776	76	77	98
-37.436920	-7.127413	67.176964	77	79	100
-37.097122	-7.124592	67.285416	80	81	101
-36.757446	-7.121857	67.390976	84	83	101
-36.418228	-7.118901	67.503891	81	80	100
-36.248856	-7.117289	67.564789	79	80	103
-35.740688	-7.112804	67.735794	81	80	100
-35.570969	-7.111678	67.780556	76	78	99
-35.231148	-7.109852	67.855942	78	76	97
-35.061432	-7.108829	67.897293	76	76	97
-34.722569	-7.106431	67.991608	80	77	102
-34.382568	-7.105050	68.052254	80	75	101
-33.364388	-7.100135	68.259659	79	76	98
-33.195377	-7.098921	68.307297	78	79	101
-32.857010	-7.096826	68.391571	80	79	101
-32.517296	-7.095750	68.442032	79	77	98
-32.177204	-7.094994	68.481911	78	78	100
-32.007507	-7.094407	68.508759	79	78	99
-31.668762	-7.092874	68.574348	81	78	100
-31.330734	-7.090976	68.652054	75	75	95
-31.161999	-7.089891	68.695404	76	76	95
-30.824347	-7.087910	68.775848	78	81	101
-30.655052	-7.087238	68.805504	80	80	104
-30.315977	-7.086233	68.853607	78	78	100
-30.146786	-7.085550	68.883636	74	78	96
-29.640400	-7.082931	68.992592	79	78	102
-29.471111	-7.082376	69.018349	80	81	100
-29.131683	-7.081782	69.052803	79	79	100
-28.962324	-7.081305	69.076004	77	78	100
-28.625608	-7.079312	69.156784	80	79	99
-28.289125	-7.077282	69.238800	79	77	98
-27.780382	-7.076469	69.287865	81	80	99
-27.610624	-7.076306	69.300629	80	79	99
-27.271820	-7.075644	69.337311	79	79	97
-27.102955	-7.075059	69.364059	77	77	96
-26.428219	-7.072500	69.478317	77	75	99
-25.917641	-7.072865	69.488327	80	79	98
-25.239489	-7.072180	69.540497	81	80	106
-24.901138	-7.071547	69.576180	82	81	104
-24.562595	-7.071033	69.607918	81	82	105
-24.393459	-7.070727	69.625412	85	84	109
-24.054583	-7.070404	69.650848	85	85	111
-23.713717	-7.070959	69.647186	84	83	110
-23.373764	-7.071126	69.656357	88	87	108
-23.035913	-7.070423	69.694359	81	81	104
-22.867207	-7.069993	69.715958	82	83	104
-22.528957	-7.069504	69.746880	79	80	101
-22.188889	-7.069777	69.752525	83	80	103
-21.850304	-7.069465	69.777588	82	81	100
-21.514513	-7.068070	69.838463	83	78	101
-21.346077	-7.067604	69.861275	79	77	98
-21.005398	-7.068171	69.857193	80	76	104
-20.661404	-7.070005	69.811180	79	78	101
-20.319773	-7.070915	69.795769	81	79	103
-19.980919	-7.070778	69.814980	82	77	99
-19.810827	-7.070963	69.816216	75	76	94
-19.468824	-7.072002	69.796532	75	71	92
-19.128258	-7.072508	69.794487	68	68	84
-18.789364	-7.072416	69.812225	69	68	83
-18.448114	-7.073172	69.801910	70	66	83
-18.276756	-7.073806	69.788269	69	70	88
-17.935064	-7.074705	69.773209	69	65	85
-17.595247	-7.074951	69.779778	65	62	79
-17.255129	-7.075305	69.782768	67	66	82
-17.084538	-7.075664	69.778229	65	60	80
-16.743418	-7.076357	69.769989	62	60	76
-16.402414	-7.077008	69.763145	61	63	78
-16.059416	-7.078311	69.734718	64	64	81
-15.717174	-7.079352	69.714973	64	64	81
-15.546509	-7.079721	69.710106	65	63	80
-15.202648	-7.081265	69.673721	64	62	74
-14.855882	-7.083707	69.607635	61	59	74
-14.168368	-7.086612	69.540962	62	59	76
-13.825307	-7.087823	69.515594	62	60	78
-13.653664	-7.088458	69.501945	62	60	79
-13.135484	-7.091319	69.429352	51	50	64
-12.961163	-7.092737	69.389801	51	48	61
-12.786241	-7.094323	69.344688	51	49	61
-12.436285	-7.097491	69.254639	59	55	69
-12.089397	-7.099711	69.195908	64	60	73
-11.745346	-7.101079	69.165398	59	60	71
-11.573701	-7.101647	69.153969	59	58	71
-11.229520	-7.103029	69.122971	57	56	69
-10.881887	-7.105373	69.060173	55	54	66
-10.533338	-7.107942	68.989952	59	55	69
-10.360194	-7.108896	68.965744	60	58	72
-10.014066	-7.110743	68.919403	56	55	70
-9.483658	-7.116534	68.750015	60	59	73
-9.306906	-7.118422	68.694977	61	58	72
-8.961744	-7.119905	68.660675	57	56	71
-8.792093	-7.119853	68.669731	56	58	73
-8.448056	-7.121019	68.645912	58	54	67
-8.094737	-7.124624	68.541466	56	51	63
-7.918209	-7.126373	68.491028	54	51	64
-7.567932	-7.129108	68.415337	57	56	70
-7.040502	-7.133662	68.286926	55	54	70
-6.862628	-7.135689	68.227318	57	55	68
-6.683533	-7.138012	68.157890	56	56	71
-6.325136	-7.142662	68.018967	54	52	66
-5.972344	-7.145837	67.928780	54	52	65
-5.621669	-7.148443	67.857422	49	49	60
-5.444390	-7.150215	67.806236	47	49	57
-4.907590	-7.156678	67.614815	53	50	62
-4.728625	-7.158811	67.551727	48	49	62
-4.549204	-7.161039	67.485466	47	49	59
-4.368919	-7.163462	67.412788	49	52	61
-4.187499	-7.166142	67.331612	51	52	66
-3.824735	-7.171430	67.171700	55	52	64
-3.294411	-7.175951	67.044518	50	49	62
-2.758661	-7.181658	66.878136	62	60	73
-2.577733	-7.184083	66.805412	62	61	76
-2.396308	-7.186608	66.729408	62	61	79
-2.032562	-7.191814	66.572227	60	59	73
-1.488385	-7.199166	66.351593	59	58	73
-1.128167	-7.203406	66.226349	51	51	63
-0.948436	-7.205421	66.167206	50	48	59
-0.767815	-7.207623	66.101875	54	50	61
-0.585347	-7.210226	66.023331	52	52	63
0.158717	-7.223607	65.611084	54	52	62
0.343404	-7.226605	65.519485	53	51	62
0.710200	-7.231980	65.356819	49	46	60
1.075448	-7.236952	65.207481	50	46	57
1.257177	-7.239222	65.139969	50	47	57
1.621093	-7.243817	65.003082	50	49	59
1.805245	-7.246564	64.919815	51	52	60
1.991255	-7.249691	64.824013	49	50	60
2.550528	-7.259217	64.531807	50	51	62
2.925251	-7.265863	64.327255	48	46	56
3.114613	-7.269574	64.212189	47	46	53
3.686130	-7.281281	63.848076	48	46	57
3.877105	-7.285232	63.725098	53	54	61
4.068419	-7.289228	63.600628	50	51	62
5.008432	-7.305499	63.100883	52	49	66
5.193954	-7.308195	63.019375	51	55	65
5.574440	-7.315432	62.795437	48	47	56
5.959149	-7.323425	62.546577	51	49	64
6.921128	-7.343040	61.936672	50	49	60
7.116291	-7.347436	61.799118	50	48	59
9.489738	-7.404177	60.017109	50	48	57
10.900812	-7.440430	58.873970	50	50	59
11.910523	-7.465797	58.075027	51	50	59
13.154105	-7.501041	56.958145	58	56	64
13.582649	-7.515026	56.512154	58	53	63
13.802199	-7.522897	56.260212	57	57	67
14.442645	-7.543055	55.618340	61	58	71
14.651540	-7.548898	55.433277	59	60	70
15.079316	-7.562232	55.008862	57	57	70
15.519908	-7.577646	54.515923	60	58	69
15.953439	-7.591680	54.068527	60	57	72
16.165966	-7.597913	53.870678	61	58	73
16.814634	-7.618307	53.221306	63	60	73
17.256582	-7.633338	52.741135	64	62	76
17.477449	-7.640778	52.503586	67	66	78
17.698469	-7.648204	52.266468	64	65	79
17.920067	-7.655689	52.027424	68	66	80
18.362923	-7.670487	51.555027	66	68	80
18.974691	-7.683687	51.143055	64	64	77
19.661934	-7.709119	50.328014	54	55	62
19.935797	-7.724864	49.816841	55	55	65
20.202780	-7.739402	49.345474	54	52	63
20.457649	-7.751886	48.941788	54	52	64
20.948072	-7.773528	48.244141	58	57	68
21.414749	-7.791112	47.680225	61	62	76
22.122240	-7.818362	46.805656	64	62	79
22.623344	-7.841005	46.075188	62	62	73
23.123972	-7.863349	45.354637	60	60	68
23.746071	-7.876147	44.956470	63	62	71
28.362801	-8.110422	37.374081	77	73	90
29.490904	-8.196871	34.551212	77	72	87
30.114838	-8.234684	33.322109	70	72	83
30.659363	-8.260340	32.493465	77	76	95
-74.696304	-8.235458	34.985100	49	50	57
-73.232475	-8.167186	37.279076	45	43	52
-73.029213	-8.159575	37.536541	46	44	54
-72.825356	-8.151560	37.807201	44	42	49
-72.188034	-8.114300	39.052273	41	40	47
-71.802101	-8.107576	39.288467	41	41	47
-71.599174	-8.099201	39.570889	42	42	49
-71.191750	-8.081237	40.175426	43	45	49
-70.376381	-8.043180	41.454147	47	46	59
-69.971924	-8.024860	42.070190	48	47	54
-69.170868	-7.990530	43.226486	46	44	52
-68.378693	-7.958648	44.302341	46	46	57
-67.983864	-7.942515	44.846493	47	47	56
-67.786888	-7.934470	45.117867	47	45	55
-67.394661	-7.918929	45.642563	43	44	52
-67.199738	-7.911639	45.889145	43	46	52
-66.617325	-7.890324	46.610691	50	50	62
-66.229454	-7.875625	47.107670	52	51	63
-65.653328	-7.856068	47.771481	52	53	69
-65.462593	-7.850120	47.974010	53	54	68
-65.081444	-7.838039	48.385139	54	52	61
-64.890587	-7.831605	48.603558	50	48	57
-64.508286	-7.817874	49.068684	43	43	53
-64.317429	-7.810975	49.302338	42	43	53
-64.127197	-7.804351	49.526924	45	44	54
-63.748631	-7.792004	49.946644	46	43	56
-63.559967	-7.786057	50.149075	48	49	60
-63.183220	-7.774151	50.554291	56	55	66
-62.995155	-7.768204	50.756687	54	54	68
-62.619549	-7.756252	51.163338	51	55	65
-62.432014	-7.750250	51.367538	53	51	61
-62.057957	-7.738578	51.764977	49	47	56
-61.871490	-7.732962	51.956486	49	48	65
-61.314213	-7.716955	52.503426	51	52	61
-60.758835	-7.701201	53.042015	56	55	71
-60.574009	-7.695903	53.223091	57	56	70
-60.205471	-7.685839	53.567726	59	60	73
-60.021843	-7.681172	53.728088	58	59	71
-59.471714	-7.666975	54.215584	57	54	62
-59.288113	-7.661696	54.395935	56	51	67
-58.921112	-7.650792	54.768005	54	54	66
-58.738068	-7.645529	54.947834	55	54	67
-58.373192	-7.635751	55.282978	56	56	68
-58.191204	-7.631085	55.443222	56	54	69
-58.009396	-7.626447	55.602585	57	54	69
-57.827766	-7.621831	55.761177	58	56	71
-57.646374	-7.617311	55.916641	60	58	71
-57.284462	-7.608772	56.211197	57	57	74
-56.923302	-7.600451	56.498535	59	57	73
-56.562248	-7.591520	56.805851	54	55	66
-56.381969	-7.587081	56.958618	55	52	64
-55.842793	-7.574856	57.381180	52	51	64
-55.663376	-7.570830	57.520393	57	54	69
-55.305172	-7.563108	57.788044	58	58	74
-55.126434	-7.559514	57.913147	60	59	72
-54.590824	-7.548484	58.296463	61	61	77
-54.056084	-7.536956	58.696053	59	58	75
-53.878185	-7.533278	58.823833	61	58	77
-53.522758	-7.525906	59.079964	59	56	68
-53.345215	-7.522171	59.209587	52	50	61
-52.990662	-7.515055	59.457275	49	48	59
-52.813629	-7.511642	59.576382	53	50	63
-52.636665	-7.508107	59.699444	56	54	67
-52.106525	-7.497567	60.066555	55	53	70
-51.930325	-7.494846	60.162964	59	55	72
-51.578392	-7.490008	60.336094	63	62	80
-50.699249	-7.474328	60.886063	58	60	74
-49.647919	-7.455860	61.534470	60	62	77
-49.123726	-7.447002	61.846287	68	64	83
-48.949196	-7.443965	61.953003	66	66	84
-47.904263	-7.424840	62.622612	71	69	88
-47.209488	-7.415905	62.944233	76	77	98
-46.689331	-7.408622	63.204426	74	73	97
-46.516171	-7.405869	63.301792	74	74	100
-45.478638	-7.391644	63.810898	77	75	96
-45.306004	-7.389298	63.894924	78	72	95
-44.616352	-7.379759	64.236061	74	74	94
-44.272091	-7.374835	64.411667	74	73	93
-44.100010	-7.372586	64.492500	72	73	94
-43.067501	-7.362684	64.860123	72	69	89
-42.895809	-7.360669	64.933281	74	71	91
-42.724335	-7.358376	65.015518	73	72	92
-42.210606	-7.351105	65.275040	77	76	96
-41.867939	-7.347306	65.413811	77	76	93
-41.696541	-7.345677	65.474342	76	74	90
-40.670719	-7.334072	65.897316	74	74	96
-39.816139	-7.326531	66.180161	77	78	100
-39.474628	-7.323606	66.290298	79	78	99
-39.133205	-7.320838	66.395302	77	75	98
-38.791767	-7.318327	66.491920	79	76	98
-38.621086	-7.317113	66.538849	79	76	99
-38.279694	-7.314867	66.626793	74	74	98
-38.108994	-7.313819	66.668320	76	77	99
-37.767868	-7.311569	66.756371	78	77	101
-37.427273	-7.308967	66.855927	79	80	100
-36.916977	-7.304848	67.012268	78	76	100
-36.407852	-7.300094	67.189331	80	79	100
-36.238422	-7.298361	67.253159	81	80	104
-35.899357	-7.295250	67.369278	83	81	103
-35.559719	-7.292818	67.463234	78	77	99
-35.219841	-7.290743	67.545517	79	77	99
-35.050125	-7.289575	67.590912	77	77	99
-34.541233	-7.286082	67.726738	80	78	102
-34.370895	-7.285535	67.751854	81	75	101
-33.860168	-7.283802	67.830238	78	76	102
-33.521286	-7.281573	67.917511	80	78	98
-33.182781	-7.279198	68.009521	79	80	103
-32.504017	-7.276030	68.141968	82	78	100
-32.163628	-7.275253	68.181816	80	78	101
-31.993832	-7.274622	68.209663	80	77	100
-30.978405	-7.269121	68.432693	79	78	100
-30.809370	-7.268160	68.471283	77	79	101
-30.470425	-7.266839	68.528900	77	80	101
-30.131670	-7.265473	68.587944	76	77	96
-29.793917	-7.263595	68.663704	76	77	100
-29.455509	-7.262177	68.724434	78	78	100
-29.115795	-7.261564	68.758919	78	79	99
-28.946119	-7.261171	68.778969	78	80	102
-28.440180	-7.258386	68.891541	78	79	100
-28.271507	-7.257513	68.927261	75	76	97
-27.932716	-7.256588	68.971909	80	78	99
-27.762959	-7.256332	68.987473	80	77	101
-27.423475	-7.255832	69.018257	75	77	99
-27.084860	-7.254925	69.062317	75	75	95
-26.747765	-7.253303	69.129677	77	74	97
-26.409283	-7.252430	69.172600	74	74	99
-26.238873	-7.252580	69.174942	76	78	99
-25.897627	-7.253090	69.172768	80	82	98
-25.558222	-7.252729	69.199005	80	79	102
-25.220070	-7.251812	69.243393	81	83	104
-24.712317	-7.250751	69.299637	83	87	105
-24.034693	-7.249735	69.361679	81	88	107
-23.523235	-7.250453	69.359962	81	80	104
-23.353247	-7.250478	69.366364	81	81	100
-22.845585	-7.249602	69.416611	79	80	103
-22.336193	-7.249506	69.441391	79	80	103
-22.166092	-7.249608	69.445313	82	77	102
-21.491243	-7.247804	69.532959	81	76	100
-21.151911	-7.247712	69.550407	76	73	96
-20.980734	-7.248266	69.539581	78	76	99
-20.294523	-7.251023	69.478622	79	76	100
-19.954517	-7.251196	69.487450	75	74	90
-19.784327	-7.251356	69.489441	70	70	88
-19.102943	-7.252237	69.489624	67	66	81
-18.592690	-7.252620	69.498817	63	63	81
-17.908913	-7.254368	69.470757	69	67	82
-17.398205	-7.254919	69.474457	66	64	77
-17.227257	-7.255351	69.467613	63	61	76
-16.713470	-7.256956	69.436974	55	56	66
-16.200920	-7.258122	69.420670	58	55	70
-16.029177	-7.258805	69.405640	61	58	74
-15.514791	-7.260552	69.370392	62	59	76
-14.997583	-7.263182	69.306442	60	58	72
-14.824610	-7.264229	69.279556	62	61	78
-14.652310	-7.265054	69.259941	64	63	80
-14.480735	-7.265642	69.248016	65	63	80
-14.309487	-7.266123	69.239571	65	63	78
-13.966447	-7.267249	69.217339	64	61	79
-13.622837	-7.268540	69.189735	64	61	79
-13.277851	-7.270240	69.148857	58	57	73
-13.104135	-7.271455	69.116516	56	54	69
-12.754571	-7.274504	69.031723	54	50	66
-12.229951	-7.279070	68.904778	63	58	72
-11.884468	-7.280794	68.863121	61	60	72
-11.369490	-7.282391	68.832802	53	52	66
-11.196786	-7.283222	68.812988	52	50	63
-10.673760	-7.287091	68.708755	53	52	64
-10.326804	-7.289134	68.656731	57	54	70
-9.980439	-7.290984	68.610992	58	57	73
-9.627737	-7.294578	68.508514	61	60	75
-9.449883	-7.296772	68.444366	62	59	76
-9.098663	-7.299873	68.357895	59	57	74
-8.061758	-7.304425	68.253212	52	49	60
-7.709424	-7.307690	68.161453	52	52	61
-7.533312	-7.309291	68.116600	55	57	69
-7.180130	-7.312712	68.019814	60	60	73
-7.002323	-7.314723	67.961655	59	56	72
-6.643456	-7.319544	67.819290	57	58	73
-5.581393	-7.329917	67.525383	49	47	58
-5.226640	-7.333466	67.424469	46	47	59
-5.047977	-7.335544	67.364136	48	53	64
-3.964451	-7.350543	66.919899	57	53	65
-3.250565	-7.358166	66.701096	49	50	60
-2.712991	-7.364267	66.524498	59	56	71
-1.625066	-7.379095	66.086090	61	61	78
-1.442591	-7.381777	66.006165	61	59	77
-0.352281	-7.396478	65.571968	50	49	59
-0.166304	-7.399837	65.470085	50	50	59
0.575382	-7.412560	65.085739	51	49	62
0.940875	-7.417614	64.936050	47	48	58
2.040234	-7.433033	64.478798	53	49	60
2.227083	-7.436330	64.378944	51	48	57
3.356684	-7.457495	63.735142	46	46	53
4.500519	-7.480848	63.020393	49	49	61
4.690093	-7.484437	62.911133	46	48	64
5.436771	-7.496206	62.558167	46	46	56
5.821025	-7.504204	62.313065	47	46	55
6.391743	-7.514885	61.988178	47	43	54
6.580294	-7.518066	61.892231	50	47	56
7.360586	-7.535771	61.346653	47	45	58
7.556221	-7.540244	61.208767	46	45	56
7.754877	-7.545285	61.052429	48	45	55
8.171246	-7.559005	60.621635	47	44	55
8.376012	-7.565138	60.429852	46	46	56
8.571264	-7.569387	60.299274	46	45	57
8.957246	-7.576938	60.068855	49	46	55
9.156916	-7.581968	59.912930	48	47	56
9.758651	-7.597406	59.433853	47	45	54
9.957320	-7.602131	59.287857	47	44	53
10.357066	-7.611956	58.983688	45	45	53
10.559380	-7.617288	58.818008	49	46	57
11.370948	-7.638749	58.150982	46	45	54
11.773330	-7.648671	57.843742	47	47	55
11.979736	-7.654555	57.660183	49	47	56
12.605600	-7.673230	57.076328	53	51	60
12.812255	-7.679028	56.895603	57	53	63
13.018140	-7.684653	56.720459	56	55	65
13.225387	-7.690496	56.538284	58	54	64
13.437359	-7.697163	56.329376	55	52	63
13.655097	-7.704834	56.087872	56	53	64
13.876037	-7.713040	55.829021	56	55	64
14.094655	-7.720785	55.585155	57	58	69
14.515407	-7.733205	55.197048	58	58	68
14.722775	-7.738830	55.021992	59	57	70
15.151611	-7.752487	54.593796	58	55	68
15.373721	-7.760619	54.337418	58	55	69
15.596679	-7.768857	54.077614	58	56	68
15.816683	-7.776532	53.836067	59	57	68
16.031902	-7.783329	53.623032	60	60	69
16.243954	-7.789537	53.429119	62	60	72
16.456100	-7.795729	53.235733	64	61	75
16.671438	-7.802444	53.025406	62	61	74
16.890686	-7.809800	52.794266	65	62	73
17.562002	-7.833972	52.032661	66	66	75
17.786360	-7.842046	51.778271	63	65	77
18.009811	-7.849923	51.530266	65	63	75
18.447874	-7.864054	51.086987	66	65	76
18.653721	-7.868830	50.939617	64	65	79
19.014013	-7.869644	50.928333	58	58	69
20.564949	-7.950092	48.364517	54	53	60
21.048676	-7.970874	47.705757	59	57	65
22.461866	-8.025805	45.970222	60	58	68
22.977051	-8.050894	45.172028	59	57	64
23.453112	-8.069437	44.586109	61	59	69
29.573645	-8.396878	34.142750	70	68	78
29.921537	-8.421565	33.350567	74	68	80
30.519371	-8.455759	32.258221	77	76	82
-74.515503	-8.426206	34.891273	49	49	62
-73.038925	-8.350356	37.393364	47	43	53
-72.024803	-8.311029	38.701023	42	41	51
-71.631058	-8.300376	39.060211	43	41	49
-71.426735	-8.291139	39.365952	41	41	49
-71.222740	-8.281918	39.671158	41	43	48
-71.018677	-8.272503	39.982574	44	43	50
-70.813652	-8.262431	40.315193	46	44	51
-70.404015	-8.241986	40.990112	45	44	52
-69.998306	-8.222939	41.619877	45	43	51
-69.796791	-8.213888	41.919483	42	42	50
-69.596031	-8.205090	42.210964	41	39	49
-69.196548	-8.188139	42.773014	42	40	49
-68.602951	-8.164746	43.550438	48	49	60
-68.405128	-8.156679	43.818249	46	47	57
-68.009445	-8.140060	44.369484	44	43	51
-67.224205	-8.108562	45.415684	42	44	52
-66.639534	-8.085918	46.168674	50	50	58
-66.250298	-8.070375	46.684998	46	46	55
-66.056953	-8.063185	46.924427	47	44	54
-65.673325	-8.050345	47.353527	52	52	64
-65.482376	-8.044295	47.556179	56	55	67
-65.100708	-8.031938	47.969700	53	54	63
-64.909691	-8.025426	48.187187	50	48	58
-64.146240	-7.998268	49.092846	50	48	61
-63.578522	-7.979780	49.711399	48	45	54
-63.011951	-7.960768	50.346756	51	50	60
-62.447514	-7.941958	50.975510	50	46	55
-62.073185	-7.930184	51.369968	49	47	55
-61.886646	-7.924573	51.558266	52	48	63
-61.700424	-7.919077	51.742882	56	53	67
-61.514454	-7.913639	51.925613	55	54	70
-61.328754	-7.908278	52.105869	53	54	66
-61.143250	-7.902933	52.285564	51	51	63
-60.772705	-7.892183	52.646904	54	51	68
-60.587646	-7.886758	52.829174	56	53	67
-60.218426	-7.876245	53.182838	58	57	69
-60.034485	-7.871378	53.347115	55	55	69
-59.850883	-7.866689	53.505653	54	52	62
-59.483650	-7.856801	53.839130	51	49	59
-58.932343	-7.840185	54.396744	53	52	67
-58.749157	-7.834881	54.575043	56	54	67
-58.202015	-7.820498	55.060627	56	51	65
-57.656612	-7.806481	55.534393	58	54	68
-57.475273	-7.801991	55.686455	58	56	67
-56.932201	-7.788574	56.140778	59	58	73
-56.751320	-7.783899	56.298756	57	58	70
-56.570599	-7.779228	56.456585	56	55	66
-56.390186	-7.774764	56.607742	56	53	64
-55.850807	-7.762798	57.015259	49	48	58
-55.671314	-7.758857	57.149563	53	50	63
-55.312840	-7.751151	57.412468	58	56	70
-55.133915	-7.747494	57.537582	60	58	72
-54.597626	-7.736055	57.928005	61	60	76
-54.418949	-7.731935	58.068047	61	61	75
-54.240410	-7.727814	58.208061	61	60	75
-54.062084	-7.723832	58.343647	59	58	75
-53.883984	-7.720036	58.473225	59	58	71
-53.706059	-7.716336	58.599663	60	57	69
-53.528244	-7.712605	58.727146	58	55	69
-53.350513	-7.708780	58.857624	54	52	66
-53.172920	-7.704978	58.987385	49	48	59
-52.818302	-7.697812	59.232746	49	48	58
-52.641209	-7.694315	59.352619	50	48	59
-52.110691	-7.683972	59.707565	55	55	69
-51.758045	-7.678484	59.898849	58	57	71
-51.405773	-7.672972	60.090897	58	60	73
-51.053680	-7.666683	60.307949	60	58	74
-50.877762	-7.663387	60.421333	58	57	71
-50.526169	-7.656376	60.661579	55	55	70
-50.350529	-7.652756	60.785400	56	57	70
-50.175037	-7.649286	60.904350	58	59	74
-49.824532	-7.643189	61.115154	60	61	76
-49.649471	-7.640422	61.211479	62	61	75
-49.124859	-7.632065	61.502274	64	63	79
-48.601067	-7.622497	61.831985	65	64	80
-48.426682	-7.618997	61.951862	64	62	80
-47.904209	-7.609529	62.278305	65	63	79
-47.382568	-7.601862	62.546761	67	68	87
-47.208858	-7.599352	62.634766	71	71	91
-46.688297	-7.591557	62.907303	73	74	95
-46.514973	-7.588872	63.000908	75	74	98
-45.995422	-7.581445	63.261570	77	75	96
-45.476479	-7.574698	63.500290	78	75	95
-45.303680	-7.572357	63.582844	78	72	94
-45.130962	-7.570012	63.665508	74	71	92
-44.785786	-7.565297	63.831623	73	73	94
-44.268654	-7.558180	64.082184	71	73	92
-44.096313	-7.556149	64.154694	72	73	92
-43.923950	-7.554370	64.219131	74	73	94
-43.579300	-7.551075	64.339531	72	72	92
-43.407101	-7.549346	64.402359	71	70	90
-43.063053	-7.545545	64.539009	73	70	90
-42.891251	-7.543401	64.615181	74	71	92
-42.719616	-7.541069	64.697372	72	71	90
-42.376736	-7.536132	64.870506	73	70	92
