-28.689953	8.206131	33.721634	92	96	103
-28.507401	8.204558	33.824326	94	97	100
-28.324713	8.203043	33.922424	94	98	100
-27.958637	8.200243	34.099819	95	97	107
-27.224337	8.195368	34.395950	93	98	104
-27.040741	8.194195	34.466248	93	95	103
-26.857258	8.193013	34.537334	95	97	101
-26.673893	8.191820	34.609264	95	96	100
-26.490614	8.190625	34.681458	97	98	101
-25.940781	8.187130	34.890610	92	98	108
-25.757408	8.186014	34.956367	95	98	106
-25.574009	8.184918	35.020515	95	96	102
-25.207226	8.182761	35.145920	93	96	100
-24.840645	8.180615	35.270512	92	95	102
-24.657528	8.179527	35.334114	94	100	104
-24.109617	8.176054	35.541740	93	99	105
-23.927652	8.174793	35.619385	96	98	104
-23.746113	8.173466	35.702454	94	97	104
-23.384693	8.170543	35.890396	94	98	107
-22.846928	8.165482	36.227539	93	96	101
-22.305811	8.161210	36.500500	92	97	100
-22.116013	8.161514	36.450825	88	93	97
-21.924637	8.162091	36.378914	91	91	98
-21.005444	8.158302	36.562939	83	88	92
-20.460625	8.154974	36.759315	82	84	90
-20.278271	8.154012	36.812782	83	84	90
-19.914093	8.152027	36.924667	83	85	92
-19.732018	8.151047	36.979683	82	87	90
-19.367413	8.149186	37.081493	85	88	92
-19.184660	8.148341	37.125481	85	86	89
-18.816921	8.147027	37.182751	83	88	94
-17.904360	8.142777	37.404789	85	87	92
-17.358742	8.140019	37.555080	90	93	96
-15.749146	8.128226	38.293407	75	79	85
-15.381640	8.127127	38.333412	80	85	90
-15.205803	8.125465	38.444206	79	83	87
-14.324821	8.117630	38.959675	82	85	89
-13.954752	8.116993	38.962090	83	86	91
-13.588799	8.115805	39.009495	83	86	89
-12.624509	8.119348	38.595921	85	89	93
-12.441305	8.118770	38.618279	86	90	95
-11.890390	8.117221	38.670254	89	92	97
-11.337785	8.115907	38.703102	91	93	105
-11.153926	8.115429	38.717327	90	94	98
-10.970469	8.114902	38.735489	89	94	99
-10.787475	8.114321	38.758148	91	95	102
-10.604939	8.113686	38.785202	91	93	101
-10.240927	8.112297	38.849079	88	93	99
-10.059197	8.111574	38.883282	90	91	102
-9.695662	8.110152	38.949905	93	96	99
-9.331688	8.108798	39.010925	91	96	102
-9.149612	8.108137	39.040119	95	99	104
-8.056048	8.104375	39.198868	88	93	97
-7.688721	8.103467	39.223473	86	91	98
-7.504487	8.103080	39.230270	86	91	96
-6.952173	8.101882	39.253792	89	92	98
-6.402784	8.100368	39.303116	96	99	103
-5.853084	8.098907	39.348244	91	93	108
-5.669117	8.098503	39.356461	91	93	103
-5.484824	8.098136	39.361694	89	91	96
-5.300347	8.097789	39.365250	89	91	95
-5.115855	8.097444	39.368633	87	89	96
-4.563342	8.096311	39.386887	93	96	102
-4.195750	8.095480	39.405201	94	98	104
-3.829614	8.094502	39.435608	93	98	103
-2.368695	8.090292	39.581806	95	100	107
-2.009239	8.088682	39.664127	98	102	110
-1.818025	8.089026	39.610958	95	98	104
-1.429666	8.090288	39.457771	96	97	102
-1.048928	8.090773	39.368214	97	101	108
-0.860774	8.090793	39.341686	94	100	112
-0.299930	8.090488	39.291901	99	105	112
1.749302	8.088603	39.172630	104	108	109
2.126915	8.088710	39.113956	103	105	111
2.315904	8.088777	39.083553	101	104	111
2.504859	8.088838	39.053616	99	104	111
2.882396	8.088918	38.997139	102	105	114
3.070825	8.088923	38.971699	101	105	114
3.446328	8.088808	38.931293	98	100	103
3.818994	8.088433	38.912125	98	102	108
4.004144	8.088140	38.911232	101	102	110
4.372994	8.087428	38.919895	99	104	109
4.742347	8.086761	38.924793	102	110	115
4.928163	8.086527	38.919060	96	104	108
5.303212	8.086352	38.883434	104	107	114
5.682537	8.086539	38.818123	100	101	106
5.873148	8.086710	38.779129	99	100	106
6.063892	8.086888	38.739460	94	98	102
6.444607	8.087171	38.666267	95	96	102
7.013468	8.087386	38.573471	94	94	101
7.203369	8.087477	38.541004	98	98	106
7.585183	8.087817	38.462986	93	97	107
7.777352	8.088087	38.415779	94	95	102
7.970360	8.088422	38.363197	94	94	102
8.358468	8.089250	38.244968	90	93	100
8.748385	8.090206	38.116154	89	91	96
8.943604	8.090698	38.050625	90	91	98
9.527743	8.092021	37.866520	90	92	98
9.721164	8.092349	37.814415	101	102	105
9.913632	8.092597	37.768871	105	109	108
10.105093	8.092762	37.730190	93	95	98
10.485397	8.092877	37.670517	94	94	103
10.864939	8.092924	37.616470	94	93	103
11.056457	8.093081	37.578461	101	105	113
11.250290	8.093415	37.525837	96	95	101
11.446606	8.093938	37.457668	92	94	98
11.843966	8.095331	37.292557	90	91	96
12.043104	8.096055	37.207840	92	92	97
12.241721	8.096731	37.126934	97	96	99
12.636913	8.097911	36.979378	94	94	101
12.833694	8.098432	36.911362	93	94	99
13.226949	8.099433	36.778442	90	93	99
13.820445	8.101170	36.559723	89	93	95
14.219279	8.102536	36.396633	98	101	106
14.419125	8.103242	36.313183	103	104	111
14.619010	8.103945	36.229980	96	97	103
15.018816	8.105335	36.064812	93	96	104
15.218941	8.106038	35.981602	88	88	95
15.419385	8.106758	35.896946	89	92	98
15.620190	8.107499	35.810619	90	94	95
16.423788	8.110426	35.467953	90	94	101
16.623669	8.111071	35.389526	92	94	98
16.823017	8.111670	35.314674	93	94	101
17.221239	8.112823	35.169006	96	94	101
17.420935	8.113432	35.093361	93	95	100
17.621542	8.114100	35.012829	90	95	100
18.026234	8.115665	34.832958	89	90	97
18.230270	8.116557	34.733997	89	91	98
18.435192	8.117503	34.630482	90	93	98
18.640749	8.118487	34.523895	92	93	100
18.846704	8.119491	34.415611	92	92	103
19.259077	8.121509	34.198185	103	103	110
19.465271	8.122507	34.090317	99	99	105
19.671429	8.123496	33.983246	99	100	105
19.877613	8.124478	33.876602	94	96	105
20.083979	8.125467	33.769516	95	98	106
20.498241	8.127526	33.548489	95	97	104
20.916174	8.129804	33.309372	95	100	102
21.126753	8.131039	33.181808	89	92	95
21.550251	8.133641	32.915779	91	91	99
21.762512	8.134963	32.780994	89	91	100
21.974709	8.136271	32.647285	90	90	99
22.398388	8.138816	32.385883	92	94	94
22.609953	8.140057	32.257710	92	92	99
23.033234	8.142525	32.002548	93	97	101
23.669495	8.146252	31.617563	94	98	103
23.881773	8.147490	31.489529	95	98	103
24.094065	8.148721	31.362083	93	97	101
24.306412	8.149947	31.234999	93	95	102
24.518946	8.151177	31.107571	92	95	102
24.731867	8.152425	30.978737	90	91	100
25.375481	8.156426	30.570580	91	92	99
25.592348	8.157891	30.423649	91	93	102
25.810535	8.159431	30.270546	91	94	99
26.029963	8.161039	30.111721	94	96	102
26.471802	8.164413	29.780924	93	93	104
26.693769	8.166151	29.611324	97	93	104
27.138800	8.169662	29.268999	89	89	98
27.361521	8.171415	29.098063	85	87	93
27.806620	8.174869	28.760477	81	82	86
28.028881	8.176562	28.594398	79	81	90
28.251118	8.178244	28.429277	83	81	89
28.473671	8.179935	28.263344	81	80	88
28.921631	8.183461	27.919468	81	82	93
29.147861	8.185347	27.737419	80	82	90
29.605312	8.189386	27.350872	77	80	87
29.835995	8.191507	27.149193	79	80	87
30.299028	8.195813	26.740421	84	83	94
30.761963	8.200065	26.336054	79	80	88
30.993090	8.202151	26.137016	79	79	84
31.455250	8.206285	25.742241	75	76	82
31.686771	8.208362	25.544088	71	74	78
32.152145	8.212616	25.139187	69	71	78
32.386505	8.214824	24.929985	70	69	78
32.622196	8.217097	24.715292	75	74	77
32.859241	8.219439	24.495022	76	77	81
33.337017	8.224297	24.039753	70	71	81
33.818649	8.229326	23.570137	80	80	87
34.060593	8.231886	23.331551	74	77	83
34.546654	8.237089	22.847298	76	77	82
35.036251	8.242440	22.350670	82	80	90
35.779762	8.250881	21.571148	78	80	85
36.030521	8.253831	21.299892	77	79	83
36.282917	8.256859	21.022182	77	79	82
37.050598	8.266438	20.147537	76	78	82
37.570446	8.273195	19.533504	78	79	88
37.831947	8.276636	19.221226	79	82	91
38.093945	8.280087	18.908064	82	80	89
38.356068	8.283527	18.595716	80	77	89
38.618107	8.286946	18.285143	80	77	87
38.880066	8.290343	17.976341	80	79	80
39.933838	8.304090	16.727657	89	87	94
40.201366	8.307707	16.400333	89	87	92
40.744225	8.315313	15.714669	88	90	96
41.297371	8.323404	14.988606	92	92	96
41.858761	8.331861	14.231847	91	94	96
42.142151	8.336205	13.843863	89	95	97
42.427521	8.340633	13.448698	89	91	98
-60.473537	8.460907	0.912909	105	109	110
-60.061504	8.458605	1.049540	106	109	111
-53.782513	8.309817	12.683404	98	100	104
-53.583481	8.308817	12.740061	95	99	104
-52.173702	8.279697	14.992022	91	94	102
-51.179249	8.263877	16.184072	89	91	96
-49.993896	8.245593	17.556822	86	90	93
-49.797176	8.242701	17.772722	86	90	93
-49.600765	8.240138	17.960939	86	85	92
-48.815815	8.220703	19.485422	86	87	92
-48.425861	8.217432	19.706469	85	90	93
-48.231049	8.215572	19.835947	85	90	93
-48.036373	8.213438	19.988396	85	88	92
-47.647552	8.208520	20.348007	86	86	94
-47.453434	8.205914	20.540123	85	87	95
-47.259514	8.203261	20.736376	87	89	97
-46.872265	8.197904	21.133120	87	88	88
-46.678925	8.195247	21.329641	81	86	89
-46.292767	8.190084	21.710222	82	85	88
-45.522236	8.180570	22.403387	81	82	90
-45.329891	8.178420	22.557472	82	82	90
-44.945168	8.174824	22.806639	82	85	91
-43.031883	8.154190	24.276562	87	91	94
-42.655342	8.146387	24.880180	89	90	95
-42.281559	8.137348	25.588009	90	93	108
-42.096474	8.131851	26.024261	99	101	107
-41.718529	8.127350	26.350382	89	90	96
-41.144211	8.126266	26.362413	90	93	96
-40.191292	8.122039	26.586390	88	89	96
-39.815197	8.117719	26.897505	90	91	96
-39.629097	8.114630	27.131388	91	91	97
-39.442291	8.112036	27.323566	91	92	97
-39.068470	8.107243	27.674706	89	91	97
-38.321743	8.098203	28.331299	92	95	109
-38.132206	8.097440	28.369316	92	95	109
-37.944542	8.095851	28.476999	93	94	108
-37.757656	8.093964	28.609764	91	93	108
-37.385265	8.089771	28.910683	93	93	102
-37.199341	8.087655	29.062853	95	95	105
-36.455589	8.079801	29.620277	96	97	104
-36.269901	8.077874	29.756615	98	96	102
-35.898853	8.074050	30.026768	95	100	105
-35.528103	8.070312	30.289799	97	98	106
-35.342747	8.068505	30.415962	95	97	103
-34.971703	8.065138	30.647774	97	99	104
-34.600407	8.062012	30.859280	98	100	109
-34.414894	8.060456	30.964407	101	100	109
-33.859150	8.055736	31.284464	99	103	105
-33.489025	8.052639	31.493687	96	98	105
-33.119083	8.049613	31.696991	98	101	107
-32.934246	8.048105	31.798201	97	101	108
-32.565086	8.045028	32.005909	97	100	107
-32.380844	8.043436	32.114220	96	99	106
-32.196835	8.041809	32.225574	97	100	111
-31.645750	8.036851	32.566269	101	102	109
-31.462137	8.035237	32.676540	101	101	108
-31.278446	8.033674	32.782558	98	100	107
-30.541922	8.028149	33.145321	97	100	108
-30.357281	8.026956	33.220154	99	100	107
-30.172531	8.025809	33.291061	98	99	108
-29.803223	8.023520	33.432495	95	99	109
-29.251766	8.019613	33.684769	95	96	103
-28.886251	8.016609	33.886856	94	98	105
-28.521450	8.013533	34.095078	94	96	105
-27.973152	8.009338	34.371937	99	99	103
-27.606380	8.006917	34.524918	93	96	103
-27.422783	8.005777	34.595360	93	97	104
-26.505705	8.000112	34.945129	94	98	101
-25.956385	7.996695	35.156540	92	96	104
-25.773222	7.995596	35.223652	93	96	102
-25.590010	7.994520	35.288784	92	93	98
-25.040260	7.991392	35.475906	92	94	102
-24.674122	7.989298	35.601456	96	101	105
-24.308897	7.987078	35.737640	92	96	102
-23.944996	7.984663	35.890396	100	102	105
-23.401836	7.980657	36.152256	93	95	102
-23.041674	7.977715	36.349747	94	98	102
-22.863224	7.975981	36.470886	94	98	105
-20.849630	7.966538	36.987015	83	86	89
-20.664972	7.965989	37.007816	83	86	94
-20.299076	7.964348	37.095230	81	84	89
-19.570829	7.960597	37.310184	82	86	91
-19.206177	7.958853	37.406467	85	89	93
-18.662653	7.955769	37.590759	83	85	92
-18.118713	7.952830	37.762821	89	91	98
-17.929758	7.952999	37.722614	89	90	95
-17.564558	7.951461	37.801521	83	88	93
-16.860098	7.944752	38.268196	86	87	92
-16.131516	7.941666	38.427185	82	84	87
-15.583026	7.939691	38.517590	81	83	88
-15.401733	7.938832	38.564819	82	83	90
-15.222899	7.937646	38.639816	80	84	87
-14.870690	7.934574	38.849426	81	85	91
-14.327836	7.931984	38.992249	84	85	93
-13.776826	7.930508	39.040443	90	89	97
-13.027890	7.930378	38.948303	85	91	92
-12.467259	7.930120	38.892914	91	93	99
-11.915826	7.928712	38.935287	90	90	96
-11.731761	7.928277	38.946461	89	93	99
-11.363793	7.927394	38.970085	90	97	122
-11.180173	7.926910	38.985420	86	96	112
-10.631784	7.925179	39.055416	92	94	100
-9.904867	7.922414	39.187660	95	96	102
-9.541370	7.921060	39.251423	92	94	98
-9.359430	7.920410	39.280956	91	96	98
-8.813320	7.918515	39.365025	93	93	99
-8.266421	7.916737	39.439140	89	90	96
-8.083462	7.916223	39.457138	90	93	97
-7.716207	7.915348	39.480083	88	92	94
-7.532128	7.914962	39.487171	88	92	96
-6.980594	7.913734	39.514439	90	93	97
-6.431882	7.912216	39.566467	87	88	96
-6.249034	7.911708	39.583977	92	91	100
-5.882267	7.910810	39.608932	90	92	105
-5.698239	7.910431	39.615479	89	90	100
-5.144997	7.909418	39.624516	91	92	101
-4.593536	7.908226	39.648682	90	96	100
-4.410425	7.907760	39.662716	96	100	103
-4.046084	7.906641	39.706532	96	98	104
-3.867081	7.905768	39.755203	95	99	103
-2.215503	7.902039	39.841248	97	101	108
-2.030002	7.901822	39.834030	101	103	113
-1.460325	7.902414	39.705879	97	101	105
-0.892740	7.902776	39.597382	97	100	105
-0.331780	7.902496	39.543739	98	103	111
-0.145832	7.902304	39.534306	104	108	112
0.224825	7.901804	39.525311	104	106	111
0.409736	7.901515	39.524101	109	108	116
0.964946	7.900693	39.516788	98	103	108
1.524990	7.900301	39.472694	104	105	111
1.713087	7.900293	39.447441	98	101	107
2.090655	7.900393	39.387100	105	110	115
2.279754	7.900467	39.354881	106	109	115
3.035283	7.900661	39.234634	103	106	109
3.411123	7.900578	39.189884	101	105	107
4.154612	7.899699	39.161503	99	101	109
4.523732	7.899035	39.166431	106	108	110
4.708691	7.898738	39.165997	103	107	112
6.026784	7.898566	38.999107	97	100	106
6.406477	7.898752	38.931274	95	101	105
6.595884	7.898805	38.900738	98	101	104
6.974535	7.898892	38.841358	93	99	104
7.164317	7.898968	38.808823	97	102	105
7.545925	7.899277	38.730442	97	103	109
7.737936	7.899522	38.683426	100	100	106
8.318245	7.900571	38.515427	95	98	103
8.902660	7.901902	38.323277	95	97	104
9.486741	7.903163	38.136944	89	92	100
10.255146	7.903995	37.961399	94	94	102
10.635730	7.904119	37.898640	96	94	106
10.826616	7.904222	37.863705	96	95	110
11.212470	7.904726	37.768318	96	95	103
11.407971	7.905164	37.704605	96	95	103
11.802808	7.906311	37.553997	95	100	106
12.000995	7.906932	37.474506	93	98	104
12.593477	7.908612	37.251938	98	104	111
13.182550	7.909997	37.054520	91	93	99
13.775428	7.911614	36.837147	91	96	102
14.574500	7.914307	36.501057	95	99	101
14.974804	7.915672	36.331280	97	99	105
15.175147	7.916359	36.245979	96	98	103
15.576749	7.917781	36.071346	93	96	101
16.180271	7.919946	35.806477	89	92	98
16.779547	7.921766	35.571110	95	97	102
16.978079	7.922279	35.500748	98	97	103
17.574902	7.923872	35.284851	95	96	100
17.977682	7.925240	35.114529	90	91	98
18.180925	7.926040	35.019367	90	92	99
18.590242	7.927810	34.814358	96	96	102
19.207872	7.930657	34.490227	101	103	110
19.414133	7.931618	34.381172	100	101	109
20.033726	7.934510	34.053005	97	98	103
20.240812	7.935496	33.941669	98	99	106
20.448458	7.936512	33.827805	99	98	106
21.076221	7.939826	33.463028	90	95	100
21.709995	7.943457	33.070923	96	97	107
22.132961	7.945865	32.810493	89	90	96
22.344273	7.947045	32.682251	88	88	96
22.978989	7.950589	32.297287	93	97	102
23.403666	7.953008	32.035706	92	97	100
23.616274	7.954222	31.904476	92	94	99
24.253782	7.957796	31.516537	95	98	104
24.678978	7.960151	31.260202	91	92	101
24.892263	7.961360	31.129372	93	92	99
25.106401	7.962612	30.994707	94	93	96
25.975512	7.968304	30.397091	92	93	96
26.417536	7.971546	30.063894	93	94	107
27.307985	7.978296	29.374441	92	93	97
27.530397	7.979946	29.205254	86	87	92
28.416285	7.986226	28.555935	82	82	87
28.861832	7.989461	28.222843	85	83	91
29.087072	7.991209	28.045052	82	84	88
29.314278	7.993061	27.858223	78	80	83
29.543316	7.995009	27.663082	77	79	85
30.005207	7.999093	27.256550	81	79	83
30.237007	8.001166	27.050493	79	80	83
30.700214	8.005256	26.643282	78	79	88
30.931248	8.007250	26.443968	79	78	85
31.392439	8.011155	26.052511	71	73	77
32.086197	8.017042	25.462614	72	73	77
32.789841	8.023386	24.832954	70	73	76
33.265923	8.027947	24.384291	70	70	76
33.746487	8.032709	23.918215	79	81	85
33.988079	8.035143	23.680523	76	77	81
34.717438	8.042621	22.952108	80	82	84
34.962246	8.045179	22.703512	80	82	87
35.208073	8.047780	22.451225	81	80	85
35.703316	8.053138	21.933109	82	81	85
36.457500	8.061682	21.111639	78	78	82
36.969536	8.067804	20.526983	77	80	83
37.228348	8.070992	20.223593	82	80	84
37.488693	8.074246	19.914450	82	79	87
37.750137	8.077542	19.601583	78	81	88
38.274483	8.084164	18.973333	80	82	91
38.798832	8.090717	18.350655	77	79	82
39.323689	8.097233	17.731178	82	83	86
39.587276	8.100528	17.418203	81	85	87
40.119389	8.107327	16.773924	85	84	90
40.388813	8.110877	16.438620	86	85	93
40.660812	8.114545	16.093122	89	88	94
40.935375	8.118328	15.737553	91	92	96
41.212311	8.122217	15.372833	91	92	97
41.491356	8.126196	15.000224	92	93	99
41.772289	8.130254	14.620741	94	95	101
42.055054	8.134386	14.234706	93	93	99
42.339787	8.138600	13.841565	90	93	97
42.626755	8.142909	13.440131	89	95	98
43.208649	8.151874	12.607117	88	88	100
43.802250	8.161350	11.729476	90	89	95
44.407215	8.171314	10.809305	92	93	98
44.713589	8.176458	10.335054	91	92	96
45.022404	8.181703	9.852116	90	90	98
46.283890	8.203749	7.826724	94	94	100
46.934544	8.215614	6.740605	93	93	100
47.265854	8.221804	6.175104	92	93	98
48.631596	8.248282	3.763116	88	89	94
49.699474	8.269967	1.794780	89	89	94
51.123035	8.298418	-0.790844	81	83	87
51.748943	8.308297	-1.706738	81	85	87
52.012970	8.310839	-1.956566	83	85	87
52.261097	8.312602	-2.138812	83	84	88
-58.519485	8.199784	5.634748	106	107	115
-58.311924	8.196735	5.872057	106	107	115
-57.895378	8.189603	6.437193	100	105	112
-57.080093	8.183048	6.894619	99	101	110
-56.010426	8.142983	10.250782	98	98	103
-55.809471	8.141753	10.329776	101	101	107
-54.377399	8.112328	12.702179	103	106	108
-53.977543	8.109016	12.934949	99	101	108
-53.383442	8.108381	12.905580	95	99	102
-51.772362	8.072389	15.827542	92	94	100
-51.376091	8.067650	16.185873	90	94	98
-51.178562	8.065812	16.318575	89	92	98
-50.783401	8.061246	16.661970	88	91	99
-50.585793	8.058414	16.881741	89	90	96
-50.388290	8.055346	17.122265	89	90	96
-50.190975	8.052176	17.371557	92	90	94
-49.993919	8.049029	17.618999	92	90	94
-49.797115	8.045922	17.863033	87	89	94
-49.600517	8.042697	18.117369	85	86	93
-49.207188	8.032149	18.984882	84	87	92
-49.011387	8.028193	19.303467	85	86	92
-48.816036	8.025267	19.531811	86	87	92
-48.036808	8.015066	20.313709	87	90	94
-47.842464	8.012729	20.490618	87	90	95
-47.454334	8.007857	20.861778	85	87	92
-47.260559	8.005346	21.053934	84	86	91
-47.066982	8.002809	21.248505	84	86	91
-46.873596	8.000261	21.444012	82	85	89
-46.680401	7.997720	21.638918	82	85	89
-46.487392	7.995203	21.831772	81	84	87
-46.294556	7.992722	22.021498	82	85	87
-45.909378	7.987881	22.390388	82	84	90
-45.332859	7.980812	22.927040	81	84	90
-45.141102	7.978362	23.114176	81	84	90
-42.471603	7.947398	25.444212	87	91	97
-41.910103	7.936270	26.338511	87	90	94
-41.530823	7.933133	26.559050	88	91	94
-41.151463	7.930324	26.750805	90	91	97
-39.072323	7.914614	27.829268	88	92	96
-38.513878	7.907336	28.386768	92	92	99
-38.137192	7.904820	28.553202	93	94	98
-37.577309	7.899162	28.968672	91	93	101
-37.391899	7.896890	29.141174	94	94	102
-37.020840	7.892643	29.460043	95	98	102
-36.834911	7.890767	29.597816	95	100	103
-36.649014	7.888931	29.731985	95	99	104
-36.092773	7.883183	30.155815	95	99	102
-35.722118	7.879539	30.421944	95	97	104
-35.166164	7.874396	30.792873	96	98	102
-34.980915	7.872742	30.911259	95	97	104
-34.425446	7.867911	31.254843	98	101	106
-33.870373	7.863274	31.581591	99	102	106
-33.130241	7.857543	31.977652	97	101	107
-32.760624	7.854717	32.172226	98	101	106
-32.576138	7.853255	32.273876	98	102	108
-32.024273	7.848602	32.602497	99	100	109
-31.840746	7.846994	32.717010	103	109	111
-31.473904	7.843814	32.943081	102	103	110
-30.923002	7.839418	33.249256	97	102	107
-30.738953	7.838108	33.337727	96	100	103
-30.185480	7.834625	33.563568	97	101	108
-29.632092	7.831282	33.777164	102	103	108
-29.448307	7.830043	33.859394	100	113	118
-29.082159	7.827298	34.047424	95	101	106
-28.899668	7.825826	34.150249	94	100	106
-28.352737	7.821424	34.457447	94	99	104
-28.170122	7.820068	34.550129	95	99	104
-27.804041	7.817596	34.714287	96	101	105
-27.620640	7.816462	34.787354	93	98	106
-27.253548	7.814299	34.924248	94	96	100
-27.070061	7.813228	34.991863	92	96	102
-26.520460	7.809920	35.202885	91	92	99
-25.422497	7.803434	35.613888	89	93	100
-25.239338	7.802430	35.675648	91	96	102
-25.056198	7.801433	35.736710	92	96	100
-24.690281	7.799407	35.861748	97	98	102
-23.961725	7.794907	36.151707	98	100	107
-23.599194	7.792426	36.317089	95	97	105
-23.418215	7.791157	36.402325	93	96	99
-22.696115	7.785921	36.757683	96	100	103
-22.331524	7.783981	36.875340	94	96	104
-22.149109	7.783047	36.931118	88	93	99
-21.061399	7.776548	37.344608	84	86	90
-20.871420	7.776874	37.288925	81	84	88
-20.501776	7.775897	37.321636	89	90	97
-20.319050	7.775088	37.366299	87	88	95
-19.954916	7.773291	37.471542	84	85	92
-19.773001	7.772382	37.525150	83	87	93
-19.591019	7.771491	37.577137	84	88	96
-19.226843	7.769764	37.676311	85	87	92
-19.044966	7.768880	37.727657	84	83	93
-18.329611	7.763675	38.081261	83	87	92
-17.953199	7.763807	38.015827	87	91	93
-17.407063	7.761397	38.148746	84	89	94
-17.227213	7.760302	38.218906	84	87	94
-16.863138	7.758740	38.303623	87	89	95
-15.965646	7.753249	38.656132	78	81	86
-15.600833	7.751882	38.723679	83	83	87
-15.419308	7.751090	38.767059	83	85	88
-15.059614	7.749090	38.890762	82	83	88
-14.880509	7.748006	38.959999	81	84	90
-14.518295	7.746375	39.051056	83	85	92
-13.785881	7.744173	39.139091	87	88	96
-13.603703	7.743515	39.170628	87	88	96
-13.048106	7.742668	39.165340	87	91	96
-12.492279	7.741848	39.157639	90	91	99
-11.757053	7.740064	39.208675	92	95	98
-11.389568	7.739167	39.234665	90	98	111
-11.206187	7.738679	39.251141	91	98	108
-10.658286	7.736973	39.322159	90	94	100
-10.294698	7.735661	39.385071	91	94	100
-9.931625	7.734305	39.451824	90	95	98
-9.750028	7.733640	39.484085	90	93	97
-9.386469	7.732361	39.544109	95	98	104
-9.022532	7.731136	39.599281	93	97	98
-8.293348	7.728864	39.693989	86	90	93
-8.110326	7.728379	39.710220	87	92	97
-7.743124	7.727538	39.731369	91	96	99
-7.559179	7.727155	39.738567	90	96	101
-7.008308	7.725912	39.768574	92	94	98
-6.460086	7.724410	39.821701	88	89	96
-6.277276	7.723920	39.838448	90	91	97
-5.910418	7.723071	39.860371	89	93	100
-5.726303	7.722716	39.865063	91	92	101
-5.173038	7.721747	39.870712	91	94	103
-4.622433	7.720522	39.899212	91	96	102
-4.439850	7.720024	39.916763	91	96	104
-3.897996	7.717973	40.018829	96	100	109
-3.548178	7.715537	40.182148	95	101	105
-2.820171	7.713410	40.264210	92	96	102
-2.622805	7.714315	40.156746	97	100	104
-2.429714	7.714813	40.085476	97	97	106
-2.055061	7.714730	40.039169	103	105	111
-1.678891	7.714777	39.981205	113	115	123
-0.923830	7.715086	39.846058	96	98	102
-0.736314	7.715044	39.822865	96	101	106
-0.363005	7.714803	39.790627	100	101	112
-0.177162	7.714608	39.781082	102	102	109
0.193098	7.714091	39.773327	108	108	114
0.377699	7.713787	39.773598	104	109	113
0.931625	7.712884	39.773396	99	104	109
1.490480	7.712403	39.735519	97	101	108
1.678349	7.712376	39.711033	98	103	107
2.244851	7.712526	39.616840	105	106	113
2.623012	7.712655	39.551453	105	107	113
2.811853	7.712695	39.520878	100	106	109
3.188623	7.712693	39.467083	102	102	109
3.376338	7.712635	39.445381	101	103	108
3.749902	7.712359	39.416035	100	103	109
4.120933	7.711874	39.405411	98	103	108
4.305839	7.711582	39.404541	98	98	109
4.675770	7.711008	39.401932	99	103	110
5.047730	7.710594	39.384872	100	103	108
5.234949	7.710485	39.367626	98	101	108
5.423039	7.710444	39.344326	98	101	107
5.611870	7.710459	39.315960	97	99	108
5.801207	7.710513	39.284218	97	99	107
6.558859	7.710725	39.157204	101	104	111
6.937365	7.710792	39.097115	98	97	103
7.127154	7.710864	39.063679	96	97	102
7.508718	7.711151	38.983917	96	100	103
7.700596	7.711373	38.936974	95	96	103
8.086276	7.711953	38.831013	96	96	99
8.279913	7.712297	38.773174	98	103	101
8.863170	7.713478	38.586243	95	102	103
9.446857	7.714651	38.399990	96	98	99
9.640349	7.714954	38.345722	97	98	100
9.832948	7.715189	38.297642	95	97	100
10.215617	7.715463	38.218822	88	92	97
10.406208	7.715543	38.184597	91	94	98
11.565321	7.717076	37.884384	91	93	97
11.959845	7.718136	37.735100	97	97	103
12.354308	7.719171	37.587994	102	99	114
13.138932	7.720883	37.325752	95	97	97
13.533014	7.721835	37.186016	88	92	96
13.930664	7.723011	37.026001	98	98	102
14.130553	7.723665	36.940182	90	95	99
14.330801	7.724337	36.852676	95	94	99
14.531174	7.725011	36.764919	91	94	100
14.931942	7.726344	36.590797	94	95	99
15.333209	7.727688	36.415676	101	99	103
16.137949	7.730453	36.058304	90	90	95
16.538008	7.731649	35.896309	91	92	97
16.934845	7.732613	35.755081	96	97	110
17.330748	7.733499	35.620872	94	96	105
17.529593	7.733993	35.549126	96	96	103
18.133455	7.735920	35.293907	93	95	100
18.337139	7.736705	35.195976	95	97	103
18.746809	7.738404	34.988514	95	96	102
19.364443	7.741102	34.663807	97	100	105
20.607998	7.746835	33.983738	100	102	109
21.026730	7.748951	33.738480	89	93	102
21.236990	7.750053	33.611870	91	96	104
21.658476	7.752293	33.355339	96	97	104
21.869354	7.753409	33.227356	91	93	102
22.925833	7.759005	32.586117	91	96	101
23.564041	7.762529	32.186073	94	95	102
24.201946	7.765965	31.793837	96	98	109
24.626881	7.768198	31.537466	94	97	103
24.839956	7.769339	31.407036	92	95	101
25.268965	7.771765	31.133104	91	91	100
25.922798	7.775946	30.673367	90	93	97
26.587872	7.780695	30.162163	94	94	111
27.256533	7.785563	29.640097	90	92	101
27.700037	7.788630	29.307997	83	86	93
28.361124	7.792925	28.837189	82	82	89
29.028843	7.797513	28.339752	81	80	87
29.714127	7.802996	27.761444	76	78	85
30.409222	7.808926	27.142622	74	77	85
31.101997	7.814627	26.544128	76	74	83
32.022934	7.821927	25.772890	73	75	77
32.723583	7.827830	25.155600	70	71	78
33.198128	7.832109	24.712864	70	70	79
33.437325	7.834334	24.483761	71	73	77
33.918694	7.838906	24.014452	75	76	80
34.646675	7.845984	23.290304	77	80	84
35.136063	7.850853	22.793783	82	82	88
35.878475	7.858495	22.018188	76	76	87
36.381081	7.863921	21.471014	76	77	87
36.891594	7.869699	20.891838	81	80	84
38.982468	7.894703	18.402514	81	80	88
39.508759	7.900978	17.777639	80	85	88
40.040234	7.907450	17.134666	85	85	90
40.854111	7.917871	16.105461	90	89	95
41.408756	7.925333	15.372539	88	92	98
42.541996	7.941219	13.818871	91	93	99
42.830650	7.945405	13.410856	91	92	99
43.121902	7.949700	12.993055	87	92	99
43.712788	7.958636	12.125782	91	91	94
44.926582	7.977807	10.272930	89	90	94
45.547741	7.987945	9.296021	89	94	96
46.179955	7.998520	8.279276	92	94	96
46.826897	8.009702	7.207323	93	93	99
47.156731	8.015557	6.647221	92	93	98
47.490860	8.021591	6.070951	92	93	96
47.829147	8.027795	5.479193	88	93	93
48.517891	8.040692	4.250948	85	88	96
48.868488	8.047391	3.614028	87	88	92
49.223331	8.054259	2.961629	88	88	92
49.943535	8.068398	1.620242	90	89	94
50.305412	8.075502	0.946144	85	86	92
51.014801	8.088948	-0.333092	80	82	87
51.670834	8.099800	-1.377523	81	82	87
52.247608	8.106896	-2.081549	81	85	88
-58.507141	7.992492	6.143688	103	104	113
-58.093346	7.986903	6.593371	103	104	113
-57.885475	7.983501	6.873715	103	104	113
-57.678265	7.980281	7.137376	99	103	105
-56.005806	7.940693	10.510319	98	98	103
-55.803516	7.938643	10.667797	98	98	103
-55.599819	7.935644	10.911809	100	102	107
-55.190121	7.927712	11.576444	102	103	108
-54.377251	7.913747	12.733010	100	103	105
-53.974903	7.908606	13.143507	98	100	106
-51.375042	7.869232	16.358496	89	93	97
-50.783443	7.864504	16.702868	88	92	98
-50.191135	7.855927	17.399355	90	91	95
-49.600540	7.846253	18.196383	86	90	94
-49.011757	7.833641	19.262644	84	88	92
-48.621017	7.825654	19.935200	84	86	92
-48.231602	7.819413	20.448128	87	87	95
-47.261570	7.807898	21.357130	86	88	92
-46.681824	7.800651	21.933764	83	86	89
-46.103764	7.793434	22.507904	82	85	90
-45.527359	7.786285	23.076069	81	83	89
-44.953316	7.778237	23.726820	81	85	90
-44.572197	7.772273	24.215776	82	88	89
-41.913189	7.742814	26.514696	87	92	97
-41.723976	7.741039	26.648909	87	92	97
-40.967903	7.734261	27.156281	89	91	98
-38.887367	7.720963	28.062841	87	92	96
-38.701046	7.718714	28.240738	88	91	97
-38.327473	7.714846	28.538984	101	99	108
-37.582035	7.707134	29.133484	95	98	107
-37.028080	7.699997	29.703867	95	99	105
-36.470493	7.694775	30.098579	94	97	99
-36.285877	7.692685	30.262215	96	98	101
-35.730713	7.687191	30.682150	96	97	105
-35.545376	7.685544	30.805159	98	100	106
-35.360138	7.683908	30.927328	97	100	108
-34.805180	7.678985	31.294970	97	100	110
-34.620388	7.677359	31.416229	97	101	106
-34.435638	7.675758	31.535152	99	101	105
-33.881172	7.671224	31.867279	99	102	106
-33.696198	7.669821	31.968056	97	99	102
-33.511154	7.668467	32.064434	93	98	102
-33.141048	7.665842	32.249371	95	99	107
-32.771385	7.663198	32.436180	98	102	107
-32.586899	7.661820	32.534710	101	103	107
-32.218807	7.658912	32.745892	99	100	108
-31.668438	7.654302	33.085659	101	104	113
-31.301880	7.651280	33.307472	104	107	111
-31.118460	7.649845	33.411472	98	100	108
-30.566856	7.646002	33.680779	95	99	104
-30.382490	7.644880	33.755955	98	103	109
-30.197968	7.643812	33.826187	99	103	108
-30.013418	7.642766	33.894386	101	101	109
-29.829006	7.641705	33.964001	100	106	113
-29.461189	7.639403	34.119682	100	101	107
-29.277971	7.638127	34.209145	97	103	107
-28.912807	7.635357	34.408154	96	100	107
-28.730618	7.633920	34.512455	97	100	106
-28.548468	7.632497	34.615520	97	100	106
-27.817808	7.627433	34.969891	96	99	104
-27.634478	7.626346	35.041992	94	96	105
-27.451006	7.625302	35.110134	95	98	105
-27.084078	7.623252	35.243027	97	102	107
-26.717714	7.621144	35.381287	90	93	100
-26.352001	7.618965	35.526081	89	92	98
-26.169256	7.617875	35.598549	90	92	98
-25.803667	7.615755	35.738052	93	93	98
-25.620745	7.614737	35.803898	92	92	99
-25.254681	7.612777	35.928635	95	96	101
-24.705954	7.609856	36.114117	97	97	103
-24.341291	7.607761	36.251358	91	96	105
-24.159433	7.606651	36.325844	96	97	109
-23.977854	7.605505	36.403580	103	105	127
-23.796482	7.604338	36.483356	101	103	111
-23.071468	7.599722	36.797554	92	96	103
-22.708221	7.597610	36.936584	98	100	106
-22.526140	7.596645	36.997765	96	99	105
-22.163216	7.594548	37.135544	90	92	98
-21.630106	7.589734	37.496479	89	91	95
-21.451231	7.588347	37.596733	89	91	96
-21.264761	7.588136	37.588219	95	93	95
-20.889824	7.588012	37.543610	86	89	96
-20.704580	7.587613	37.552528	88	94	97
-20.338152	7.586218	37.625477	93	94	97
-19.974075	7.584503	37.728111	89	90	94
-19.792215	7.583632	37.780777	84	92	94
-19.246372	7.581098	37.931194	87	88	95
-19.064707	7.580228	37.983688	88	86	93
-18.883764	7.579264	38.044891	83	86	89
-18.523327	7.577162	38.183498	85	87	91
-18.157486	7.575836	38.250237	85	87	89
-17.973207	7.575365	38.265877	91	93	96
-17.608749	7.573879	38.347473	83	87	92
-16.163240	7.566574	38.800335	81	86	89
-15.799925	7.565064	38.884216	80	83	87
-15.435679	7.563693	38.955364	80	83	87
-15.254430	7.562906	39.000370	77	82	87
-14.345121	7.559422	39.183491	84	87	94
-14.162121	7.558876	39.206184	86	88	98
-13.979630	7.558272	39.234253	87	94	103
-13.616094	7.556902	39.305325	85	88	95
-13.251251	7.555703	39.360645	91	93	99
-13.067665	7.555244	39.375278	89	91	98
-12.699924	7.554397	39.397968	90	93	97
-12.332758	7.553489	39.426220	92	94	101
-12.149199	7.553036	39.440353	90	95	101
-11.781959	7.552147	39.466866	89	93	98
-11.415023	7.551231	39.495937	90	94	99
-11.231894	7.550739	39.513706	90	95	101
-10.866599	7.549654	39.558441	92	97	101
-10.502571	7.548443	39.614971	91	91	96
-10.320903	7.547805	39.646259	89	92	97
-9.957837	7.546511	39.710575	90	92	97
-9.412864	7.544634	39.800983	92	94	101
-8.867012	7.542878	39.880264	90	93	97
-8.684822	7.542323	39.903885	90	92	96
-8.502413	7.541793	39.925171	90	91	95
-8.136611	7.540840	39.957836	88	92	97
-7.769446	7.540031	39.977081	93	99	102
-7.585618	7.539652	39.984268	93	99	102
-7.218414	7.538854	40.002579	89	95	99
-6.852554	7.537927	40.032818	87	90	98
-6.670004	7.537429	40.051178	87	90	98
-6.304637	7.536464	40.084961	91	94	101
-5.937659	7.535661	40.103672	88	91	97
-5.753460	7.535329	40.106567	91	95	99
-5.384456	7.534725	40.106876	94	94	104
-5.016280	7.534042	40.114380	96	96	103
-4.832933	7.533633	40.124538	91	92	103
-4.467817	7.532670	40.158203	92	98	104
-4.104986	7.531503	40.210857	102	105	108
-3.924935	7.530798	40.248493	105	107	111
-3.568409	7.529073	40.353096	99	104	111
-3.210683	7.527477	40.445854	92	94	101
-3.025866	7.527219	40.441814	93	97	106
-2.645888	7.527626	40.347946	95	98	106
-2.268548	7.527783	40.277252	97	103	103
-2.081627	7.527704	40.256660	98	100	103
-1.706864	7.527620	40.208431	96	102	108
-1.518692	7.527644	40.178188	99	103	107
-1.142134	7.527703	40.116634	96	103	102
-0.766916	7.527637	40.066692	98	105	109
-0.580080	7.527535	40.048138	99	104	108
-0.208035	7.527190	40.024254	101	101	108
0.161972	7.526670	40.016632	114	115	120
0.346383	7.526360	40.017475	106	110	114
0.714865	7.525713	40.021729	99	107	109
1.084604	7.525170	40.016220	97	101	105
1.270541	7.524986	40.005318	104	105	111
1.644985	7.524826	39.964195	102	113	116
1.833304	7.524832	39.935543	104	108	112
2.211089	7.524930	39.870228	100	101	108
2.777693	7.525053	39.774494	103	106	115
3.341799	7.524957	39.699081	105	107	112
3.528966	7.524854	39.680634	102	107	111
3.715606	7.524707	39.666164	103	110	111
4.087368	7.524295	39.648483	99	103	114
4.457916	7.523786	39.639755	100	102	113
4.643232	7.523535	39.635117	100	102	113
5.015068	7.523123	39.617336	102	102	111
5.201938	7.522988	39.601768	102	103	109
5.577833	7.522879	39.555740	97	99	107
5.955750	7.522914	39.496140	102	106	114
6.144950	7.522946	39.464951	100	102	110
6.523219	7.522995	39.404076	100	106	111
6.901831	7.523061	39.341610	98	100	105
7.091725	7.523133	39.306648	99	101	109
8.243324	7.524397	39.019203	91	94	102
8.630819	7.525052	38.901566	93	98	103
9.019571	7.525778	38.777069	93	97	101
9.214006	7.526140	38.715023	94	97	103
9.601554	7.526756	38.600777	94	98	103
9.985958	7.527138	38.508480	96	96	105
10.177061	7.527248	38.469910	91	94	100
10.367834	7.527333	38.433716	93	98	98
10.558717	7.527423	38.397034	95	95	100
10.750157	7.527548	38.356979	97	94	100
11.136021	7.527996	38.258469	96	96	109
11.330699	7.528334	38.198502	95	97	108
11.526414	7.528738	38.132294	93	94	103
11.919713	7.529661	37.989250	95	93	102
12.509154	7.530975	37.781067	99	104	111
12.704862	7.531353	37.717339	93	97	102
12.900444	7.531718	37.654766	91	95	99
13.292741	7.532510	37.523708	91	93	97
13.688537	7.533516	37.372635	90	93	99
13.887888	7.534107	37.288845	93	96	101
14.087935	7.534738	37.201279	95	95	99
14.488966	7.536044	37.021980	92	95	102
15.090732	7.537974	36.755596	98	103	110
15.492700	7.539284	36.575817	94	96	100
15.694051	7.539953	36.484505	98	97	103
15.895425	7.540619	36.393578	90	92	99
16.096498	7.541260	36.304951	90	91	98
16.296923	7.541854	36.220680	89	92	97
16.694988	7.542852	36.069962	92	93	100
16.892752	7.543265	36.002697	97	98	111
17.090145	7.543651	35.937973	93	99	110
17.485998	7.544476	35.803406	95	99	107
17.886145	7.545550	35.645432	101	103	109
18.088181	7.546201	35.555763	93	96	103
18.495342	7.547675	35.360153	96	98	103
18.699984	7.548468	35.257076	94	96	100
19.110607	7.550117	35.044979	95	100	104
19.316505	7.550967	34.936466	95	98	112
19.729490	7.552720	34.714500	96	98	107
19.936584	7.553622	34.601025	96	98	105
20.144083	7.554542	34.485886	95	96	102
20.352007	7.555480	34.368984	94	98	104
20.560379	7.556439	34.250214	96	100	108
20.769213	7.557418	34.129498	92	97	106
21.188141	7.559429	33.883015	94	96	104
21.608126	7.561473	33.633316	97	97	103
21.818295	7.562495	33.508492	91	91	99
22.028595	7.563517	33.383606	93	93	100
22.239143	7.564546	33.258011	92	93	98
22.450115	7.565593	33.130779	90	93	98
22.873825	7.567766	32.868702	91	95	99
23.086540	7.568891	32.734035	95	96	100
23.512735	7.571162	32.462681	95	97	101
23.725706	7.572278	32.328739	98	96	104
23.938370	7.573370	32.197132	98	100	106
24.150736	7.574438	32.067787	98	98	108
24.362974	7.575490	31.939785	100	99	107
24.788294	7.577622	31.681282	92	96	103
25.217173	7.579925	31.406630	91	93	99
25.433714	7.581182	31.259298	94	93	101
25.651850	7.582520	31.104332	94	95	99
26.092642	7.585421	30.773163	93	95	100
26.537716	7.588521	30.423073	94	94	102
26.760912	7.590094	30.245924	90	92	97
27.206562	7.593168	29.898106	86	89	96
27.649109	7.596037	29.569633	85	87	93
27.868992	7.597382	29.413731	85	87	89
28.088297	7.598688	29.261549	84	86	92
28.527637	7.601315	28.955698	83	82	87
28.972664	7.604213	28.624102	82	81	86
29.198488	7.605826	28.442822	85	81	87
29.656445	7.609359	28.051256	78	78	85
30.119482	7.613119	27.638100	78	78	81
30.351389	7.615004	27.431091	78	79	82
30.813719	7.618662	27.027380	77	76	81
31.043806	7.620419	26.832302	76	76	80
31.273302	7.622135	26.641071	75	74	79
31.502541	7.623827	26.452011	74	72	77
31.962130	7.627241	26.071123	74	74	75
32.193424	7.629010	25.874708	75	76	76
32.660530	7.632752	25.462681	70	74	77
33.372520	7.638865	24.797127	71	73	74
33.852837	7.643171	24.331423	74	75	76
34.579098	7.649836	23.613302	79	82	83
35.067188	7.654416	23.121445	80	80	85
35.807419	7.661597	22.353889	78	78	87
36.308441	7.666696	21.812645	79	79	81
36.817444	7.672135	21.238981	80	78	87
37.075089	7.674989	20.939430	78	80	84
37.334553	7.677918	20.632776	80	83	83
37.595402	7.680899	20.321053	80	82	84
38.119328	7.686925	19.691521	78	81	86
38.381649	7.689932	19.377220	81	80	85
38.643997	7.692926	19.064184	82	82	95
38.906464	7.695910	18.752003	82	81	89
39.432835	7.701902	18.125206	85	86	88
39.963783	7.708054	17.483109	85	86	92
40.502655	7.714523	16.810762	85	89	94
40.775749	7.717909	16.460245	87	89	96
41.329258	7.724977	15.730905	90	90	98
42.460720	7.740060	14.182074	90	92	98
43.331261	7.752208	12.940658	94	92	98
45.763786	7.788870	9.223189	87	92	95
64.433792	8.180377	-29.385069	93	96	107
-58.083736	7.781311	7.008613	102	104	115
-57.461239	7.771368	7.864034	99	104	109
-56.204472	7.741147	10.562812	98	100	105
-55.799114	7.736734	10.922401	98	100	105
-55.391659	7.730652	11.441486	101	105	109
-55.188137	7.727504	11.711245	105	106	111
-54.985031	7.724453	11.971885	105	106	111
-54.782143	7.721375	12.235089	103	106	112
-54.579407	7.718227	12.505013	97	103	109
-54.174194	7.711552	13.081252	97	99	106
-52.157642	7.670219	16.726036	94	97	106
-51.960701	7.669176	16.795319	93	95	101
-51.569355	7.670016	16.653927	91	94	98
-48.426262	7.623742	20.596510	86	88	93
-48.037663	7.619530	20.939373	88	88	94
-47.843613	7.617475	21.106033	86	87	92
-47.456051	7.613130	21.461805	85	87	92
-47.262550	7.610885	21.646688	86	88	92
-47.069237	7.608611	21.834414	87	89	92
-46.490456	7.601682	22.407972	83	87	91
-46.297916	7.599356	22.600761	83	87	91
-45.913406	7.594691	22.987658	83	85	90
-45.721451	7.592338	23.183134	81	84	90
-45.338215	7.587493	23.587492	83	85	90
-45.146992	7.584939	23.802328	83	84	87
-44.765320	7.579673	24.247284	82	86	90
-42.106712	7.550447	26.632454	87	90	94
-41.349865	7.544058	27.126545	86	90	96
-41.161343	7.542239	27.271355	89	96	102
-39.073742	7.532598	27.869688	94	100	99
-38.886177	7.530898	28.003292	90	94	99
-38.700054	7.528641	28.190413	89	93	98
-38.514977	7.526024	28.412317	91	93	100
-38.328384	7.524118	28.565786	91	93	100
-38.141392	7.522435	28.697908	92	95	102
-37.768757	7.518696	28.997978	96	98	104
-37.403622	7.512374	29.546556	97	100	109
-37.221092	7.509348	29.807968	99	104	113
-37.036030	7.507331	29.972343	96	97	103
-36.848103	7.506389	30.033352	95	96	100
-36.476830	7.502993	30.300800	92	96	102
-36.109924	7.498320	30.691183	94	97	102
-35.924770	7.496636	30.823612	95	98	104
-35.553974	7.493548	31.061663	97	99	106
-35.368793	7.491992	31.181831	96	100	103
-34.999054	7.488799	31.430101	98	100	107
-34.629936	7.485568	31.682068	96	100	102
-34.076267	7.480986	32.034744	98	103	109
-33.891491	7.479585	32.140095	99	104	110
-33.706585	7.478251	32.239151	99	106	109
-33.521576	7.476970	32.332977	97	105	105
-33.151497	7.474499	32.511974	97	101	107
-32.781868	7.472005	32.693272	97	100	107
-32.597404	7.470703	32.789272	99	102	108
-32.045746	7.466511	33.104919	100	104	110
-31.862352	7.465044	33.216854	104	109	111
-31.679113	7.463566	33.329800	102	107	117
-31.312803	7.460652	33.551849	99	102	109
-30.946142	7.457922	33.756321	99	102	110
-30.762480	7.456666	33.847908	99	102	110
-30.578545	7.455494	33.931553	99	102	108
-30.394360	7.454397	34.008003	99	102	109
-30.025616	7.452333	34.148186	100	104	110
-29.290674	7.447849	34.463242	98	103	107
-29.108006	7.446547	34.559513	94	100	108
-28.925690	7.445191	34.660904	97	98	106
-28.561514	7.442451	34.866734	93	97	101
-28.196913	7.439876	35.056564	95	98	105
-28.014193	7.438698	35.140858	94	99	101
-27.647896	7.436558	35.288784	94	96	100
-26.914444	7.432604	35.553303	94	99	107
-26.731447	7.431578	35.623032	94	100	106
-26.365982	7.429470	35.768066	89	91	97
-26.183380	7.428411	35.840992	88	90	97
-25.269463	7.423467	36.172276	94	95	104
-24.903732	7.421596	36.294514	96	98	103
-24.721113	7.420634	36.358150	95	99	106
-24.538757	7.419640	36.425011	95	94	104
-23.812057	7.415329	36.724625	101	100	107
-23.630741	7.414225	36.802235	96	98	100
-23.449366	7.413142	36.877705	94	97	102
-23.267820	7.412097	36.949448	90	92	103
-23.086000	7.411108	37.015911	90	95	99
-22.356829	7.407539	37.244167	90	93	95
-22.176247	7.406410	37.324177	87	90	96
-21.818672	7.403652	37.532608	90	92	100
-19.810610	7.395242	38.025425	91	95	102
-19.264761	7.392833	38.171101	88	92	99
-19.082947	7.392025	38.220154	97	90	97
-18.901413	7.391187	38.272186	84	86	94
-17.991598	7.387375	38.495586	91	90	97
-17.629168	7.385699	38.599621	88	91	98
-17.270638	7.383557	38.748966	87	90	97
-17.094946	7.382051	38.865879	87	89	96
-15.451281	7.376571	39.134750	82	86	90
-14.906049	7.374498	39.248367	84	89	91
-13.992757	7.371654	39.378559	88	90	92
-13.630800	7.370158	39.465416	86	91	96
-13.269049	7.368659	39.552589	88	92	98
-11.989654	7.364993	39.704498	91	95	99
-11.806323	7.364539	39.719433	88	91	97
-11.257145	7.363101	39.771595	89	94	98
-10.710174	7.361452	39.844376	89	91	97
-10.528331	7.360858	39.872963	90	94	98
-10.346652	7.360250	39.902897	90	98	100
-9.801975	7.358408	39.994434	90	93	99
-9.620358	7.357807	40.023758	90	93	100
-9.438657	7.357217	40.051979	89	92	100
-9.074959	7.356075	40.104717	90	96	99
-8.710694	7.354999	40.150986	86	91	95
-8.528215	7.354499	40.170471	89	91	95
-8.162270	7.353601	40.199532	99	99	106
-6.331195	7.349321	40.324219	89	94	101
-5.595323	7.347958	40.340160	91	94	101
-5.226522	7.347357	40.340244	93	96	102
-5.042719	7.347003	40.345501	93	95	102
-4.676786	7.346149	40.370384	96	100	106
-4.494554	7.345658	40.388992	96	103	107
-3.950101	7.344000	40.463009	109	108	113
-1.921880	7.340756	40.457825	100	102	110
-1.547346	7.340646	40.410049	98	102	109
-1.359576	7.340629	40.382362	97	100	106
-0.797114	7.340498	40.307301	95	101	105
1.612830	7.337614	40.208168	101	105	108
1.989539	7.337622	40.148758	101	104	113
2.178339	7.337657	40.116013	99	101	109
2.555751	7.337705	40.052616	103	107	115
2.932196	7.337671	39.997242	102	106	116
3.867732	7.337138	39.902618	102	107	111
4.053798	7.336950	39.891605	98	105	114
4.610878	7.336301	39.866985	99	101	119
5.169448	7.335756	39.832214	97	101	110
5.356693	7.335649	39.813309	102	103	108
5.732957	7.335558	39.763386	98	101	111
5.921739	7.335557	39.734116	111	116	117
6.299807	7.335584	39.672642	97	102	107
6.867847	7.335675	39.575439	95	98	101
7.057899	7.335750	39.538620	93	97	106
7.439655	7.336008	39.454422	96	99	103
7.631302	7.336186	39.407505	96	101	103
7.823341	7.336389	39.358231	98	99	104
8.015697	7.336609	39.307144	94	94	100
8.401329	7.337103	39.199757	95	96	100
9.176615	7.338320	38.962421	92	98	102
9.563892	7.338881	38.848381	96	100	104
9.948371	7.339241	38.754032	99	102	107
10.713113	7.339648	38.595970	92	93	96
11.684577	7.341105	38.305035	95	99	104
12.077063	7.341914	38.166496	93	94	100
12.468625	7.342646	38.035400	93	97	103
12.663933	7.342975	37.973396	94	96	100
13.054841	7.343642	37.848671	94	100	99
13.251195	7.344026	37.781288	95	100	102
13.448545	7.344469	37.708141	91	91	100
13.846408	7.345538	37.543720	89	93	97
14.247129	7.346766	37.363773	98	98	103
14.447842	7.347393	37.272446	99	96	99
14.648536	7.348013	37.181763	95	96	97
15.049910	7.349236	37.002048	95	99	108
15.451999	7.350482	36.820114	94	97	101
15.653406	7.351119	36.727757	90	93	96
16.256395	7.352922	36.461151	91	97	98
16.851902	7.354231	36.243015	96	97	101
17.444252	7.355315	36.046913	97	97	104
17.843653	7.356284	35.891899	95	99	103
18.045279	7.356874	35.803913	98	101	110
18.860151	7.359673	35.408958	95	95	102
19.065138	7.360432	35.304340	95	97	102
19.270594	7.361212	35.197624	95	99	105
19.890196	7.363701	34.862732	96	98	104
20.514120	7.366378	34.509079	96	98	105
21.559126	7.370998	33.903847	94	95	104
21.768576	7.371927	33.782253	89	91	101
22.399303	7.374805	33.408337	89	93	96
22.610861	7.375823	33.277847	91	93	99
22.823156	7.376875	33.144032	90	94	99
23.036045	7.377953	33.007710	94	94	100
23.249256	7.379040	32.870346	96	98	103
24.951059	7.387268	31.817209	92	96	106
25.166201	7.388394	31.675833	94	95	101
25.382952	7.389598	31.526716	94	95	101
26.043041	7.393684	31.032497	91	94	100
26.265625	7.395164	30.856113	92	92	99
26.488829	7.396667	30.677402	93	94	102
26.935198	7.399643	30.322838	89	95	99
27.157501	7.401071	30.151421	87	89	97
27.378796	7.402438	29.986044	87	88	92
27.598965	7.403738	29.827257	85	87	93
27.818127	7.404977	29.674408	84	87	90
28.474443	7.408588	29.226280	84	85	91
28.695196	7.409879	29.068329	84	85	89
28.918022	7.411266	28.900675	84	83	90
29.143211	7.412766	28.721916	84	81	90
29.600227	7.416076	28.333721	81	82	87
30.062860	7.419631	27.921225	79	77	84
30.294710	7.421419	27.713808	82	80	85
30.756931	7.424891	27.309290	77	77	84
30.986843	7.426552	27.114403	76	74	81
31.444883	7.429756	26.736183	73	74	84
32.134323	7.434609	26.163916	71	74	79
32.366642	7.436332	25.962753	73	76	81
32.600609	7.438125	25.754526	73	75	79
32.836185	7.439988	25.539450	73	74	75
33.073215	7.441910	25.318359	74	72	76
33.311466	7.443882	25.092400	73	73	79
33.550713	7.445891	24.862709	75	73	83
33.790764	7.447928	24.630203	73	74	83
34.031513	7.449988	24.395451	76	78	80
34.272919	7.452068	24.158628	77	79	83
34.515030	7.454170	23.919544	78	82	86
34.757942	7.456300	23.677742	80	83	91
35.001781	7.458462	23.432642	81	81	91
35.246685	7.460664	23.183628	80	80	87
35.492790	7.462911	22.930063	79	79	87
35.740253	7.465210	22.671261	79	78	89
35.989258	7.467571	22.406374	79	79	89
36.240028	7.470003	22.134415	80	82	94
36.492764	7.472514	21.854469	80	81	98
37.004494	7.477793	21.269197	79	80	84
37.523434	7.483354	20.655735	80	83	87
37.784626	7.486193	20.343079	82	84	89
38.046394	7.489045	20.029167	82	81	87
38.308445	7.491895	19.715345	79	81	91
38.570667	7.494739	19.402149	82	82	89
38.833103	7.497578	19.089355	81	81	92
39.359432	7.503279	18.461245	84	83	87
39.623955	7.506171	18.143093	86	87	91
39.889896	7.509113	17.819878	87	88	92
40.157684	7.512125	17.489710	87	89	97
40.700169	7.518417	16.802479	88	88	93
40.975193	7.521712	16.444050	90	91	96
41.252663	7.525102	16.076191	89	93	94
41.813984	7.532119	15.316676	91	90	95
42.097389	7.535725	14.927120	94	92	98
42.382511	7.539391	14.531588	91	93	94
42.669453	7.543120	14.129657	91	89	94
43.249733	7.550811	13.302630	87	91	97
43.840054	7.558875	12.438387	89	90	95
44.139153	7.563052	11.991688	89	90	94
44.440693	7.567317	11.536172	92	94	97
45.050285	7.576075	10.602427	89	89	96
45.668797	7.585141	9.637717	87	91	94
45.982426	7.589834	9.139410	87	89	93
46.299843	7.594670	8.626760	88	89	92
46.621613	7.599673	8.097425	89	92	92
46.948025	7.604855	7.550241	91	95	95
47.279072	7.610214	6.985384	93	95	97
47.954105	7.621418	5.807152	89	90	96
48.645344	7.633216	4.569445	90	88	90
49.353302	7.645623	3.270773	87	87	91
49.713234	7.652040	2.600157	88	89	93
50.800327	7.671426	0.574002	82	81	90
51.156040	7.677548	-0.067826	79	79	85
51.503311	7.683287	-0.671538	77	81	84
52.169136	7.693478	-1.751361	81	84	87
52.500095	7.698457	-2.279822	82	86	88
62.740395	7.966893	-29.585972	105	106	128
62.955532	7.966422	-29.574333	104	105	140
63.169392	7.965899	-29.557617	104	103	140
63.805546	7.964119	-29.486176	101	100	122
64.224167	7.962718	-29.417210	95	98	114
-59.962147	7.607252	4.603649	108	109	114
-59.753986	7.604814	4.814739	108	109	116
-59.106308	7.588247	6.373785	105	108	113
-58.900589	7.586257	6.540177	105	108	113
-58.695705	7.584532	6.680161	105	108	113
-58.489685	7.582294	6.871377	105	108	113
-58.282661	7.579571	7.111241	101	105	105
-57.866661	7.572993	7.704374	100	102	110
-57.450314	7.565746	8.364737	100	102	110
-56.608856	7.545108	10.301241	100	102	104
-56.405567	7.542882	10.491810	98	102	104
-55.999168	7.538232	10.892826	100	102	106
