22.62902260 -43.39830399 10.14161968 0.481475 -0.853455 0.199490
23.40973282 -43.03687286 9.80600357 0.481475 -0.853455 0.199490
23.39347076 -42.92873001 10.30593586 0.481475 -0.853455 0.199490
23.45521164 -42.95498657 10.04569244 0.481475 -0.853455 0.199490
23.45716667 -42.89988708 10.27580452 0.481475 -0.853455 0.199490
22.85875893 -43.22207642 10.34061909 0.481475 -0.853455 0.199490
23.09037018 -43.25185394 9.65718746 0.481475 -0.853455 0.199490
23.23726654 -43.28972626 9.14282608 0.481475 -0.853455 0.199490
23.17202187 -43.36310959 8.98686123 0.481475 -0.853455 0.199490
23.70823669 -42.82514572 9.99104977 0.481475 -0.853455 0.199490
-24.20265007 -42.36016846 10.78462982 -0.481475 -0.853455 0.199490
-25.57682610 -41.82560349 9.76084423 -0.481475 -0.853455 0.199490
-24.22993851 -42.39242554 10.58159351 -0.481475 -0.853455 0.199490
-23.10134125 -43.04032898 10.53228092 -0.481475 -0.853455 0.199490
-23.66241074 -42.76169586 10.37155628 -0.481475 -0.853455 0.199490
-25.21045685 -41.81171799 10.70035267 -0.481475 -0.853455 0.199490
-23.42718315 -42.85586548 10.53545666 -0.481475 -0.853455 0.199490
-25.67063522 -41.74491119 9.87931538 -0.481475 -0.853455 0.199490
-24.99382591 -41.90266037 10.83331871 -0.481475 -0.853455 0.199490
-24.24710846 -42.37543106 10.61276531 -0.481475 -0.853455 0.199490
-24.90112495 -42.06666946 10.35710812 -0.481475 -0.853455 0.199490
-24.00858688 -42.46079636 10.82209206 -0.481475 -0.853455 0.199490
-25.10941505 -41.76968002 11.12228489 -0.481475 -0.853455 0.199490
-24.33135033 -42.14097595 11.37734222 -0.465342 -0.853380 0.234945
-22.44322586 -43.32693863 10.80802059 -0.465342 -0.853380 0.234945
-22.10504913 -43.54890060 10.67138863 -0.465342 -0.853380 0.234945
-23.27598000 -42.65603256 11.59587193 -0.465342 -0.853380 0.234945
-22.78617859 -43.12709427 10.85489464 -0.465342 -0.853380 0.234945
-21.78587341 -43.48389435 11.53902435 -0.465342 -0.853380 0.234945
-23.92310905 -42.31211853 11.56386566 -0.465342 -0.853380 0.234945
-22.01708984 -43.54550171 10.85779572 -0.465342 -0.853380 0.234945
-22.51894569 -43.18881989 11.15963459 -0.465342 -0.853380 0.234945
-22.41487694 -43.47734451 10.31805325 -0.465342 -0.853380 0.234945
-23.17189598 -42.94164276 10.76489258 -0.465342 -0.853380 0.234945
-22.45526886 -43.23616409 11.11375809 -0.465342 -0.853380 0.234945
24.41024590 -42.06930542 11.48143005 0.465342 -0.853380 0.234945
24.34490585 -41.94871521 12.04855919 0.465342 -0.853380 0.234945
23.19340897 -42.89982986 10.87413979 0.465342 -0.853380 0.234945
23.29638481 -42.62609863 11.66416836 0.465342 -0.853380 0.234945
24.73545456 -41.71022797 12.14154434 0.465342 -0.853380 0.234945
24.69086075 -41.92740250 11.44131088 0.465342 -0.853380 0.234945
23.70298386 -42.16035461 12.55048752 0.465342 -0.853380 0.234945
24.51311111 -42.04461288 11.36750793 0.465342 -0.853380 0.234945
23.99478722 -42.34037018 11.31946182 0.465342 -0.853380 0.234945
23.93971252 -42.12932968 12.19465733 0.465342 -0.853380 0.234945
24.08333969 -42.00091934 12.37664032 0.465342 -0.853380 0.234945
24.75855255 -41.82735825 11.67056751 0.465342 -0.853380 0.234945
23.11430550 -42.75167084 11.56857872 0.465342 -0.853380 0.234945
22.62160873 -43.21834564 10.84927559 0.465342 -0.853380 0.234945
21.90441132 -43.37187195 11.71115589 0.465342 -0.853380 0.234945
22.34199142 -43.32967377 10.99843884 0.465342 -0.853380 0.234945
22.66647148 -43.04486847 11.39032841 0.465342 -0.853380 0.234945
22.38083076 -42.95652390 12.27633762 0.465342 -0.853380 0.234945
21.88608932 -43.39798737 11.65261078 0.465342 -0.853380 0.234945
21.85814095 -43.35927963 11.84845066 0.465342 -0.853380 0.234945
22.78835297 -42.94382858 11.51596260 0.465342 -0.853380 0.234945
22.22084999 -43.22423935 11.62094021 0.465342 -0.853380 0.234945
23.31337738 -42.40625763 12.42870998 0.465342 -0.853380 0.234945
22.12649536 -43.53497314 10.67950439 0.465342 -0.853380 0.234945
23.01113701 -42.71486664 11.90637779 0.465342 -0.853380 0.234945
-23.90476608 -42.29832458 11.65025330 -0.465342 -0.853380 0.234945
-23.48361015 -42.20788574 12.81204033 -0.465342 -0.853380 0.234945
-22.91158104 -42.61054611 12.48214245 -0.465342 -0.853380 0.234945
-23.79582596 -42.06586838 12.70981216 -0.465342 -0.853380 0.234945
-22.27890968 -43.01045609 12.28222942 -0.465342 -0.853380 0.234945
-23.40265465 -42.26393509 12.76875496 -0.465342 -0.853380 0.234945
-23.13491440 -42.57880402 12.15541840 -0.465342 -0.853380 0.234945
-22.57970428 -42.97859192 11.80266571 -0.465342 -0.853380 0.234945
-23.31702614 -42.49601364 12.09560585 -0.465342 -0.853380 0.234945
-23.62260818 -42.12347794 12.84342861 -0.465342 -0.853380 0.234945
-23.93892479 -42.11729431 12.23990822 -0.465342 -0.853380 0.234945
-24.28154755 -42.01613235 11.92916775 -0.465342 -0.853380 0.234945
-24.27616310 -41.74917221 12.90906429 -0.465342 -0.853380 0.234945
-23.23977470 -42.19495773 13.27851200 -0.446082 -0.853842 0.268263
-21.48096657 -43.42497253 12.29505444 -0.446082 -0.853842 0.268263
-21.44885445 -43.25213242 12.89761162 -0.446082 -0.853842 0.268263
-23.45029259 -42.17976379 12.97672272 -0.446082 -0.853842 0.268263
-23.05606079 -42.32757568 13.16264343 -0.446082 -0.853842 0.268263
-21.55315590 -43.40583420 12.23581505 -0.446082 -0.853842 0.268263
-23.04841805 -42.42578506 12.86330891 -0.446082 -0.853842 0.268263
-21.69233894 -43.39305496 12.04497623 -0.446082 -0.853842 0.268263
-22.66718483 -42.72208405 12.55581093 -0.446082 -0.853842 0.268263
-22.13280296 -42.99534607 12.57617950 -0.446082 -0.853842 0.268263
-21.69215965 -42.97994995 13.35784340 -0.446082 -0.853842 0.268263
23.67452240 -41.76610565 13.91818047 0.446082 -0.853842 0.268263
23.63568878 -41.95870590 13.37080574 0.446082 -0.853842 0.268263
22.91798973 -42.24433899 13.65669823 0.446082 -0.853842 0.268263
22.52725983 -42.68855667 12.89502239 0.446082 -0.853842 0.268263
22.44166946 -42.53622818 13.52134609 0.446082 -0.853842 0.268263
23.27014923 -42.29162598 12.92085934 0.446082 -0.853842 0.268263
23.18041039 -42.15793610 13.49486256 0.446082 -0.853842 0.268263
22.10430527 -43.10826874 12.26478004 0.446082 -0.853842 0.268263
23.36613655 -42.23501968 12.94110394 0.446082 -0.853842 0.268263
22.21548653 -43.01619339 12.37244606 0.446082 -0.853842 0.268263
22.58596992 -42.69406509 12.77988434 0.446082 -0.853842 0.268263
22.60234833 -42.60358810 13.04012489 0.446082 -0.853842 0.268263
22.15061760 -43.00681686 12.51011753 0.446082 -0.853842 0.268263
21.31857109 -43.47093964 12.41904831 0.446082 -0.853842 0.268263
20.73303795 -43.55954742 13.11117268 0.446082 -0.853842 0.268263
21.12403107 -43.44333267 12.83025074 0.446082 -0.853842 0.268263
21.22481155 -43.28948212 13.15149879 0.446082 -0.853842 0.268263
22.51369095 -42.13341904 14.68143177 0.446082 -0.853842 0.268263
22.00625992 -42.80310822 13.39740372 0.446082 -0.853842 0.268263
21.81019592 -42.71513748 14.00294304 0.446082 -0.853842 0.268263
22.37070084 -42.39089203 14.10112476 0.446082 -0.853842 0.268263
21.08652115 -43.37483215 13.11028385 0.446082 -0.853842 0.268263
21.48465347 -43.37594604 12.44468307 0.446082 -0.853842 0.268263
21.53309631 -43.47214890 12.05846214 0.446082 -0.853842 0.268263
-22.61291695 -42.14427185 14.48194695 -0.446082 -0.853842 0.268263
-22.62550545 -42.08011627 14.66486454 -0.446082 -0.853842 0.268263
-22.75360298 -42.34767151 13.60173988 -0.446082 -0.853842 0.268263
-22.32748985 -42.53093719 13.72801399 -0.446082 -0.853842 0.268263
-22.32385826 -42.51567078 13.78256798 -0.446082 -0.853842 0.268263
-21.60956383 -42.98483658 13.47966290 -0.446082 -0.853842 0.268263
-22.88622665 -42.35700607 13.35154057 -0.446082 -0.853842 0.268263
-23.23473167 -42.12842941 13.49827957 -0.446082 -0.853842 0.268263
-22.00391579 -42.61516571 13.99845409 -0.446082 -0.853842 0.268263
-22.14767265 -42.47939301 14.19080544 -0.446082 -0.853842 0.268263
-23.45007896 -41.94596481 13.71993065 -0.446082 -0.853842 0.268263
-22.83709526 -42.02435303 14.49019051 -0.446082 -0.853842 0.268263
-21.78953743 -42.86405563 13.56414509 -0.446082 -0.853842 0.268263
-20.09777832 -43.55352783 14.07234573 -0.424608 -0.853848 0.301086
-20.68298721 -43.14291763 14.40923405 -0.424608 -0.853848 0.301086
-20.90490723 -43.04339218 14.37751579 -0.424608 -0.853848 0.301086
-21.24436569 -42.94083405 14.18800163 -0.424608 -0.853848 0.301086
-22.27569771 -42.28894043 14.57810116 -0.424608 -0.853848 0.301086
-20.04018974 -43.50028610 14.30499458 -0.424608 -0.853848 0.301086
-20.91523170 -43.02555466 14.41353416 -0.424608 -0.853848 0.301086
-21.02069473 -43.03240204 14.24478626 -0.424608 -0.853848 0.301086
-22.72901726 -41.96033478 14.86896324 -0.424608 -0.853848 0.301086
-21.53117752 -42.70498657 14.45133495 -0.424608 -0.853848 0.301086
-22.11020279 -42.28033447 14.83682823 -0.424608 -0.853848 0.301086
-22.10934067 -42.32413101 14.71374512 -0.424608 -0.853848 0.301086
21.64338875 -42.46870804 14.96308708 0.424608 -0.853848 0.301086
21.13340950 -42.78620529 14.78397083 0.424608 -0.853848 0.301086
22.69992447 -41.71459579 15.60762882 0.424608 -0.853848 0.301086
21.11341476 -43.01964188 14.14972115 0.424608 -0.853848 0.301086
21.71362305 -42.54956436 14.63416481 0.424608 -0.853848 0.301086
22.39317322 -41.89308167 15.53533077 0.424608 -0.853848 0.301086
21.79341888 -42.29270172 15.25023746 0.424608 -0.853848 0.301086
21.94553566 -41.70891953 16.69180489 0.424608 -0.853848 0.301086
21.25870323 -42.61982727 15.07881641 0.424608 -0.853848 0.301086
21.56685638 -42.53039932 14.89635277 0.424608 -0.853848 0.301086
21.52097511 -42.56777954 14.85521603 0.424608 -0.853848 0.301086
22.03697968 -42.40674973 14.58170319 0.424608 -0.853848 0.301086
21.76483727 -41.94300842 16.28323174 0.424608 -0.853848 0.301086
20.43851471 -43.50853348 13.71763611 0.424608 -0.853848 0.301086
21.28046608 -42.22750092 16.16152573 0.424608 -0.853848 0.301086
20.56407928 -43.15813446 14.53439331 0.424608 -0.853848 0.301086
20.15523720 -43.08094406 15.33232594 0.424608 -0.853848 0.301086
19.95584679 -43.38496017 14.75174427 0.424608 -0.853848 0.301086
20.75968552 -43.23244858 14.04652214 0.424608 -0.853848 0.301086
20.30983925 -43.59590530 13.65183544 0.424608 -0.853848 0.301086
20.24340820 -43.43775558 14.19476700 0.424608 -0.853848 0.301086
20.96903801 -42.61571503 15.50059414 0.424608 -0.853848 0.301086
20.35995293 -43.23761749 14.59779930 0.424608 -0.853848 0.301086
21.19270897 -42.56758118 15.32053947 0.424608 -0.853848 0.301086
20.90039635 -42.51862717 15.87333775 0.424608 -0.853848 0.301086
-20.57246017 -42.61830902 16.02161217 -0.401538 -0.854237 0.330222
-19.63438606 -43.03167725 16.09640884 -0.401538 -0.854237 0.330222
-21.20429230 -42.15517426 16.44727707 -0.401538 -0.854237 0.330222
-18.66341782 -43.59016800 15.83718204 -0.401538 -0.854237 0.330222
-18.46440315 -43.52853012 16.23791504 -0.401538 -0.854237 0.330222
-19.70714188 -43.38105011 15.10757256 -0.401538 -0.854237 0.330222
-20.61135674 -42.64135361 15.91494751 -0.401538 -0.854237 0.330222
-21.69505692 -41.84967041 16.63815498 -0.401538 -0.854237 0.330222
-20.17727470 -42.91865158 15.72787285 -0.401538 -0.854237 0.330222
-20.50231934 -42.62697220 16.08453178 -0.401538 -0.854237 0.330222
-20.76297760 -42.37308884 16.42203712 -0.401538 -0.854237 0.330222
-20.19319344 -42.69506836 16.28475189 -0.401538 -0.854237 0.330222
-21.96916962 -42.14921188 15.40866947 -0.424608 -0.853848 0.301086
-21.35151482 -42.32115173 15.79513454 -0.424608 -0.853848 0.301086
-21.73931122 -42.18144226 15.64262676 -0.424608 -0.853848 0.301086
-21.55607986 -42.08514404 16.17536354 -0.424608 -0.853848 0.301086
-20.57194901 -42.77078629 15.62265205 -0.424608 -0.853848 0.301086
-21.86101913 -41.95749283 16.10594368 -0.424608 -0.853848 0.301086
-22.05340195 -41.70185471 16.55913734 -0.424608 -0.853848 0.301086
-21.55806351 -42.23659515 15.74269009 -0.424608 -0.853848 0.301086
-22.68901634 -41.78867722 15.41280556 -0.424608 -0.853848 0.301086
-21.71601486 -42.06214905 16.01419640 -0.424608 -0.853848 0.301086
-21.84511566 -41.77019119 16.66007233 -0.424608 -0.853848 0.301086
-20.87100601 -42.60970688 15.65643883 -0.424608 -0.853848 0.301086
-22.10296249 -41.86452484 16.02726364 -0.424608 -0.853848 0.301086
20.53894997 -42.41020203 16.59867859 0.401538 -0.854237 0.330222
20.40947151 -42.57394028 16.33406067 0.401538 -0.854237 0.330222
20.76330185 -42.28638840 16.64509392 0.401538 -0.854237 0.330222
20.85761070 -42.39910126 16.23998833 0.401538 -0.854237 0.330222
20.96875954 -41.77381897 17.71636963 0.401538 -0.854237 0.330222
21.45765114 -41.84312057 16.94357681 0.401538 -0.854237 0.330222
21.40092659 -41.72618484 17.31388664 0.401538 -0.854237 0.330222
20.76589584 -41.80023193 17.89486313 0.401538 -0.854237 0.330222
19.90587997 -43.10797882 15.56979275 0.401538 -0.854237 0.330222
20.96606255 -42.21254349 16.58897018 0.401538 -0.854237 0.330222
20.99492073 -41.88233185 17.40492058 0.401538 -0.854237 0.330222
21.10101318 -41.93819046 17.13200951 0.401538 -0.854237 0.330222
20.44197655 -42.29042816 17.02521706 0.401538 -0.854237 0.330222
18.89043999 -43.15153122 16.69171333 0.401538 -0.854237 0.330222
18.99831581 -43.32188416 16.12157059 0.401538 -0.854237 0.330222
20.04717255 -42.20661545 17.72106552 0.401538 -0.854237 0.330222
18.52730751 -43.46213913 16.33256149 0.401538 -0.854237 0.330222
19.81365395 -42.62706375 16.92130470 0.401538 -0.854237 0.330222
19.31865883 -43.00604248 16.54620361 0.401538 -0.854237 0.330222
20.02184677 -42.69511032 16.49288940 0.401538 -0.854237 0.330222
20.32044983 -41.97848892 17.97684860 0.401538 -0.854237 0.330222
19.99439049 -42.24013519 17.69882774 0.401538 -0.854237 0.330222
18.64969635 -43.54147720 15.97933483 0.401538 -0.854237 0.330222
19.11560822 -43.20688248 16.27539253 0.401538 -0.854237 0.330222
19.06927872 -43.42467499 15.77040863 0.401538 -0.854237 0.330222
-19.62887001 -42.34299850 17.83978653 -0.377751 -0.853437 0.359096
-18.63883972 -42.97411346 17.38035393 -0.377751 -0.853437 0.359096
-17.19781303 -43.56256485 17.49472237 -0.377751 -0.853437 0.359096
-18.18478966 -43.36805725 16.92178726 -0.377751 -0.853437 0.359096
-17.47149658 -43.58365250 17.15790939 -0.377751 -0.853437 0.359096
-18.44914818 -43.28516388 16.84137154 -0.377751 -0.853437 0.359096
-19.59555817 -42.38240814 17.78122330 -0.377751 -0.853437 0.359096
-19.13429832 -42.86668777 17.11594772 -0.377751 -0.853437 0.359096
-18.71563339 -43.20788574 16.74541092 -0.377751 -0.853437 0.359096
-18.59030151 -42.82040024 17.79580307 -0.377751 -0.853437 0.359096
-18.61322403 -43.34633636 16.52434540 -0.377751 -0.853437 0.359096
-20.04372787 -42.64271545 16.60133743 -0.401538 -0.854237 0.330222
-20.10582352 -42.52019501 16.84162521 -0.401538 -0.854237 0.330222
-19.74837875 -42.54014969 17.22462463 -0.401538 -0.854237 0.330222
-20.22726250 -42.52621078 16.67852402 -0.401538 -0.854237 0.330222
-18.92289925 -43.12823486 16.71229553 -0.401538 -0.854237 0.330222
-20.59538460 -42.08849335 17.35919762 -0.401538 -0.854237 0.330222
-19.87287331 -42.40346527 17.42558861 -0.401538 -0.854237 0.330222
-20.68523979 -42.21564102 16.92230415 -0.401538 -0.854237 0.330222
-19.21495819 -42.91189575 16.91488075 -0.401538 -0.854237 0.330222
-19.24597168 -43.07209778 16.46431732 -0.401538 -0.854237 0.330222
-20.45152855 -42.18129730 17.29486465 -0.401538 -0.854237 0.330222
-19.29185677 -42.93339157 16.76602364 -0.401538 -0.854237 0.330222
-19.54363251 -42.75367355 16.92317963 -0.401538 -0.854237 0.330222
19.07150459 -42.94755936 16.98993683 0.377751 -0.853437 0.359096
19.38801765 -42.04857254 18.79051781 0.377751 -0.853437 0.359096
18.97543335 -42.63663864 17.82806778 0.377751 -0.853437 0.359096
20.09622192 -41.94565201 18.29248047 0.377751 -0.853437 0.359096
18.97210312 -42.73136139 17.60689354 0.377751 -0.853437 0.359096
19.14257622 -42.15418243 18.79722786 0.377751 -0.853437 0.359096
19.69038963 -42.05535126 18.45756912 0.377751 -0.853437 0.359096
19.57187843 -41.76430130 19.27208900 0.377751 -0.853437 0.359096
19.55056953 -42.30148697 18.02029419 0.377751 -0.853437 0.359096
19.18642426 -42.26403809 18.49071503 0.377751 -0.853437 0.359096
19.64797211 -42.43830490 17.59371758 0.377751 -0.853437 0.359096
20.03070641 -41.85583115 18.57417870 0.377751 -0.853437 0.359096
19.14148140 -42.50557327 17.96493340 0.377751 -0.853437 0.359096
18.95565605 -41.98327255 19.39847946 0.377751 -0.853437 0.359096
18.75475311 -42.67754745 17.96230125 0.377751 -0.853437 0.359096
18.69592667 -42.75701904 17.83544350 0.377751 -0.853437 0.359096
17.76896095 -43.24981689 17.63798523 0.377751 -0.853437 0.359096
17.57853127 -43.16110229 18.04795647 0.377751 -0.853437 0.359096
18.09802055 -43.26713181 17.25209236 0.377751 -0.853437 0.359096
18.25485229 -42.97861862 17.77205658 0.377751 -0.853437 0.359096
18.34986496 -43.25112915 17.02613640 0.377751 -0.853437 0.359096
17.73865128 -43.05031586 18.14294052 0.377751 -0.853437 0.359096
18.28487015 -42.76138306 18.25584793 0.377751 -0.853437 0.359096
18.61117554 -42.77574539 17.87983513 0.377751 -0.853437 0.359096
17.76745796 -43.01264954 18.20209503 0.377751 -0.853437 0.359096
-18.43606567 -42.35529327 19.05195236 -0.349678 -0.853214 0.386977
-16.96812820 -42.98107147 18.99800110 -0.349678 -0.853214 0.386977
-16.42250061 -43.37914658 18.61260414 -0.349678 -0.853214 0.386977
-17.12212753 -43.37830734 17.98168182 -0.349678 -0.853214 0.386977
-18.60170174 -42.25375366 19.12632942 -0.349678 -0.853214 0.386977
-16.56686401 -43.47921753 18.26109123 -0.349678 -0.853214 0.386977
-17.36824036 -43.09671783 18.38079262 -0.349678 -0.853214 0.386977
-18.02989006 -42.58102798 18.92092896 -0.349678 -0.853214 0.386977
-16.96880341 -43.38778305 18.09943771 -0.349678 -0.853214 0.386977
-16.37288094 -43.48685837 18.41967392 -0.349678 -0.853214 0.386977
-17.07674026 -43.08319092 18.67430115 -0.349678 -0.853214 0.386977
-19.21178246 -42.14280701 18.75168991 -0.377751 -0.853437 0.359096
-19.28672981 -42.17657471 18.59305191 -0.377751 -0.853437 0.359096
-20.38619614 -41.71080780 18.54562187 -0.377751 -0.853437 0.359096
-20.43511963 -41.75268555 18.39502525 -0.377751 -0.853437 0.359096
-17.31670189 -43.46749878 17.59561729 -0.377751 -0.853437 0.359096
-19.68984222 -42.10003662 18.35215759 -0.377751 -0.853437 0.359096
-18.03527069 -42.85525513 18.29475403 -0.377751 -0.853437 0.359096
-19.20192528 -42.27794647 18.44148254 -0.377751 -0.853437 0.359096
-18.54855156 -42.49382019 18.61415100 -0.377751 -0.853437 0.359096
-19.71207809 -41.95913315 18.66305923 -0.377751 -0.853437 0.359096
-17.42592812 -43.38734055 17.67127228 -0.377751 -0.853437 0.359096
-18.92095566 -42.42927551 18.37698746 -0.377751 -0.853437 0.359096
-19.23459435 -42.27388000 18.41689301 -0.377751 -0.853437 0.359096
17.92661095 -41.82300186 20.68795013 0.349678 -0.853214 0.386977
17.63748360 -42.52391434 19.40193939 0.349678 -0.853214 0.386977
18.39149857 -42.34361267 19.11805153 0.349678 -0.853214 0.386977
18.51563835 -41.71257401 20.39900780 0.349678 -0.853214 0.386977
17.56284332 -42.35124969 19.85066032 0.349678 -0.853214 0.386977
19.00548744 -41.76718521 19.83539772 0.349678 -0.853214 0.386977
18.14651489 -41.91216278 20.29220200 0.349678 -0.853214 0.386977
17.85321808 -42.74527359 18.71809387 0.349678 -0.853214 0.386977
18.35643768 -42.25062561 19.35506058 0.349678 -0.853214 0.386977
17.64283180 -41.98146439 20.59474564 0.349678 -0.853214 0.386977
18.32668877 -41.81204224 20.35029602 0.349678 -0.853214 0.386977
18.34824181 -41.83412933 20.28203392 0.349678 -0.853214 0.386977
17.46030998 -43.12545013 18.23408699 0.349678 -0.853214 0.386977
17.44169235 -42.08188629 20.55495453 0.349678 -0.853214 0.386977
16.87127495 -43.54808807 17.83371735 0.349678 -0.853214 0.386977
17.23166847 -42.59333801 19.61570168 0.349678 -0.853214 0.386977
16.06118011 -43.52117538 18.62582397 0.349678 -0.853214 0.386977
17.09092140 -42.80275726 19.28063393 0.349678 -0.853214 0.386977
16.87503242 -42.98874664 19.06525803 0.349678 -0.853214 0.386977
17.07496071 -42.55353165 19.84531975 0.349678 -0.853214 0.386977
17.07137680 -42.75736237 19.39852905 0.349678 -0.853214 0.386977
16.78747749 -43.39773941 18.24145126 0.349678 -0.853214 0.386977
17.29224014 -42.27893066 20.25508118 0.349678 -0.853214 0.386977
16.67391968 -43.05513763 19.10057068 0.349678 -0.853214 0.386977
16.11377335 -43.27263260 19.12700081 0.349678 -0.853214 0.386977
-16.62625885 -42.61116409 20.10446167 -0.320680 -0.853597 0.410532
-16.30097771 -42.56985855 20.44355774 -0.320680 -0.853597 0.410532
-15.71965981 -43.25474548 19.47482109 -0.320680 -0.853597 0.410532
-15.71376610 -43.13794708 19.72183418 -0.320680 -0.853597 0.410532
-15.41615677 -43.15396881 19.92038536 -0.320680 -0.853597 0.410532
-15.45228481 -43.21068573 19.77452850 -0.320680 -0.853597 0.410532
-15.90912151 -42.94863510 19.96260071 -0.320680 -0.853597 0.410532
-15.54261971 -43.46401215 19.17837334 -0.320680 -0.853597 0.410532
-16.39850616 -42.65745926 20.18577003 -0.320680 -0.853597 0.410532
-16.69423866 -42.31322098 20.66990852 -0.320680 -0.853597 0.410532
-17.16017342 -42.21847534 20.50364685 -0.320680 -0.853597 0.410532
-16.00179482 -42.92094040 19.94789886 -0.320680 -0.853597 0.410532
-16.57687759 -42.93317413 19.45762062 -0.349678 -0.853214 0.386977
-16.50762939 -42.98245621 19.41144371 -0.349678 -0.853214 0.386977
-18.74539566 -41.72338867 20.16733170 -0.349678 -0.853214 0.386977
-17.60622787 -42.29380798 19.93824959 -0.349678 -0.853214 0.386977
-16.61039925 -43.05856705 19.15045166 -0.349678 -0.853214 0.386977
-16.77788162 -42.89236450 19.36591721 -0.349678 -0.853214 0.386977
-16.83739853 -42.68870544 19.76174164 -0.349678 -0.853214 0.386977
-17.64510536 -42.46466446 19.52586365 -0.349678 -0.853214 0.386977
-18.62821770 -41.92358398 19.83130646 -0.349678 -0.853214 0.386977
-17.96968460 -41.98618317 20.28870583 -0.349678 -0.853214 0.386977
-17.30459404 -42.65734482 19.40842247 -0.349678 -0.853214 0.386977
-16.75440598 -42.88068771 19.41293526 -0.349678 -0.853214 0.386977
-16.82338715 -42.63642883 19.88983345 -0.349678 -0.853214 0.386977
15.00726128 -43.37052536 19.78940201 0.320680 -0.853597 0.410532
15.61496067 -42.36071014 21.41199684 0.320680 -0.853597 0.410532
15.76654339 -43.26303101 19.42110443 0.320680 -0.853597 0.410532
15.09057999 -43.01732635 20.45758629 0.320680 -0.853597 0.410532
15.63333511 -42.32143402 21.47920418 0.320680 -0.853597 0.410532
14.78083420 -43.16272736 20.39706421 0.320680 -0.853597 0.410532
15.62220955 -42.97137451 20.13888168 0.320680 -0.853597 0.410532
15.21349335 -43.30125809 19.77252960 0.320680 -0.853597 0.410532
14.97474957 -42.93069839 20.72761345 0.320680 -0.853597 0.410532
15.09819984 -43.32233810 19.81858253 0.320680 -0.853597 0.410532
15.24032974 -42.75200653 20.89163399 0.320680 -0.853597 0.410532
16.47990608 -41.87318420 21.75017357 0.320680 -0.853597 0.410532
16.25924492 -42.15195847 21.34343910 0.320680 -0.853597 0.410532
16.75135231 -42.51531219 20.20597458 0.320680 -0.853597 0.410532
16.06616974 -42.08660889 21.62945747 0.320680 -0.853597 0.410532
16.85833359 -41.98682022 21.21955872 0.320680 -0.853597 0.410532
16.78947449 -42.15744781 20.91905212 0.320680 -0.853597 0.410532
15.98720741 -42.93042374 19.93957710 0.320680 -0.853597 0.410532
16.90830612 -42.39905930 20.32501411 0.320680 -0.853597 0.410532
15.90660858 -43.18032837 19.48366737 0.320680 -0.853597 0.410532
15.95318413 -43.30806732 19.18226242 0.320680 -0.853597 0.410532
16.79882240 -41.80025482 21.65313721 0.320680 -0.853597 0.410532
16.36274910 -42.56494522 20.40564156 0.320680 -0.853597 0.410532
16.90296936 -42.21354294 20.71421814 0.320680 -0.853597 0.410532
-14.82646465 -42.74115372 21.20107841 -0.287878 -0.854397 0.432587
-14.25554371 -42.86635971 21.33542252 -0.287878 -0.854397 0.432587
-14.44764805 -43.33061981 20.29351425 -0.287878 -0.854397 0.432587
-15.11893749 -42.37385559 21.72893906 -0.287878 -0.854397 0.432587
-14.88526821 -42.93137360 20.78745270 -0.287878 -0.854397 0.432587
-15.28521824 -42.19542694 21.96923065 -0.287878 -0.854397 0.432587
-14.17849159 -43.07730484 20.97162819 -0.287878 -0.854397 0.432587
-14.25542736 -43.31101990 20.46030045 -0.287878 -0.854397 0.432587
-13.76499939 -43.48360443 20.44770813 -0.287878 -0.854397 0.432587
-15.45619392 -42.19671631 21.85265160 -0.287878 -0.854397 0.432587
-13.39924145 -43.32482529 21.00417900 -0.287878 -0.854397 0.432587
-17.19694138 -41.82600403 21.28960419 -0.320680 -0.853597 0.410532
-15.70503616 -42.67872238 20.68178368 -0.320680 -0.853597 0.410532
-16.39978027 -41.81904984 21.92494583 -0.320680 -0.853597 0.410532
-15.82721233 -42.71807861 20.50492859 -0.320680 -0.853597 0.410532
-17.00092125 -41.73563004 21.62985802 -0.320680 -0.853597 0.410532
-15.20906258 -43.10114288 20.19133759 -0.320680 -0.853597 0.410532
-16.67602730 -41.99503326 21.34450912 -0.320680 -0.853597 0.410532
-16.79341316 -42.18644333 20.85579491 -0.320680 -0.853597 0.410532
-16.08296776 -42.16281891 21.45819664 -0.320680 -0.853597 0.410532
-15.61141872 -42.44305038 21.24384689 -0.320680 -0.853597 0.410532
-16.32923317 -41.73174286 22.16110611 -0.320680 -0.853597 0.410532
-16.75413322 -41.96914673 21.33740044 -0.320680 -0.853597 0.410532
-14.81912899 -43.30432510 20.07333755 -0.320680 -0.853597 0.410532
14.02237511 -43.55467987 20.13615417 0.287878 -0.854397 0.432587
14.02813625 -42.35837555 22.48694611 0.287878 -0.854397 0.432587
13.77406120 -42.83586502 21.71658516 0.287878 -0.854397 0.432587
14.01226616 -43.19464493 20.85153580 0.287878 -0.854397 0.432587
13.56074524 -43.57805634 20.39803886 0.287878 -0.854397 0.432587
13.49935913 -43.10348511 21.37305450 0.287878 -0.854397 0.432587
13.99913025 -42.29551697 22.63000298 0.287878 -0.854397 0.432587
13.61242199 -43.38550186 20.74256897 0.287878 -0.854397 0.432587
14.24030781 -42.23711014 22.58410454 0.287878 -0.854397 0.432587
13.76779175 -43.39225006 20.62565422 0.287878 -0.854397 0.432587
13.62585926 -43.48103714 20.54556465 0.287878 -0.854397 0.432587
15.05539322 -41.94298553 22.61938286 0.287878 -0.854397 0.432587
14.52211475 -42.38343430 22.10815048 0.287878 -0.854397 0.432587
14.56548595 -42.11861420 22.60045052 0.287878 -0.854397 0.432587
14.41938019 -43.02639389 20.91116714 0.287878 -0.854397 0.432587
15.83829498 -41.74555588 22.48580170 0.287878 -0.854397 0.432587
14.54707909 -41.69997406 23.43671608 0.287878 -0.854397 0.432587
14.43787289 -42.21966553 22.48667526 0.287878 -0.854397 0.432587
15.35979939 -41.88520050 22.53008652 0.287878 -0.854397 0.432587
15.22197056 -41.80934143 22.77132225 0.287878 -0.854397 0.432587
15.35005951 -41.93555832 22.43746758 0.287878 -0.854397 0.432587
14.85903645 -41.84817886 22.93694687 0.287878 -0.854397 0.432587
15.36098671 -42.05987549 22.18548965 0.287878 -0.854397 0.432587
15.22019482 -42.64045334 21.13667297 0.287878 -0.854397 0.432587
-12.41080284 -43.35236359 21.54585457 -0.257947 -0.853210 0.453316
-13.26166916 -42.62704086 22.42912292 -0.257947 -0.853210 0.453316
-14.11361313 -42.04742432 23.03767776 -0.257947 -0.853210 0.453316
-12.92359734 -43.10675430 21.71788979 -0.257947 -0.853210 0.453316
-12.41985512 -43.50391388 21.25564384 -0.257947 -0.853210 0.453316
-13.22412872 -42.92646027 21.88709641 -0.257947 -0.853210 0.453316
-14.06464195 -41.95339966 23.24224663 -0.257947 -0.853210 0.453316
-13.35189247 -42.85102463 21.95674706 -0.257947 -0.853210 0.453316
-11.59652233 -43.41389084 21.89061546 -0.257947 -0.853210 0.453316
-13.34431648 -42.73153305 22.18581390 -0.257947 -0.853210 0.453316
-14.14295197 -41.99968338 23.11089516 -0.257947 -0.853210 0.453316
-12.92740059 -42.92820358 22.05162621 -0.257947 -0.853210 0.453316
-14.95073700 -42.10693359 22.36649513 -0.287878 -0.854397 0.432587
-15.88876724 -41.73274994 22.47734261 -0.287878 -0.854397 0.432587
-14.52568054 -42.16187286 22.54186058 -0.287878 -0.854397 0.432587
-14.47520447 -42.38014603 22.14591026 -0.287878 -0.854397 0.432587
-15.35306263 -41.87149429 22.56155777 -0.287878 -0.854397 0.432587
-13.98042583 -42.39545059 22.44578552 -0.287878 -0.854397 0.432587
-13.50369740 -43.20565414 21.16907120 -0.287878 -0.854397 0.432587
-13.75199413 -42.57702255 22.24076843 -0.287878 -0.854397 0.432587
-14.49642467 -41.98747253 22.90464211 -0.287878 -0.854397 0.432587
-14.16215515 -42.20008850 22.70910263 -0.287878 -0.854397 0.432587
-14.31457138 -42.39571381 22.22240639 -0.287878 -0.854397 0.432587
-14.42159176 -41.78615952 23.35078621 -0.287878 -0.854397 0.432587
-14.40042305 -41.77538300 23.38611031 -0.287878 -0.854397 0.432587
11.91498184 -43.17433548 22.16116333 0.257947 -0.853210 0.453316
12.41890430 -42.87444305 22.44032288 0.257947 -0.853210 0.453316
12.78711700 -43.14895248 21.71568871 0.257947 -0.853210 0.453316
12.68511868 -42.71334839 22.59281540 0.257947 -0.853210 0.453316
12.18744087 -43.53966904 21.31982803 0.257947 -0.853210 0.453316
11.92893505 -42.83175659 22.79771614 0.257947 -0.853210 0.453316
12.12144375 -43.59857178 21.24633789 0.257947 -0.853210 0.453316
12.40089512 -42.46983337 23.21164322 0.257947 -0.853210 0.453316
12.07869530 -43.18524170 22.04805565 0.257947 -0.853210 0.453316
12.59947014 -42.01065445 23.96313477 0.257947 -0.853210 0.453316
12.69911289 -43.07293320 21.90846634 0.257947 -0.853210 0.453316
12.16672897 -43.38217545 21.62780762 0.257947 -0.853210 0.453316
12.84905148 -42.27724457 23.32049179 0.257947 -0.853210 0.453316
13.45453644 -41.79813004 23.87936401 0.257947 -0.853210 0.453316
13.05533314 -43.08457947 21.68510818 0.257947 -0.853210 0.453316
13.54873657 -42.73867798 22.05676651 0.257947 -0.853210 0.453316
13.77179146 -42.25979233 22.83148575 0.257947 -0.853210 0.453316
13.34625340 -42.44712830 22.71973228 0.257947 -0.853210 0.453316
13.75996780 -41.97930908 23.36580849 0.257947 -0.853210 0.453316
13.75152302 -42.13569260 23.07640266 0.257947 -0.853210 0.453316
13.51916504 -42.74334717 22.06470871 0.257947 -0.853210 0.453316
12.97729874 -42.78029633 22.30164146 0.257947 -0.853210 0.453316
12.83359337 -43.16624069 21.65688324 0.257947 -0.853210 0.453316
12.78943253 -42.65966034 22.63482094 0.257947 -0.853210 0.453316
12.98551750 -42.37716293 23.05534935 0.257947 -0.853210 0.453316
12.73104954 -42.04730606 23.81977654 0.257947 -0.853210 0.453316
-12.06874275 -42.69702911 22.97209549 -0.257947 -0.853210 0.453316
-12.27318668 -42.74421310 22.76771355 -0.257947 -0.853210 0.453316
-12.29546261 -42.54314423 23.13335800 -0.257947 -0.853210 0.453316
-12.50265217 -41.98186111 24.07205391 -0.257947 -0.853210 0.453316
-12.53939819 -42.55121613 22.98022270 -0.257947 -0.853210 0.453316
-11.81651020 -43.25131989 22.07202721 -0.257947 -0.853210 0.453316
-13.00665951 -41.92277145 23.89818192 -0.257947 -0.853210 0.453316
-13.41616344 -41.73270798 24.02413559 -0.257947 -0.853210 0.453316
-14.11193657 -41.84655380 23.41649437 -0.257947 -0.853210 0.453316
-12.54341698 -42.14416504 23.74367714 -0.257947 -0.853210 0.453316
-12.40351391 -42.90891647 22.38417625 -0.257947 -0.853210 0.453316
-12.74400425 -42.35023117 23.24259949 -0.257947 -0.853210 0.453316
-12.06546307 -43.02972031 22.34809875 -0.257947 -0.853210 0.453316
-11.00431824 -43.07456589 22.80331421 -0.222229 -0.854146 0.470158
-10.94506264 -43.58827591 21.90105438 -0.222229 -0.854146 0.470158
-10.06300354 -43.53493500 22.41415405 -0.222229 -0.854146 0.470158
-11.21357632 -43.52909470 21.88142967 -0.222229 -0.854146 0.470158
-12.20248127 -42.16418076 23.88609695 -0.222229 -0.854146 0.470158
-11.55741692 -42.83824158 22.97008896 -0.222229 -0.854146 0.470158
-10.23059273 -43.54955292 22.30854797 -0.222229 -0.854146 0.470158
-11.63379955 -42.72970963 23.13055038 -0.222229 -0.854146 0.470158
-11.34968185 -42.93965530 22.88453484 -0.222229 -0.854146 0.470158
-12.05675411 -42.28590775 23.73448181 -0.222229 -0.854146 0.470158
-10.27765274 -43.47095871 22.42864799 -0.222229 -0.854146 0.470158
-12.03380680 -42.37865067 23.57737732 -0.222229 -0.854146 0.470158
10.11145782 -43.56936646 22.32892418 0.222229 -0.854146 0.470158
10.56855774 -42.48144913 24.08311272 0.222229 -0.854146 0.470158
10.69547081 -43.10590744 22.89240265 0.222229 -0.854146 0.470158
9.90136337 -43.18799973 23.11871910 0.222229 -0.854146 0.470158
11.10221195 -43.27888107 22.38710785 0.222229 -0.854146 0.470158
10.50087833 -42.26115799 24.51398659 0.222229 -0.854146 0.470158
10.64658165 -43.29082870 22.58062553 0.222229 -0.854146 0.470158
10.59469509 -43.60153198 22.04249382 0.222229 -0.854146 0.470158
10.84962940 -43.01288986 22.98804092 0.222229 -0.854146 0.470158
10.91834831 -43.20586777 22.60614967 0.222229 -0.854146 0.470158
11.03848171 -42.98220062 22.95444107 0.222229 -0.854146 0.470158
10.54511547 -42.90597534 23.32543755 0.222229 -0.854146 0.470158
11.62155342 -43.01498795 22.61974525 0.222229 -0.854146 0.470158
11.74659824 -42.80860138 22.93442917 0.222229 -0.854146 0.470158
11.45132351 -42.43576431 23.74899673 0.222229 -0.854146 0.470158
12.13736057 -41.81684113 24.54581451 0.222229 -0.854146 0.470158
11.28587627 -41.95022583 24.70635414 0.222229 -0.854146 0.470158
11.70359802 -42.34841156 23.78805733 0.222229 -0.854146 0.470158
12.30423546 -42.19003296 23.79123688 0.222229 -0.854146 0.470158
11.74370861 -42.81933212 22.91636276 0.222229 -0.854146 0.470158
11.40340900 -42.61034775 23.45548630 0.222229 -0.854146 0.470158
11.65414524 -42.98087311 22.66613007 0.222229 -0.854146 0.470158
12.51058674 -41.87091827 24.27165413 0.222229 -0.854146 0.470158
11.61444569 -42.84270477 22.93507767 0.222229 -0.854146 0.470158
11.47995663 -42.31337738 23.95710373 0.222229 -0.854146 0.470158
-11.01388836 -41.88010788 24.96175575 -0.222229 -0.854146 0.470158
-11.62938213 -41.87769318 24.67548943 -0.222229 -0.854146 0.470158
-12.02441883 -42.01712036 24.23647499 -0.222229 -0.854146 0.470158
-9.95652199 -43.25279617 22.97533798 -0.222229 -0.854146 0.470158
-11.40755558 -42.42353439 23.79181671 -0.222229 -0.854146 0.470158
-10.93226624 -42.02443695 24.73893738 -0.222229 -0.854146 0.470158
-10.52528477 -42.99949265 23.16545486 -0.222229 -0.854146 0.470158
-12.07061672 -42.02003479 24.20938683 -0.222229 -0.854146 0.470158
-10.61133385 -42.23082352 24.51675415 -0.222229 -0.854146 0.470158
-10.35244083 -42.88177872 23.46023560 -0.222229 -0.854146 0.470158
-12.13119984 -41.76648331 24.63991547 -0.222229 -0.854146 0.470158
-10.78070259 -41.95586014 24.93468857 -0.222229 -0.854146 0.470158
-10.07016182 -43.10999298 23.18027496 -0.222229 -0.854146 0.470158
-9.84690762 -42.46627045 24.40661240 -0.186156 -0.853341 0.486985
-8.31890297 -43.43266296 23.29938126 -0.186156 -0.853341 0.486985
-8.89348602 -43.53981781 22.89005661 -0.186156 -0.853341 0.486985
-8.06463814 -43.53936005 23.21008873 -0.186156 -0.853341 0.486985
-9.58977604 -43.25070572 23.12919426 -0.186156 -0.853341 0.486985
-9.54389763 -43.01391220 23.56236649 -0.186156 -0.853341 0.486985
-9.54556561 -42.79820251 23.94023132 -0.186156 -0.853341 0.486985
-9.53183174 -43.55086136 22.62483025 -0.186156 -0.853341 0.486985
-8.67615795 -43.40528870 23.20981979 -0.186156 -0.853341 0.486985
-9.82052422 -42.78739166 23.85330009 -0.186156 -0.853341 0.486985
-9.31136227 -42.81198120 24.00625229 -0.186156 -0.853341 0.486985
9.99286366 -41.79201126 25.53351974 0.186156 -0.853341 0.486985
9.83597469 -41.89881134 25.40654564 0.186156 -0.853341 0.486985
9.07311153 -41.96681595 25.58103180 0.186156 -0.853341 0.486985
10.07659626 -42.50246429 24.25464058 0.186156 -0.853341 0.486985
10.16342545 -42.76305771 23.76393890 0.186156 -0.853341 0.486985
9.56738567 -43.37207031 22.92486000 0.186156 -0.853341 0.486985
9.84261227 -43.14234543 23.22195625 0.186156 -0.853341 0.486985
10.22209740 -42.58135223 24.06018066 0.186156 -0.853341 0.486985
9.34376526 -42.12971115 25.19095802 0.186156 -0.853341 0.486985
9.37780952 -42.64404678 24.27533913 0.186156 -0.853341 0.486985
9.75583553 -42.03107071 25.20533562 0.186156 -0.853341 0.486985
10.14754677 -42.35168457 24.49188805 0.186156 -0.853341 0.486985
10.28452492 -42.26609802 24.58931160 0.186156 -0.853341 0.486985
8.33923340 -43.45386505 23.25434685 0.186156 -0.853341 0.486985
8.65306282 -42.79742050 24.28533936 0.186156 -0.853341 0.486985
9.10084057 -42.72543716 24.23919487 0.186156 -0.853341 0.486985
8.70283699 -43.24901962 23.47375107 0.186156 -0.853341 0.486985
9.16324902 -42.99327469 23.74518394 0.186156 -0.853341 0.486985
9.23760891 -42.68076706 24.26490402 0.186156 -0.853341 0.486985
8.81132030 -43.29663467 23.34841919 0.186156 -0.853341 0.486985
8.52835941 -43.12324142 23.76165199 0.186156 -0.853341 0.486985
8.82700348 -43.21489334 23.48581314 0.186156 -0.853341 0.486985
8.72589588 -42.72821045 24.37873650 0.186156 -0.853341 0.486985
8.58626842 -43.34115982 23.35696602 0.186156 -0.853341 0.486985
9.20059872 -43.35621262 23.09394836 0.186156 -0.853341 0.486985
-9.43699360 -41.99045563 25.39939880 -0.186156 -0.853341 0.486985
-8.65625477 -42.71515656 24.42846489 -0.186156 -0.853341 0.486985
-8.70504665 -43.07708359 23.77459335 -0.186156 -0.853341 0.486985
-9.60721302 -42.07900238 25.17847061 -0.186156 -0.853341 0.486985
-9.53008556 -42.28456497 24.84747505 -0.186156 -0.853341 0.486985
-10.34297085 -41.93174362 25.15349197 -0.186156 -0.853341 0.486985
-9.73022079 -41.92659378 25.39852715 -0.186156 -0.853341 0.486985
-8.47159004 -42.83790588 24.28420067 -0.186156 -0.853341 0.486985
-10.09192467 -42.04984665 25.04294205 -0.186156 -0.853341 0.486985
-9.60032272 -42.25511932 24.87209320 -0.186156 -0.853341 0.486985
-8.24896431 -43.35576248 23.46125412 -0.186156 -0.853341 0.486985
-8.67100048 -42.45945358 24.87146378 -0.186156 -0.853341 0.486985
-8.90894318 -42.61763763 24.50226021 -0.186156 -0.853341 0.486985
-8.83242512 -42.76366425 24.27549553 -0.186156 -0.853341 0.486985
-6.69939375 -43.28058243 24.07304001 -0.151358 -0.853774 0.498157
-6.64909983 -43.58834076 23.56172371 -0.151358 -0.853774 0.498157
-7.33864021 -43.22583771 23.97308350 -0.151358 -0.853774 0.498157
-8.28739071 -42.86495972 24.30314636 -0.151358 -0.853774 0.498157
-6.90706635 -43.21136856 24.12856293 -0.151358 -0.853774 0.498157
-7.83137083 -42.84925079 24.46814919 -0.151358 -0.853774 0.498157
-7.10051060 -43.03008270 24.38013268 -0.151358 -0.853774 0.498157
-6.60167933 -43.60025787 23.55570030 -0.151358 -0.853774 0.498157
-7.79196358 -43.54574585 23.28843498 -0.151358 -0.853774 0.498157
-7.54122114 -42.93601990 24.40757751 -0.151358 -0.853774 0.498157
-6.78673220 -43.43950272 23.77468681 -0.151358 -0.853774 0.498157
-6.90323973 -43.50973129 23.61924171 -0.151358 -0.853774 0.498157
7.46193886 -43.38679886 23.66034698 0.151358 -0.853774 0.498157
6.72929049 -43.05115509 24.45652390 0.151358 -0.853774 0.498157
7.06367779 -42.61006165 25.10990715 0.151358 -0.853774 0.498157
7.04575729 -42.98152542 24.47979546 0.151358 -0.853774 0.498157
6.68514490 -43.16345215 24.27775764 0.151358 -0.853774 0.498157
6.47806740 -43.01813889 24.58909607 0.151358 -0.853774 0.498157
6.92486763 -43.07425308 24.35776329 0.151358 -0.853774 0.498157
6.83270836 -43.35592270 23.90376282 0.151358 -0.853774 0.498157
6.83060408 -43.39070892 23.84488106 0.151358 -0.853774 0.498157
7.13468170 -42.31949234 25.58554268 0.151358 -0.853774 0.498157
6.67286444 -43.32564926 24.00396729 0.151358 -0.853774 0.498157
7.73212433 -41.70606232 26.45411301 0.151358 -0.853774 0.498157
7.95661736 -43.48957443 23.33467102 0.151358 -0.853774 0.498157
8.71558380 -41.71204376 26.14599609 0.151358 -0.853774 0.498157
7.61959267 -42.41597366 25.27359581 0.151358 -0.853774 0.498157
7.84459162 -42.05300140 25.82646370 0.151358 -0.853774 0.498157
7.85105848 -42.93794632 24.31043243 0.151358 -0.853774 0.498157
7.51185322 -41.86440659 26.24991798 0.151358 -0.853774 0.498157
8.28274536 -41.99810028 25.78768158 0.151358 -0.853774 0.498157
8.30486298 -42.73645782 24.51771545 0.151358 -0.853774 0.498157
7.79327202 -41.79238510 26.28789902 0.151358 -0.853774 0.498157
8.32093143 -42.46292877 24.98083305 0.151358 -0.853774 0.498157
8.24705696 -41.94152832 25.89527893 0.151358 -0.853774 0.498157
8.25573063 -42.88221359 24.28321838 0.151358 -0.853774 0.498157
-7.05203819 -43.01781845 24.41579437 -0.151358 -0.853774 0.498157
-7.74723768 -41.92475510 26.07536888 -0.151358 -0.853774 0.498157
-7.56405449 -42.40395355 25.31098366 -0.151358 -0.853774 0.498157
-6.92020464 -42.40341187 25.50693130 -0.151358 -0.853774 0.498157
-6.93962002 -42.93098450 24.59841537 -0.151358 -0.853774 0.498157
-7.16871548 -42.22150803 25.74287796 -0.151358 -0.853774 0.498157
-7.23075676 -42.81598282 24.70698738 -0.151358 -0.853774 0.498157
-8.10953140 -41.91584015 25.98089027 -0.151358 -0.853774 0.498157
-6.80080605 -42.39065933 25.56491280 -0.151358 -0.853774 0.498157
-7.81690168 -41.89613342 26.10324097 -0.151358 -0.853774 0.498157
-7.07164335 -42.81788254 24.75193405 -0.151358 -0.853774 0.498157
-6.64788246 -43.20855331 24.21188354 -0.151358 -0.853774 0.498157
-7.37141085 -42.77060318 24.74203110 -0.151358 -0.853774 0.498157
-7.09388924 -42.16690445 25.85896301 -0.151358 -0.853774 0.498157
-5.96455002 -42.65292358 25.31760597 -0.113731 -0.853702 0.508190
-5.52724648 -43.37014389 24.21208572 -0.113731 -0.853702 0.508190
-6.20229721 -43.17117310 24.39461327 -0.113731 -0.853702 0.508190
-6.54991198 -42.36751938 25.66529465 -0.113731 -0.853702 0.508190
-5.80809402 -43.44787598 24.01866722 -0.113731 -0.853702 0.508190
-5.88923407 -42.72136688 25.21964264 -0.113731 -0.853702 0.508190
-6.17798996 -43.16216660 24.41518211 -0.113731 -0.853702 0.508190
-6.75763178 -42.32754898 25.68579483 -0.113731 -0.853702 0.508190
-6.85179138 -41.86080170 26.44793129 -0.113731 -0.853702 0.508190
-5.17986965 -43.57709122 23.94269943 -0.113731 -0.853702 0.508190
-6.13229275 -43.43137741 23.97366524 -0.113731 -0.853702 0.508190
6.18311691 -42.25690079 25.93316841 0.113731 -0.853702 0.508190
6.03885937 -42.88746262 24.90736198 0.113731 -0.853702 0.508190
5.90467358 -42.27101135 25.97192764 0.113731 -0.853702 0.508190
6.46541548 -42.46656418 25.51802826 0.113731 -0.853702 0.508190
6.63298273 -42.11207581 26.07533264 0.113731 -0.853702 0.508190
6.12940407 -43.26313400 24.25664330 0.113731 -0.853702 0.508190
6.28034496 -42.05583191 26.24878311 0.113731 -0.853702 0.508190
6.72842312 -41.73590088 26.68519592 0.113731 -0.853702 0.508190
6.53343344 -42.65773010 25.18198395 0.113731 -0.853702 0.508190
6.32625580 -41.70840454 26.82151222 0.113731 -0.853702 0.508190
5.77174473 -42.56609344 25.50654984 0.113731 -0.853702 0.508190
6.39894295 -42.61957932 25.27616310 0.113731 -0.853702 0.508190
5.70500898 -42.44189835 25.72993088 0.113731 -0.853702 0.508190
5.17850399 -42.41936493 25.88579559 0.113731 -0.853702 0.508190
5.36419535 -43.27367401 24.41053200 0.113731 -0.853702 0.508190
5.77867746 -42.88937759 24.96249008 0.113731 -0.853702 0.508190
5.04728079 -43.29303741 24.44910622 0.113731 -0.853702 0.508190
4.88704491 -42.48457336 25.84172630 0.113731 -0.853702 0.508190
4.94057608 -42.53263855 25.74906158 0.113731 -0.853702 0.508190
5.21598625 -41.99265671 26.59346008 0.113731 -0.853702 0.508190
5.61492157 -43.54022980 23.90700722 0.113731 -0.853702 0.508190
5.89294386 -43.35074615 24.16263390 0.113731 -0.853702 0.508190
5.84929752 -43.04933929 24.67822266 0.113731 -0.853702 0.508190
5.00878429 -43.55884171 24.01168442 0.113731 -0.853702 0.508190
5.24574566 -43.14794540 24.64808083 0.113731 -0.853702 0.508190
-5.76576233 -42.49624252 25.62510681 -0.113731 -0.853702 0.508190
-5.55012131 -42.45460510 25.74333382 -0.113731 -0.853702 0.508190
-5.25550270 -42.02845383 26.52452469 -0.113731 -0.853702 0.508190
-5.91248417 -41.87472534 26.63518715 -0.113731 -0.853702 0.508190
-6.12205172 -42.03147507 26.32515526 -0.113731 -0.853702 0.508190
-5.68496513 -42.39713669 25.80953598 -0.113731 -0.853702 0.508190
-6.29408503 -42.07023239 26.22153854 -0.113731 -0.853702 0.508190
-5.77607822 -42.06964493 26.33867836 -0.113731 -0.853702 0.508190
-4.97783709 -42.94103622 25.05537415 -0.113731 -0.853702 0.508190
-5.42661667 -42.03419495 26.47652054 -0.113731 -0.853702 0.508190
-6.05061769 -42.11733246 26.19708824 -0.113731 -0.853702 0.508190
-5.36986303 -42.22760010 26.16469574 -0.113731 -0.853702 0.508190
-5.02680445 -42.36268616 26.01492500 -0.113731 -0.853702 0.508190
-3.88381290 -43.22056580 24.77806473 -0.077605 -0.853659 0.515018
-4.11554432 -43.18394852 24.80435181 -0.077605 -0.853659 0.515018
-4.15668821 -43.11383057 24.91432571 -0.077605 -0.853659 0.515018
-3.51002097 -42.95526123 25.27259636 -0.077605 -0.853659 0.515018
-4.01553822 -42.84169769 25.38569832 -0.077605 -0.853659 0.515018
-4.23958635 -42.50423050 25.91113281 -0.077605 -0.853659 0.515018
-3.94230700 -43.43770981 24.40995979 -0.077605 -0.853659 0.515018
-3.56383586 -43.02905655 25.14246559 -0.077605 -0.853659 0.515018
-3.85768461 -43.17187881 24.86252785 -0.077605 -0.853659 0.515018
-3.92694378 -43.44315338 24.40322113 -0.077605 -0.853659 0.515018
-3.75448942 -43.12559509 24.95442963 -0.077605 -0.853659 0.515018
-2.99529099 -43.37609863 24.65222168 -0.077605 -0.853659 0.515018
4.25078058 -43.18907166 24.77584076 0.077605 -0.853659 0.515018
4.70808411 -41.79476929 27.01612282 0.077605 -0.853659 0.515018
4.54243851 -42.38030243 26.07141495 0.077605 -0.853659 0.515018
3.60285115 -41.93043900 26.95525360 0.077605 -0.853659 0.515018
3.59362984 -42.19666290 26.51593399 0.077605 -0.853659 0.515018
4.30236959 -42.74180984 25.50856209 0.077605 -0.853659 0.515018
3.51657414 -42.07256317 26.73277092 0.077605 -0.853659 0.515018
4.59221125 -42.34938049 26.11522675 0.077605 -0.853659 0.515018
3.57435203 -42.07897949 26.71359444 0.077605 -0.853659 0.515018
4.56836510 -42.42322159 25.99652481 0.077605 -0.853659 0.515018
4.27691936 -42.27776337 26.28047562 0.077605 -0.853659 0.515018
4.35550976 -42.31977081 26.19930077 0.077605 -0.853659 0.515018
3.90305972 -41.94668579 26.88389015 0.077605 -0.853659 0.515018
3.12075329 -42.27531433 26.45577812 0.077605 -0.853659 0.515018
3.50489044 -42.89405441 25.37466812 0.077605 -0.853659 0.515018
3.05367494 -42.97451019 25.30832481 0.077605 -0.853659 0.515018
3.46173668 -43.12282944 25.00236511 0.077605 -0.853659 0.515018
3.91170359 -43.40329361 24.47145462 0.077605 -0.853659 0.515018
4.09521818 -43.30421829 24.60827637 0.077605 -0.853659 0.515018
3.59984851 -42.48035431 26.04541779 0.077605 -0.853659 0.515018
3.17849135 -42.98316574 25.27551079 0.077605 -0.853659 0.515018
3.17293644 -42.78224945 25.60891724 0.077605 -0.853659 0.515018
2.88161492 -42.58056641 25.98591423 0.077605 -0.853659 0.515018
2.92932677 -42.34236908 26.37314034 0.077605 -0.853659 0.515018
3.10902047 -41.89798355 27.08212662 0.077605 -0.853659 0.515018
-3.05209875 -42.88243103 25.46098518 -0.077605 -0.853659 0.515018
-3.55095291 -42.08069611 26.71422005 -0.077605 -0.853659 0.515018
-3.49995232 -42.59654617 25.86787796 -0.077605 -0.853659 0.515018
-2.80227685 -43.05331421 25.21512032 -0.077605 -0.853659 0.515018
-3.97650480 -41.91073227 26.93252754 -0.077605 -0.853659 0.515018
-3.18013406 -41.80378342 27.22752571 -0.077605 -0.853659 0.515018
-2.87575769 -43.43104172 24.57897186 -0.077605 -0.853659 0.515018
-3.17338562 -42.05708313 26.80922890 -0.077605 -0.853659 0.515018
-3.78429484 -42.63940430 25.75481606 -0.077605 -0.853659 0.515018
-3.00818586 -42.67443466 25.81178856 -0.077605 -0.853659 0.515018
-3.11837935 -42.90282822 25.41739845 -0.077605 -0.853659 0.515018
-3.75733304 -42.72445679 25.61801720 -0.077605 -0.853659 0.515018
-3.65001249 -42.39118195 26.18559265 -0.077605 -0.853659 0.515018
-2.18449330 -42.55982590 26.07160759 -0.037227 -0.853473 0.519805
-1.82619524 -42.96287537 25.43623543 -0.037227 -0.853473 0.519805
-1.63837409 -42.94700623 25.47613144 -0.037227 -0.853473 0.519805
-2.24710274 -43.19529343 25.02362823 -0.037227 -0.853473 0.519805
-2.24134254 -42.85853958 25.57696724 -0.037227 -0.853473 0.519805
-1.67781568 -43.57252121 24.44619751 -0.037227 -0.853473 0.519805
-2.76224136 -42.20717239 26.60807228 -0.037227 -0.853473 0.519805
-1.40834641 -43.36075974 24.81373215 -0.037227 -0.853473 0.519805
-2.99166679 -41.91372681 27.07297707 -0.037227 -0.853473 0.519805
-1.79094219 -43.01370621 25.35537720 -0.037227 -0.853473 0.519805
-2.46740746 -43.44430542 24.59855461 -0.037227 -0.853473 0.519805
-2.73122931 -43.14161301 25.07610703 -0.037227 -0.853473 0.519805
1.11958683 -42.78765106 25.77598953 0.037227 -0.853473 0.519805
1.78306437 -43.17009354 25.09918594 0.037227 -0.853473 0.519805
