11.10632896 -25.52026749 41.50674820 0.250945 -0.488035 0.835971
11.53694725 -25.26272202 41.52803421 0.250945 -0.488035 0.835971
13.08201885 -25.80768585 40.74401474 0.250945 -0.488035 0.835971
12.38274097 -24.66589165 41.62313080 0.250945 -0.488035 0.835971
12.83350468 -25.14122009 41.20912170 0.250945 -0.488035 0.835971
12.08255196 -25.80233002 41.04784775 0.250945 -0.488035 0.835971
11.38052654 -24.02771568 42.29841995 0.250945 -0.488035 0.835971
11.06323814 -24.83693314 41.91993332 0.250945 -0.488035 0.835971
11.20469189 -25.05357170 41.75049210 0.250945 -0.488035 0.835971
12.21090126 -25.16442871 41.38284302 0.250945 -0.488035 0.835971
13.44549942 -25.76312447 40.66075516 0.250945 -0.488035 0.835971
11.34509277 -25.37097549 41.52235031 0.250945 -0.488035 0.835971
11.76125526 -25.90260696 41.08577728 0.250945 -0.488035 0.835971
-11.18109894 -22.95218468 42.98417664 -0.189993 -0.489195 0.851229
-8.84276009 -25.88140869 41.82193375 -0.189993 -0.489195 0.851229
-10.06499577 -24.62709618 42.27039719 -0.189993 -0.489195 0.851229
-9.27659035 -25.08509254 42.18285751 -0.189993 -0.489195 0.851229
-10.26868725 -23.76335907 42.72132492 -0.189993 -0.489195 0.851229
-10.90537262 -24.86024857 41.94922638 -0.189993 -0.489195 0.851229
-9.98875332 -25.40290642 41.84160233 -0.189993 -0.489195 0.851229
-11.01692772 -23.79010391 42.53927994 -0.189993 -0.489195 0.851229
-10.14165497 -25.43641663 41.78828430 -0.189993 -0.489195 0.851229
-10.75838852 -24.44729424 42.21924973 -0.189993 -0.489195 0.851229
-9.49633408 -25.52297020 41.88230515 -0.189993 -0.489195 0.851229
-9.21404934 -24.81926346 42.34953308 -0.189993 -0.489195 0.851229
-10.72106075 -24.78673935 42.03252029 -0.189993 -0.489195 0.851229
-10.78929234 -24.73953629 42.04444122 -0.189993 -0.489195 0.851229
-10.46214294 -25.77772903 41.52077484 -0.189993 -0.489195 0.851229
-8.17286015 -25.82377243 42.00427628 -0.189993 -0.489195 0.851229
-9.45063114 -24.69267654 42.36956787 -0.189993 -0.489195 0.851229
-8.95792484 -25.01547432 42.29384613 -0.189993 -0.489195 0.851229
-10.79180813 -25.51558304 41.59796906 -0.189993 -0.489195 0.851229
-8.99809837 -25.56341743 41.97004700 -0.189993 -0.489195 0.851229
-10.55564404 -25.97829819 41.38469696 -0.189993 -0.489195 0.851229
-12.04378223 -24.80072021 41.64613724 -0.250945 -0.488035 0.835971
-11.79670811 -23.23502350 42.63747787 -0.250945 -0.488035 0.835971
-11.58908272 -24.16962242 42.15256500 -0.250945 -0.488035 0.835971
-13.19762039 -22.91409302 42.40396881 -0.250945 -0.488035 0.835971
-11.89754105 -24.80928802 41.68511963 -0.250945 -0.488035 0.835971
-11.13456917 -25.02964211 41.78560638 -0.250945 -0.488035 0.835971
-11.38478470 -24.37291336 42.09495926 -0.250945 -0.488035 0.835971
-11.70435715 -23.69501305 42.39585495 -0.250945 -0.488035 0.835971
-11.20596027 -23.90825462 42.42090607 -0.250945 -0.488035 0.835971
-11.27083492 -24.23737526 42.20862579 -0.250945 -0.488035 0.835971
-13.20757294 -23.36538696 42.13665771 -0.250945 -0.488035 0.835971
-12.66070271 -22.94363976 42.54819870 -0.250945 -0.488035 0.835971
-12.60458755 -23.56526756 42.20100021 -0.250945 -0.488035 0.835971
-11.29163837 -25.42305183 41.50793457 -0.250945 -0.488035 0.835971
-11.83403111 -24.90471077 41.64833450 -0.250945 -0.488035 0.835971
-11.18687153 -23.49247169 42.67016602 -0.250945 -0.488035 0.835971
-11.56162930 -24.38144875 42.03675461 -0.250945 -0.488035 0.835971
-12.67282963 -23.13966179 42.42974472 -0.250945 -0.488035 0.835971
-11.52022839 -24.73013687 41.84499359 -0.250945 -0.488035 0.835971
-11.64723873 -24.33801842 42.03643799 -0.250945 -0.488035 0.835971
-12.28558731 -22.93978500 42.66331482 -0.250945 -0.488035 0.835971
-11.39677715 -24.97419930 41.73918915 -0.250945 -0.488035 0.835971
9.47854710 -25.61911774 41.83102036 0.189993 -0.489195 0.851229
8.56294250 -25.25063133 42.24671173 0.189993 -0.489195 0.851229
9.67183304 -25.24645233 42.00209427 0.189993 -0.489195 0.851229
9.29891777 -25.89020348 41.71526718 0.189993 -0.489195 0.851229
9.73623085 -25.39478302 41.90251923 0.189993 -0.489195 0.851229
9.80278778 -25.50193214 41.82612610 0.189993 -0.489195 0.851229
9.40064430 -25.48788071 41.92378235 0.189993 -0.489195 0.851229
9.87106705 -25.81071663 41.63348770 0.189993 -0.489195 0.851229
8.97040462 -24.72283745 42.45921326 0.189993 -0.489195 0.851229
10.33919716 -25.91800117 41.46755981 0.189993 -0.489195 0.851229
8.50506020 -23.54958344 43.23702621 0.189993 -0.489195 0.851229
8.74512291 -25.50872612 42.05782700 0.189993 -0.489195 0.851229
8.69238281 -25.67803001 41.97229385 0.189993 -0.489195 0.851229
8.30890846 -23.75676918 43.16167068 0.189993 -0.489195 0.851229
9.44464779 -25.76688576 41.75366211 0.189993 -0.489195 0.851229
8.33079529 -24.81890488 42.54649353 0.189993 -0.489195 0.851229
7.94523239 -25.78781509 42.07564163 0.189993 -0.489195 0.851229
8.40383434 -24.69141960 42.60347748 0.189993 -0.489195 0.851229
9.72588730 -25.86380959 41.63532257 0.189993 -0.489195 0.851229
7.93626595 -25.99627686 41.95785904 0.189993 -0.489195 0.851229
8.28641605 -25.44524765 42.19648361 0.189993 -0.489195 0.851229
8.73002052 -25.35399818 42.15009689 0.189993 -0.489195 0.851229
9.57231140 -23.28046799 43.15391541 0.189993 -0.489195 0.851229
10.67470169 -25.88266945 41.41312790 0.189993 -0.489195 0.851229
10.81311703 -24.70836449 42.05704880 0.189993 -0.489195 0.851229
8.61071205 -23.37405396 43.31435013 0.189993 -0.489195 0.851229
10.48692322 -23.02215767 43.09860611 0.189993 -0.489195 0.851229
10.56168938 -24.83648872 42.03943634 0.189993 -0.489195 0.851229
11.12710667 -23.16155243 42.87590408 0.189993 -0.489195 0.851229
10.64196682 -23.74311066 42.64981079 0.189993 -0.489195 0.851229
10.43700695 -23.44286346 42.86798477 0.189993 -0.489195 0.851229
9.33776379 -23.68031502 42.97641373 0.189993 -0.489195 0.851229
9.91493130 -23.11480331 43.17278671 0.189993 -0.489195 0.851229
9.52728176 -22.96153450 43.34720993 0.189993 -0.489195 0.851229
8.74582958 -23.15085220 43.41250229 0.189993 -0.489195 0.851229
10.96868992 -24.35816383 42.22361755 0.189993 -0.489195 0.851229
8.94665527 -23.66541481 43.07210159 0.189993 -0.489195 0.851229
10.15941429 -24.69214821 42.21198273 0.189993 -0.489195 0.851229
8.52646160 -23.23581123 43.41255188 0.189993 -0.489195 0.851229
9.99697781 -23.91107178 42.69697571 0.189993 -0.489195 0.851229
10.89119625 -24.33865738 42.25208664 0.189993 -0.489195 0.851229
10.93212032 -24.92540359 41.90583038 0.189993 -0.489195 0.851229
8.90060902 -23.12675476 43.39187241 0.189993 -0.489195 0.851229
10.81413937 -24.12990952 42.38919830 0.189993 -0.489195 0.851229
9.96749592 -23.85959053 42.73312378 0.189993 -0.489195 0.851229
-7.39838505 -25.21150208 42.49542618 -0.125718 -0.489866 0.862685
-6.94732380 -25.18979263 42.57411575 -0.125718 -0.489866 0.862685
-7.84774542 -24.71649933 42.70991135 -0.125718 -0.489866 0.862685
-7.33891535 -24.02985001 43.17404938 -0.125718 -0.489866 0.862685
-7.12638760 -25.07022095 42.61554718 -0.125718 -0.489866 0.862685
-6.48166847 -25.94871521 42.21241760 -0.125718 -0.489866 0.862685
-7.42337608 -25.52699852 42.31289673 -0.125718 -0.489866 0.862685
-5.96770716 -25.94864845 42.28809357 -0.125718 -0.489866 0.862685
-5.46801329 -25.57539368 42.57323074 -0.125718 -0.489866 0.862685
-7.42746830 -25.80333710 42.15563583 -0.125718 -0.489866 0.862685
-5.25384569 -25.94614792 42.39457321 -0.125718 -0.489866 0.862685
-6.79341888 -25.94609070 42.16802597 -0.125718 -0.489866 0.862685
-6.52584839 -25.39166451 42.52170563 -0.125718 -0.489866 0.862685
-5.43818998 -25.73166275 42.48903275 -0.125718 -0.489866 0.862685
-6.42328072 -25.89970779 42.24879456 -0.125718 -0.489866 0.862685
-7.75332260 -24.89235687 42.62411118 -0.125718 -0.489866 0.862685
-5.68396139 -25.33135033 42.67979813 -0.125718 -0.489866 0.862685
-7.77743340 -23.93277359 43.16454697 -0.125718 -0.489866 0.862685
-7.09225512 -23.82410049 43.32698822 -0.125718 -0.489866 0.862685
-5.40341568 -25.45450783 42.65126801 -0.125718 -0.489866 0.862685
-6.78815365 -24.39216614 43.04971313 -0.125718 -0.489866 0.862685
-9.54552650 -23.40106773 43.09058762 -0.189993 -0.489195 0.851229
-8.72688103 -23.77003288 43.06094360 -0.189993 -0.489195 0.851229
-9.19099808 -24.04266548 42.80090332 -0.189993 -0.489195 0.851229
-8.13298607 -22.97213364 43.65171051 -0.189993 -0.489195 0.851229
-10.79699326 -22.97541618 43.05638885 -0.189993 -0.489195 0.851229
-8.05868816 -24.75250053 42.64525986 -0.189993 -0.489195 0.851229
-8.84243107 -24.95326233 42.35531998 -0.189993 -0.489195 0.851229
-8.67082024 -24.21339989 42.81867218 -0.189993 -0.489195 0.851229
-9.06844997 -23.82762337 42.95176315 -0.189993 -0.489195 0.851229
-9.44032001 -24.42222977 42.52726364 -0.189993 -0.489195 0.851229
-9.94828987 -23.21457481 43.10802841 -0.189993 -0.489195 0.851229
-8.79230690 -24.87842560 42.40948486 -0.189993 -0.489195 0.851229
-9.29007530 -24.64210510 42.43439484 -0.189993 -0.489195 0.851229
-9.17390823 -23.94017792 42.86359787 -0.189993 -0.489195 0.851229
-10.23193836 -23.29110527 43.00086975 -0.189993 -0.489195 0.851229
-8.07479572 -23.48415756 43.37046432 -0.189993 -0.489195 0.851229
-8.50268459 -22.97354126 43.56855011 -0.189993 -0.489195 0.851229
-7.90345573 -25.65755463 42.15980148 -0.189993 -0.489195 0.851229
-9.21965599 -24.52980042 42.51461029 -0.189993 -0.489195 0.851229
-8.25335121 -23.82965851 43.13216400 -0.189993 -0.489195 0.851229
-9.94474602 -23.74291801 42.80523300 -0.189993 -0.489195 0.851229
-10.02783775 -23.33820724 43.01926804 -0.189993 -0.489195 0.851229
-9.35379791 -23.37541389 43.14803696 -0.189993 -0.489195 0.851229
7.78157854 -23.83300400 43.22049713 0.125718 -0.489866 0.862685
6.81717920 -23.20259476 43.71979904 0.125718 -0.489866 0.862685
5.69153500 -23.56870461 43.67791367 0.125718 -0.489866 0.862685
6.80960226 -24.85535431 42.78397369 0.125718 -0.489866 0.862685
7.66016531 -24.87762070 42.64617920 0.125718 -0.489866 0.862685
7.73778725 -24.75086594 42.70660782 0.125718 -0.489866 0.862685
6.40747547 -24.31663322 43.14855576 0.125718 -0.489866 0.862685
7.35484457 -24.39945412 42.96218109 0.125718 -0.489866 0.862685
7.33624220 -23.12235260 43.68889618 0.125718 -0.489866 0.862685
6.47698116 -24.15416718 43.23042297 0.125718 -0.489866 0.862685
6.65263081 -24.79074287 42.84370422 0.125718 -0.489866 0.862685
6.18347216 -22.92412949 43.97092056 0.125718 -0.489866 0.862685
7.39483881 -23.68162155 43.36322784 0.125718 -0.489866 0.862685
5.26911592 -23.26161194 43.91416931 0.125718 -0.489866 0.862685
7.06487226 -22.96044540 43.82061768 0.125718 -0.489866 0.862685
6.65416813 -24.79101181 42.84332657 0.125718 -0.489866 0.862685
7.04324245 -23.52205467 43.50542831 0.125718 -0.489866 0.862685
7.35220146 -24.83433342 42.71603775 0.125718 -0.489866 0.862685
5.92395163 -23.77467728 43.52694321 0.125718 -0.489866 0.862685
7.70790625 -24.88434601 42.63533783 0.125718 -0.489866 0.862685
7.87808704 -23.04529572 43.65283585 0.125718 -0.489866 0.862685
5.89910126 -23.23667526 43.83559418 0.125718 -0.489866 0.862685
7.07315159 -25.49321747 42.38359070 0.125718 -0.489866 0.862685
6.95599222 -25.26858902 42.52817154 0.125718 -0.489866 0.862685
5.82227421 -25.02243423 42.83456421 0.125718 -0.489866 0.862685
6.10777330 -25.53843117 42.50003052 0.125718 -0.489866 0.862685
6.07794380 -25.42071915 42.57115173 0.125718 -0.489866 0.862685
5.89121342 -25.95151711 42.29772949 0.125718 -0.489866 0.862685
5.15253925 -24.79284668 43.06327820 0.125718 -0.489866 0.862685
5.27180624 -25.34984970 42.72996521 0.125718 -0.489866 0.862685
4.86041355 -25.59114265 42.65372086 0.125718 -0.489866 0.862685
7.06483269 -25.33061981 42.47698975 0.125718 -0.489866 0.862685
6.80978870 -25.42177391 42.46284866 0.125718 -0.489866 0.862685
6.17370987 -25.06717110 42.75748062 0.125718 -0.489866 0.862685
5.23780632 -24.99545670 42.93587112 0.125718 -0.489866 0.862685
5.78807640 -25.18296814 42.74858856 0.125718 -0.489866 0.862685
4.97290802 -24.74323654 43.11783981 0.125718 -0.489866 0.862685
4.88372374 -22.96697044 44.13792038 0.125718 -0.489866 0.862685
5.93805790 -25.49305725 42.55073166 0.125718 -0.489866 0.862685
5.17482328 -25.29631424 42.77458572 0.125718 -0.489866 0.862685
5.12760830 -25.29678917 42.78126526 0.125718 -0.489866 0.862685
6.10167027 -24.94781876 42.83574295 0.125718 -0.489866 0.862685
5.85244894 -25.84222031 42.36539078 0.125718 -0.489866 0.862685
6.84126806 -25.91430283 42.17900467 0.125718 -0.489866 0.862685
-2.66937065 -25.08690834 43.10981369 -0.062418 -0.489635 0.869691
-4.41914320 -24.15777588 43.50424576 -0.062418 -0.489635 0.869691
-4.60528326 -23.78956413 43.69768906 -0.062418 -0.489635 0.869691
-3.97977877 -25.09745407 43.00797272 -0.062418 -0.489635 0.869691
-3.28904057 -26.04003143 42.52846909 -0.062418 -0.489635 0.869691
-2.64223099 -25.17685509 43.06121826 -0.062418 -0.489635 0.869691
-3.95994520 -25.54724312 42.75648499 -0.062418 -0.489635 0.869691
-4.41504717 -25.21397781 42.91058731 -0.062418 -0.489635 0.869691
-3.25595903 -25.93517876 42.58985519 -0.062418 -0.489635 0.869691
-2.56585455 -25.35239792 42.96809387 -0.062418 -0.489635 0.869691
-4.50559855 -24.06277657 43.55134201 -0.062418 -0.489635 0.869691
-3.23598528 -25.12609100 43.04631042 -0.062418 -0.489635 0.869691
-3.86358285 -24.18552399 43.52930450 -0.062418 -0.489635 0.869691
-3.05953884 -25.70826530 42.73183441 -0.062418 -0.489635 0.869691
-4.66736317 -23.86748695 43.64932632 -0.062418 -0.489635 0.869691
-4.15517807 -23.87164116 43.68447495 -0.062418 -0.489635 0.869691
-2.90277624 -25.19504738 43.03191757 -0.062418 -0.489635 0.869691
-3.44652843 -24.81664276 43.20491409 -0.062418 -0.489635 0.869691
-4.46444559 -24.92455482 43.06973267 -0.062418 -0.489635 0.869691
-3.62049890 -24.29760933 43.48406601 -0.062418 -0.489635 0.869691
-2.54624057 -25.53077698 42.86921692 -0.062418 -0.489635 0.869691
-5.20408440 -24.99451065 42.94137192 -0.125718 -0.489866 0.862685
-5.27638674 -25.45984459 42.66693497 -0.125718 -0.489866 0.862685
-5.47708607 -23.03835678 44.01012802 -0.125718 -0.489866 0.862685
-5.24133873 -25.38509750 42.71446609 -0.125718 -0.489866 0.862685
-4.98025560 -24.25816154 43.39174652 -0.125718 -0.489866 0.862685
-5.04075480 -23.45366287 43.83890533 -0.125718 -0.489866 0.862685
-6.32890511 -23.04988861 43.87822723 -0.125718 -0.489866 0.862685
-5.05504179 -24.50148773 43.24279785 -0.125718 -0.489866 0.862685
-5.54281425 -25.08703423 42.83907318 -0.125718 -0.489866 0.862685
-4.79102325 -24.86890602 43.07336807 -0.125718 -0.489866 0.862685
-6.02134418 -22.91545296 43.99970245 -0.125718 -0.489866 0.862685
-6.75735855 -23.88581467 43.34129333 -0.125718 -0.489866 0.862685
-5.54371309 -23.39042091 43.80073929 -0.125718 -0.489866 0.862685
-6.26382065 -23.08359528 43.86869812 -0.125718 -0.489866 0.862685
-5.84273195 -24.22916222 43.28125000 -0.125718 -0.489866 0.862685
-6.54487848 -23.75200081 43.44842148 -0.125718 -0.489866 0.862685
-7.52478266 -23.32442474 43.54659653 -0.125718 -0.489866 0.862685
-5.76242924 -22.93617630 44.02605820 -0.125718 -0.489866 0.862685
-6.82802868 -22.90173721 43.88875961 -0.125718 -0.489866 0.862685
-6.09777164 -23.24764633 43.80013275 -0.125718 -0.489866 0.862685
-7.87445879 -22.91932678 43.72478485 -0.125718 -0.489866 0.862685
-5.82249784 -24.35000420 43.21572876 -0.125718 -0.489866 0.862685
3.96530151 -25.47661209 42.79581451 0.062418 -0.489635 0.869691
1.75118268 -23.97954941 43.79974365 0.062418 -0.489635 0.869691
3.30004621 -25.21379089 42.99230194 0.062418 -0.489635 0.869691
4.48459816 -25.88709831 42.52696609 0.062418 -0.489635 0.869691
1.87513494 -23.60801697 43.99960327 0.062418 -0.489635 0.869691
2.06479645 -25.16636467 43.10938263 0.062418 -0.489635 0.869691
1.86842287 -24.71395493 43.37816620 0.062418 -0.489635 0.869691
2.10285068 -23.77491760 43.88908005 0.062418 -0.489635 0.869691
2.26228476 -23.69305992 43.92344666 0.062418 -0.489635 0.869691
2.06203175 -25.87223053 42.71263504 0.062418 -0.489635 0.869691
2.48883653 -23.85962486 43.81319427 0.062418 -0.489635 0.869691
2.59582448 -24.06000328 43.69268036 0.062418 -0.489635 0.869691
2.40156984 -24.21186256 43.62150192 0.062418 -0.489635 0.869691
2.75936031 -24.57012177 43.39384460 0.062418 -0.489635 0.869691
4.28065634 -25.89569855 42.53705978 0.062418 -0.489635 0.869691
1.85096014 -25.24924278 43.07842255 0.062418 -0.489635 0.869691
2.48693776 -24.64366531 43.37242508 0.062418 -0.489635 0.869691
3.37202525 -25.04030609 43.08459091 0.062418 -0.489635 0.869691
2.69977140 -24.53042221 43.42053223 0.062418 -0.489635 0.869691
2.73036528 -24.20035553 43.60390472 0.062418 -0.489635 0.869691
1.97289371 -25.91072083 42.69751740 0.062418 -0.489635 0.869691
1.98832488 -25.80262566 42.75717545 0.062418 -0.489635 0.869691
3.75401711 -25.04384041 43.05464554 0.062418 -0.489635 0.869691
2.45366549 -22.86547852 44.37482834 0.062418 -0.489635 0.869691
4.67378378 -24.78707314 43.13172150 0.062418 -0.489635 0.869691
2.56617641 -23.18106842 44.18912506 0.062418 -0.489635 0.869691
4.38391781 -23.69985390 43.76433563 0.062418 -0.489635 0.869691
3.82160997 -25.10126114 43.01741028 0.062418 -0.489635 0.869691
3.87397599 -24.49383163 43.35516357 0.062418 -0.489635 0.869691
2.74819946 -22.95792580 44.30128479 0.062418 -0.489635 0.869691
2.35691857 -22.99841499 44.30715561 0.062418 -0.489635 0.869691
4.49936724 -23.86584854 43.66254044 0.062418 -0.489635 0.869691
4.57831335 -24.27156448 43.42860794 0.062418 -0.489635 0.869691
4.78197527 -22.99782372 44.12999344 0.062418 -0.489635 0.869691
4.03804111 -25.36113358 42.85543060 0.062418 -0.489635 0.869691
4.46239662 -23.69988060 43.75858307 0.062418 -0.489635 0.869691
3.70044327 -22.94885254 44.23669052 0.062418 -0.489635 0.869691
4.49314499 -23.07075310 44.11012268 0.062418 -0.489635 0.869691
4.73040342 -24.35866165 43.36849976 0.062418 -0.489635 0.869691
2.83949780 -23.40647888 44.04235840 0.062418 -0.489635 0.869691
3.44212151 -23.97025681 43.68120956 0.062418 -0.489635 0.869691
4.39890099 -24.17958069 43.49346542 0.062418 -0.489635 0.869691
2.84854603 -23.90195847 43.76306152 0.062418 -0.489635 0.869691
4.52723169 -24.34490967 43.39110184 0.062418 -0.489635 0.869691
2.62893224 -23.43019295 44.04442978 0.062418 -0.489635 0.869691
-2.81230187 -23.96758842 43.72880554 -0.062418 -0.489635 0.869691
-2.82088280 -23.56257439 43.95593643 -0.062418 -0.489635 0.869691
-2.02656627 -24.03205109 43.75006485 -0.062418 -0.489635 0.869691
-2.63785458 -23.19964027 44.17343140 -0.062418 -0.489635 0.869691
-2.42304301 -24.04726601 43.71249008 -0.062418 -0.489635 0.869691
-3.11283445 -23.66290092 43.87815094 -0.062418 -0.489635 0.869691
-3.46399736 -23.14923668 44.14130783 -0.062418 -0.489635 0.869691
-1.70262110 -25.55886078 42.91516876 -0.062418 -0.489635 0.869691
-2.31895900 -24.74899292 43.32548904 -0.062418 -0.489635 0.869691
-3.37401986 -24.22970390 43.54029083 -0.062418 -0.489635 0.869691
-2.00062919 -23.33228493 44.14547729 -0.062418 -0.489635 0.869691
-2.10903692 -24.90165329 43.25500107 -0.062418 -0.489635 0.869691
-4.55673265 -23.00374413 44.14315033 -0.062418 -0.489635 0.869691
-1.94507062 -25.43806267 42.96535110 -0.062418 -0.489635 0.869691
-3.72605157 -23.06645012 44.16868591 -0.062418 -0.489635 0.869691
-4.47571278 -23.12852097 44.07891083 -0.062418 -0.489635 0.869691
-4.15836048 -23.52225304 43.88072205 -0.062418 -0.489635 0.869691
-1.99526811 -23.81316566 43.87544250 -0.062418 -0.489635 0.869691
-3.10619020 -23.04918671 44.22376251 -0.062418 -0.489635 0.869691
-1.78256154 -24.31000519 43.61161423 -0.062418 -0.489635 0.869691
-3.87256479 -23.07395363 44.15374374 -0.062418 -0.489635 0.869691
-3.51003122 -23.19325256 44.11318970 -0.062418 -0.489635 0.869691
-2.61894655 -25.00365067 43.16032410 -0.062418 -0.489635 0.869691
-1.13113666 -24.01260948 43.79218292 0.001329 -0.487672 0.873026
-1.39391756 -24.01976204 43.78817368 0.001329 -0.487672 0.873026
-1.30732691 -23.39449310 44.13885880 0.001329 -0.487672 0.873026
0.64049065 -25.41882324 43.00350571 0.001329 -0.487672 0.873026
-0.19271708 -24.95791817 43.26200485 0.001329 -0.487672 0.873026
-0.41819036 -26.03726196 42.65665054 0.001329 -0.487672 0.873026
0.97292018 -25.54336739 42.93365479 0.001329 -0.487672 0.873026
-0.65781713 -24.73134232 43.38908005 0.001329 -0.487672 0.873026
-1.56859612 -23.66041183 43.98971558 0.001329 -0.487672 0.873026
0.89080143 -25.91736221 42.72389603 0.001329 -0.487672 0.873026
-0.46519721 -24.02479172 43.78535461 0.001329 -0.487672 0.873026
1.13184941 -25.85656166 42.75799942 0.001329 -0.487672 0.873026
0.76267660 -25.34074402 43.04729462 0.001329 -0.487672 0.873026
-0.13740575 -25.29906273 43.07067490 0.001329 -0.487672 0.873026
0.41604325 -25.25963211 43.09278870 0.001329 -0.487672 0.873026
-0.71197450 -25.54129601 42.93481445 0.001329 -0.487672 0.873026
-0.87134510 -24.55925369 43.48559952 0.001329 -0.487672 0.873026
-1.51292264 -24.48838615 43.52534485 0.001329 -0.487672 0.873026
0.06545210 -25.96403694 42.69771957 0.001329 -0.487672 0.873026
-1.54692245 -24.09144974 43.74796677 0.001329 -0.487672 0.873026
-1.48724556 -25.04787827 43.21155167 0.001329 -0.487672 0.873026
-1.08854437 -23.41846848 44.12541199 0.001329 -0.487672 0.873026
0.45263830 -24.58039284 43.47374344 0.001329 -0.487672 0.873026
-0.63424009 -23.71069336 43.96151352 0.001329 -0.487672 0.873026
1.31527448 -23.84389877 43.88680649 0.001329 -0.487672 0.873026
0.72712207 -23.32019234 44.18053055 0.001329 -0.487672 0.873026
-0.94977546 -23.04967308 44.33225250 0.001329 -0.487672 0.873026
-0.08394480 -24.22711372 43.67187881 0.001329 -0.487672 0.873026
0.85729724 -24.55965805 43.48537064 0.001329 -0.487672 0.873026
0.32755598 -23.31912422 44.18112946 0.001329 -0.487672 0.873026
0.19407600 -23.57184982 44.03938675 0.001329 -0.487672 0.873026
1.33168805 -25.45946884 42.98070908 0.001329 -0.487672 0.873026
1.03961742 -25.18871307 43.13256454 0.001329 -0.487672 0.873026
0.92104822 -25.03981972 43.21607208 0.001329 -0.487672 0.873026
1.58081388 -24.00608063 43.79584503 0.001329 -0.487672 0.873026
1.59254074 -23.18210220 44.25797653 0.001329 -0.487672 0.873026
-0.02694141 -24.32290649 43.61815262 0.001329 -0.487672 0.873026
0.29953912 -23.93064690 43.83815384 0.001329 -0.487672 0.873026
-0.88735998 -23.48482323 44.08819580 0.001329 -0.487672 0.873026
-0.29303011 -23.42048264 44.12428284 0.001329 -0.487672 0.873026
-0.18744601 -23.60057259 44.02327728 0.001329 -0.487672 0.873026
1.54518366 -23.92090225 43.84362030 0.001329 -0.487672 0.873026
0.82526183 -24.54860497 43.49156952 0.001329 -0.487672 0.873026
0.20728812 -23.83359337 43.89258575 0.001329 -0.487672 0.873026
43.98059845 -23.61911774 1.87111568 0.890895 -0.454052 0.011914
44.26865768 -23.09650993 0.19196227 0.890895 -0.454052 0.011914
43.79862976 -24.00961494 0.56015140 0.890895 -0.454052 0.011914
43.72541809 -24.16418266 0.13258846 0.890895 -0.454052 0.011914
44.34479523 -22.89047241 2.41585207 0.890895 -0.454052 0.011914
43.59693909 -24.41539001 0.16990018 0.890895 -0.454052 0.011914
43.91183090 -23.75707054 1.75369263 0.890895 -0.454052 0.011914
43.64662552 -24.30475616 0.68542475 0.890895 -0.454052 0.011914
43.41739273 -24.76644516 0.22199813 0.890895 -0.454052 0.011914
43.87948608 -23.83635521 1.13272238 0.890895 -0.454052 0.011914
43.78896713 -24.04001236 0.11109371 0.890895 -0.454052 0.011914
43.51556778 -24.57560730 0.14956360 0.890895 -0.454052 0.011914
43.84812927 -23.91128349 0.60649496 0.890895 -0.454052 0.011914
44.30185699 -23.01680565 0.76346248 0.890895 -0.454052 0.011914
44.20462036 -23.16486549 2.44387364 0.890895 -0.454052 0.011914
-44.06820679 -23.49378586 0.03973073 -0.890895 -0.454052 0.011914
-43.82070160 -23.96614265 0.56610119 -0.890895 -0.454052 0.011914
-44.29846954 -22.97756004 2.56658220 -0.890895 -0.454052 0.011914
-43.94786453 -23.70171165 1.15028989 -0.890895 -0.454052 0.011914
-44.33725739 -22.95730209 0.37146437 -0.890895 -0.454052 0.011914
-44.09935760 -23.42290497 0.42255151 -0.890895 -0.454052 0.011914
-43.83634949 -23.94704437 0.10994637 -0.890895 -0.454052 0.011914
-43.99977875 -23.61934280 0.38325894 -0.890895 -0.454052 0.011914
-44.11788177 -23.36425781 1.29853749 -0.890895 -0.454052 0.011914
-44.15535736 -23.28944016 1.34827030 -0.890895 -0.454052 0.011914
-44.32654190 -22.93015671 2.26443148 -0.890895 -0.454052 0.011914
-43.48082733 -24.63474846 0.50494337 -0.890895 -0.454052 0.011914
-44.14010620 -23.30260086 2.00725770 -0.890895 -0.454052 0.011914
-43.72707748 -24.13308144 1.22657621 -0.890895 -0.454052 0.011914
-44.34931946 -22.89176750 2.01608300 -0.890895 -0.454052 0.011914
-45.16758347 -21.31722450 0.78297967 -0.890895 -0.454052 0.011914
-45.34615707 -20.97785187 0.34716588 -0.890895 -0.454052 0.011914
-44.58982468 -22.40667534 2.52975726 -0.890895 -0.454052 0.011914
-44.63070297 -22.34672546 1.73302305 -0.890895 -0.454052 0.011914
-44.40597153 -22.76545334 2.61067152 -0.890895 -0.454052 0.011914
-44.39690399 -22.77795029 2.81879449 -0.890895 -0.454052 0.011914
-45.32331848 -21.01196861 0.76770818 -0.890895 -0.454052 0.011914
-44.96356964 -21.72486496 0.49845564 -0.890895 -0.454052 0.011914
-44.56656265 -22.45596313 2.38715029 -0.890895 -0.454052 0.011914
-45.55387115 -20.57565689 0.13226661 -0.890895 -0.454052 0.011914
-44.40080261 -22.82327843 0.73736942 -0.890895 -0.454052 0.011914
-44.57391739 -22.48277283 0.76675212 -0.890895 -0.454052 0.011914
-45.25081253 -21.15388298 0.78287005 -0.890895 -0.454052 0.011914
-44.57591248 -22.48406219 0.56233245 -0.890895 -0.454052 0.011914
-44.60246277 -22.41893196 1.07381785 -0.890895 -0.454052 0.011914
-44.92255020 -21.79171944 1.03481042 -0.890895 -0.454052 0.011914
-44.90000534 -21.85223579 0.39533478 -0.890895 -0.454052 0.011914
-45.79427338 -19.87605667 2.22963452 -0.904858 -0.423693 0.041434
-45.75288391 -20.00685501 1.78072119 -0.904858 -0.423693 0.041434
-44.89719009 -21.78700638 2.24645543 -0.904858 -0.423693 0.041434
-45.38072586 -20.83849335 1.37753189 -0.904858 -0.423693 0.041434
-45.42490768 -20.76407623 1.16890442 -0.904858 -0.423693 0.041434
-45.56246567 -20.51269913 0.72697586 -0.904858 -0.423693 0.041434
-45.67410660 -20.33262825 0.11562106 -0.904858 -0.423693 0.041434
-45.74399185 -19.96210861 2.45279551 -0.904858 -0.423693 0.041434
-45.51065826 -20.45996094 2.44867563 -0.904858 -0.423693 0.041434
-45.77850342 -19.88461304 2.49412227 -0.904858 -0.423693 0.041434
-45.81171036 -19.82585144 2.36714911 -0.904858 -0.423693 0.041434
-45.11337662 -21.24802399 3.07032228 -0.904858 -0.423693 0.041434
-45.32228088 -20.78505898 3.25591373 -0.904858 -0.423693 0.041434
-45.50780487 -20.58051109 1.24095786 -0.904858 -0.423693 0.041434
-44.77980042 -21.99438477 2.69916558 -0.904858 -0.423693 0.041434
-45.31395340 -20.85398102 2.71605325 -0.904858 -0.423693 0.041434
-45.60680008 -20.33580399 1.59599674 -0.904858 -0.423693 0.041434
-45.21048737 -21.14314079 1.99256837 -0.904858 -0.423693 0.041434
-45.73845291 -19.90886688 3.13907957 -0.904858 -0.423693 0.041434
-45.19634247 -21.15800476 2.15397310 -0.904858 -0.423693 0.041434
-45.69824219 -20.21668243 0.79596156 -0.904858 -0.423693 0.041434
-45.64709473 -20.17960548 2.33765674 -0.904858 -0.423693 0.041434
-45.19879150 -21.22929382 1.34672534 -0.904858 -0.423693 0.041434
-45.36434555 -20.89368248 1.16373837 -0.904858 -0.423693 0.041434
-44.60445023 -22.16119385 3.92182231 -0.900110 -0.424318 0.098776
-44.97220230 -21.37721062 3.93756771 -0.900110 -0.424318 0.098776
-44.15248108 -22.79514694 5.31404209 -0.900110 -0.424318 0.098776
-44.24343491 -22.75476646 4.66038895 -0.900110 -0.424318 0.098776
-44.80937195 -21.50072289 4.88838482 -0.900110 -0.424318 0.098776
-44.84551239 -21.57754326 4.23087311 -0.900110 -0.424318 0.098776
-45.04155731 -21.12553406 4.38528156 -0.900110 -0.424318 0.098776
-45.02336884 -21.15495682 4.42451191 -0.900110 -0.424318 0.098776
-45.09343338 -20.98437691 4.51839066 -0.900110 -0.424318 0.098776
-45.44835663 -20.42117882 3.70508289 -0.900110 -0.424318 0.098776
-44.22749710 -22.62258148 5.37142611 -0.900110 -0.424318 0.098776
-44.68841553 -21.85569000 4.46725750 -0.900110 -0.424318 0.098776
-45.02912140 -21.36349106 3.47903395 -0.900110 -0.424318 0.098776
-45.14780426 -21.09929276 3.53205490 -0.900110 -0.424318 0.098776
-44.75668716 -21.95962715 3.40158582 -0.900110 -0.424318 0.098776
-44.57014465 -22.36851311 3.34554863 -0.900110 -0.424318 0.098776
-45.57335663 -20.16062355 3.68505907 -0.900110 -0.424318 0.098776
-44.80748749 -21.79173470 3.65903854 -0.900110 -0.424318 0.098776
-44.59724045 -22.05044365 4.46168900 -0.900110 -0.424318 0.098776
-44.63970566 -22.18706703 3.49057388 -0.900110 -0.424318 0.098776
-44.74162292 -21.81775856 4.14616823 -0.900110 -0.424318 0.098776
-44.67362595 -21.82221794 4.74504948 -0.900110 -0.424318 0.098776
-44.58593750 -22.15623665 4.11126995 -0.900110 -0.424318 0.098776
44.84913254 -21.19965172 5.81660604 0.900110 -0.424318 0.098776
44.65414429 -21.93148232 4.45408535 0.900110 -0.424318 0.098776
45.18179703 -20.47843742 5.88238049 0.900110 -0.424318 0.098776
44.33873367 -22.15139008 6.37870884 0.900110 -0.424318 0.098776
44.53930283 -21.77124405 6.18415213 0.900110 -0.424318 0.098776
44.66636276 -21.86134338 4.64346933 0.900110 -0.424318 0.098776
44.38107681 -22.63766479 3.91103148 0.900110 -0.424318 0.098776
44.93187332 -20.98450089 5.98617649 0.900110 -0.424318 0.098776
44.84968567 -21.32648468 5.26828671 0.900110 -0.424318 0.098776
44.61235046 -21.74128914 5.64856672 0.900110 -0.424318 0.098776
45.08996201 -20.62897301 6.07223749 0.900110 -0.424318 0.098776
44.20362091 -22.43450737 6.39401245 0.900110 -0.424318 0.098776
44.31209946 -22.46578026 5.27417898 0.900110 -0.424318 0.098776
44.44285202 -22.53798866 3.77654791 0.900110 -0.424318 0.098776
44.63617325 -21.82988930 5.05255365 0.900110 -0.424318 0.098776
44.26591110 -22.59481812 5.14120865 0.900110 -0.424318 0.098776
44.58050919 -21.60018539 6.54231930 0.900110 -0.424318 0.098776
44.64399719 -21.86107445 4.84784603 0.900110 -0.424318 0.098776
44.60575104 -21.55681801 6.49866533 0.900110 -0.424318 0.098776
45.17118835 -20.48245239 5.96160984 0.900110 -0.424318 0.098776
44.99045181 -20.88526154 5.87886858 0.900110 -0.424318 0.098776
44.94408035 -20.88370895 6.30696011 0.900110 -0.424318 0.098776
44.56085587 -21.76064873 6.03361225 0.900110 -0.424318 0.098776
44.40563583 -22.79749489 1.37783909 0.890895 -0.454052 0.011914
44.59826660 -22.41530800 1.53973162 0.890895 -0.454052 0.011914
44.73529434 -22.17997932 0.21945739 0.890895 -0.454052 0.011914
44.81743622 -22.01899338 0.21057175 0.890895 -0.454052 0.011914
45.26145935 -21.14321518 0.38088897 0.890895 -0.454052 0.011914
44.66440582 -22.27727699 1.86300254 0.890895 -0.454052 0.011914
44.47096634 -22.68031502 0.94407326 0.890895 -0.454052 0.011914
45.41786957 -20.84133148 0.18097886 0.890895 -0.454052 0.011914
45.20537567 -21.25119972 0.46280620 0.890895 -0.454052 0.011914
44.52128983 -22.57949066 1.02460980 0.890895 -0.454052 0.011914
44.42523956 -22.78520775 0.34876761 0.890895 -0.454052 0.011914
44.59658432 -22.39627647 2.41728163 0.890895 -0.454052 0.011914
44.49497223 -22.59675789 2.37571478 0.890895 -0.454052 0.011914
44.59254837 -22.43215942 1.31872427 0.890895 -0.454052 0.011914
44.48580551 -22.62270164 2.06330585 0.890895 -0.454052 0.011914
45.35003662 -20.96998024 0.35683429 0.890895 -0.454052 0.011914
45.27429581 -21.12517929 0.09963839 0.890895 -0.454052 0.011914
45.76226807 -19.93487549 2.32900858 0.904858 -0.423693 0.041434
45.34703064 -20.73901558 3.18506241 0.904858 -0.423693 0.041434
45.67000961 -20.12270546 2.42250133 0.904858 -0.423693 0.041434
45.14198303 -21.28412628 2.04596519 0.904858 -0.423693 0.041434
44.72391510 -22.11154938 2.72003245 0.904858 -0.423693 0.041434
45.10556412 -21.29882813 2.71013618 0.904858 -0.423693 0.041434
44.94057465 -21.73409653 1.82893419 0.904858 -0.423693 0.041434
44.73337555 -22.03959656 3.26630402 0.904858 -0.423693 0.041434
45.75840378 -19.96821022 2.06418705 0.904858 -0.423693 0.041434
45.17832184 -21.16402626 2.49574804 0.904858 -0.423693 0.041434
45.31467438 -20.83880234 2.85991478 0.904858 -0.423693 0.041434
45.66143417 -20.34780312 0.24052036 0.904858 -0.423693 0.041434
45.64672089 -20.25537682 1.54658842 0.904858 -0.423693 0.041434
45.59012604 -20.39497566 1.34679496 0.904858 -0.423693 0.041434
45.57023621 -20.32146645 2.56972241 0.904858 -0.423693 0.041434
45.33681870 -20.80559158 2.71226215 0.904858 -0.423693 0.041434
45.22509003 -21.00948715 3.07423735 0.904858 -0.423693 0.041434
45.55589676 -20.47566795 1.26541722 0.904858 -0.423693 0.041434
44.80667496 -21.96086884 2.44818163 0.904858 -0.423693 0.041434
45.70458603 -20.04304123 2.48532653 0.904858 -0.423693 0.041434
45.05777740 -21.47664452 1.90883565 0.904858 -0.423693 0.041434
45.20685577 -21.21251297 1.34241855 0.904858 -0.423693 0.041434
44.69761276 -22.12049484 3.21722317 0.904858 -0.423693 0.041434
45.21084595 -20.61926460 5.01519442 0.900110 -0.424318 0.098776
44.95598984 -21.41029930 3.94317436 0.900110 -0.424318 0.098776
45.03995514 -21.11420250 4.44837379 0.900110 -0.424318 0.098776
45.35412598 -20.09103394 5.97557640 0.900110 -0.424318 0.098776
45.33082199 -20.20784950 5.68701124 0.900110 -0.424318 0.098776
44.53828430 -22.42857742 3.37788868 0.900110 -0.424318 0.098776
45.15790558 -21.06518936 3.58632469 0.900110 -0.424318 0.098776
45.54296112 -20.04668236 4.44935751 0.900110 -0.424318 0.098776
45.02236938 -21.13249588 4.52984619 0.900110 -0.424318 0.098776
45.62749863 -19.81364632 4.67920017 0.900110 -0.424318 0.098776
45.61576843 -19.67576218 5.37640762 0.900110 -0.424318 0.098776
45.38443756 -20.48669243 4.00535488 0.900110 -0.424318 0.098776
45.52056122 -20.35108566 3.34909034 0.900110 -0.424318 0.098776
45.71802902 -19.67850494 4.43528509 0.900110 -0.424318 0.098776
45.40472031 -20.31595802 4.55237293 0.900110 -0.424318 0.098776
45.58761597 -19.99964333 4.24498129 0.900110 -0.424318 0.098776
45.12857056 -21.12484360 3.59738588 0.900110 -0.424318 0.098776
44.85340881 -21.75837708 3.38456821 0.900110 -0.424318 0.098776
45.15527344 -20.78068352 4.82887030 0.900110 -0.424318 0.098776
45.39617157 -20.50141335 3.83568215 0.900110 -0.424318 0.098776
45.43373871 -20.44769096 3.72435880 0.900110 -0.424318 0.098776
45.52945328 -20.08834267 4.39368677 0.900110 -0.424318 0.098776
45.12245178 -21.15256119 3.53426290 0.900110 -0.424318 0.098776
45.82685852 -19.63701057 3.62391734 0.900110 -0.424318 0.098776
-43.94094086 -22.43312073 7.86403656 -0.891206 -0.423215 0.163219
-43.69243622 -22.66100883 8.62165356 -0.891206 -0.423215 0.163219
-44.12316513 -21.93379402 8.16530132 -0.891206 -0.423215 0.163219
-43.78610229 -22.46446037 8.62149715 -0.891206 -0.423215 0.163219
-44.55610275 -21.64584351 6.56409645 -0.891206 -0.423215 0.163219
-45.04750061 -20.50318909 6.85076427 -0.891206 -0.423215 0.163219
-43.77410889 -22.29876900 9.11374187 -0.891206 -0.423215 0.163219
-45.17405319 -20.23707771 6.85197115 -0.891206 -0.423215 0.163219
-44.99851990 -20.38160324 7.42954779 -0.891206 -0.423215 0.163219
-44.25165558 -21.90865135 7.53452730 -0.891206 -0.423215 0.163219
-44.25134277 -21.72430038 8.01168251 -0.891206 -0.423215 0.163219
-43.92899323 -22.06216812 8.88544846 -0.891206 -0.423215 0.163219
-44.10590363 -21.86351204 8.44002438 -0.891206 -0.423215 0.163219
-44.08478928 -21.80328178 8.70969296 -0.891206 -0.423215 0.163219
-44.29772949 -22.12093735 6.73757315 -0.891206 -0.423215 0.163219
-44.24201965 -21.61487198 8.34439373 -0.891206 -0.423215 0.163219
-45.30022812 -20.04089355 6.67485189 -0.891206 -0.423215 0.163219
-44.76804352 -20.80149269 7.59436369 -0.891206 -0.423215 0.163219
-45.00702667 -20.65870094 6.66882420 -0.891206 -0.423215 0.163219
-44.59421921 -21.36582756 7.07993078 -0.891206 -0.423215 0.163219
-43.73309708 -22.83344460 7.95679998 -0.891206 -0.423215 0.163219
-45.03312302 -20.35676193 7.30626917 -0.891206 -0.423215 0.163219
-44.58418274 -21.37137413 7.11996412 -0.891206 -0.423215 0.163219
-44.64835739 -21.47752380 6.45110416 -0.900110 -0.424318 0.098776
-44.84113312 -21.36459351 5.18280649 -0.900110 -0.424318 0.098776
-45.75687027 -19.70087433 3.98646259 -0.900110 -0.424318 0.098776
-45.15260696 -20.82622147 4.65803862 -0.900110 -0.424318 0.098776
-44.63702011 -21.66967773 5.73112345 -0.900110 -0.424318 0.098776
-44.86818695 -21.30964470 5.17231035 -0.900110 -0.424318 0.098776
-44.87606430 -21.03759956 6.26596689 -0.900110 -0.424318 0.098776
-45.64749908 -19.86609459 4.27279091 -0.900110 -0.424318 0.098776
-44.47990417 -22.00082588 5.74059916 -0.900110 -0.424318 0.098776
-44.83824921 -21.28184700 5.56345034 -0.900110 -0.424318 0.098776
-44.53178024 -21.85200500 5.90658140 -0.900110 -0.424318 0.098776
-45.63565445 -19.77189445 4.78392076 -0.900110 -0.424318 0.098776
-45.54204559 -20.06958961 4.35959005 -0.900110 -0.424318 0.098776
-45.45923996 -20.01835251 5.33157206 -0.900110 -0.424318 0.098776
-44.96636200 -21.06262207 5.33813858 -0.900110 -0.424318 0.098776
-45.06016541 -20.86922646 5.31396580 -0.900110 -0.424318 0.098776
-45.44854736 -19.78414154 6.43194389 -0.900110 -0.424318 0.098776
-44.76304626 -21.34614182 5.97154236 -0.900110 -0.424318 0.098776
-44.46923828 -21.90255928 6.25844288 -0.900110 -0.424318 0.098776
-45.52424240 -20.14283180 4.20763350 -0.900110 -0.424318 0.098776
-45.46878815 -20.12582588 4.78445101 -0.900110 -0.424318 0.098776
-44.39973450 -22.03785896 6.31061506 -0.900110 -0.424318 0.098776
-45.42994308 -20.26759148 4.53028536 -0.900110 -0.424318 0.098776
-45.57691574 -19.59145737 6.09060383 -0.900110 -0.424318 0.098776
43.82036591 -22.26984787 8.93791294 0.891206 -0.423215 0.163219
43.87971497 -21.98232079 9.35818958 0.891206 -0.423215 0.163219
44.19468307 -22.10166359 7.34517956 0.891206 -0.423215 0.163219
43.82908249 -22.84229851 7.41430378 0.891206 -0.423215 0.163219
43.58006668 -22.71212196 9.09817505 0.891206 -0.423215 0.163219
44.63870239 -20.26599884 9.67574310 0.891206 -0.423215 0.163219
43.82748413 -22.54649353 8.18587685 0.891206 -0.423215 0.163219
43.83081818 -22.11656189 9.27667999 0.891206 -0.423215 0.163219
44.19872665 -21.16189766 9.74706554 0.891206 -0.423215 0.163219
43.94421768 -22.12343407 8.64501476 0.891206 -0.423215 0.163219
44.41285324 -20.78501892 9.55983067 0.891206 -0.423215 0.163219
43.45314407 -22.75779343 9.66754436 0.891206 -0.423215 0.163219
43.93744278 -22.56201935 7.55050135 0.891206 -0.423215 0.163219
44.09000397 -21.55988884 9.30920792 0.891206 -0.423215 0.163219
44.06219864 -21.55638504 9.46877670 0.891206 -0.423215 0.163219
43.89982605 -21.98863029 9.23303032 0.891206 -0.423215 0.163219
43.98848724 -22.36093330 7.79280472 0.891206 -0.423215 0.163219
44.61284637 -20.35300636 9.59131336 0.891206 -0.423215 0.163219
44.01879501 -22.65536118 6.86934137 0.891206 -0.423215 0.163219
44.24449158 -21.76655006 7.93982649 0.891206 -0.423215 0.163219
44.39987183 -21.11759186 8.77234173 0.891206 -0.423215 0.163219
43.66909027 -22.80032349 8.38875389 0.891206 -0.423215 0.163219
43.95695114 -21.65509415 9.78401566 0.891206 -0.423215 0.163219
45.31164551 -19.79166222 7.25587130 0.891206 -0.423215 0.163219
45.05854416 -19.98042107 8.13929462 0.891206 -0.423215 0.163219
44.87026215 -20.07999802 8.90180588 0.891206 -0.423215 0.163219
45.17736053 -19.83553696 7.86968946 0.891206 -0.423215 0.163219
44.14707947 -22.44082260 6.72813940 0.891206 -0.423215 0.163219
44.63534164 -20.71557236 8.53441525 0.891206 -0.423215 0.163219
45.22525787 -20.05132103 7.05386257 0.891206 -0.423215 0.163219
44.95694733 -20.56136131 7.19099808 0.891206 -0.423215 0.163219
44.66646194 -20.52976227 8.84517574 0.891206 -0.423215 0.163219
44.86782455 -20.45545578 7.94666386 0.891206 -0.423215 0.163219
44.86601639 -20.95132256 6.67751503 0.891206 -0.423215 0.163219
45.16197968 -19.82940483 7.96880341 0.891206 -0.423215 0.163219
44.74811172 -21.10071373 6.93053055 0.891206 -0.423215 0.163219
44.70130539 -20.91460609 7.66395235 0.891206 -0.423215 0.163219
44.32136154 -21.71139145 7.66591167 0.891206 -0.423215 0.163219
44.84423447 -20.10128212 8.98782539 0.891206 -0.423215 0.163219
44.68256378 -20.67229462 8.39037895 0.891206 -0.423215 0.163219
45.40591049 -19.71492386 6.94341755 0.891206 -0.423215 0.163219
44.51615906 -21.41355515 7.37946224 0.891206 -0.423215 0.163219
44.12420654 -22.43795395 6.85937452 0.891206 -0.423215 0.163219
44.34192276 -21.85090065 7.19478703 0.891206 -0.423215 0.163219
44.91801834 -20.70374489 7.03452778 0.891206 -0.423215 0.163219
44.92280579 -20.29122543 8.07253933 0.891206 -0.423215 0.163219
-43.62742615 -22.11372185 10.19721889 -0.875824 -0.425230 0.228281
-44.15080643 -20.87915421 10.48186111 -0.875824 -0.425230 0.228281
-43.94010162 -21.28904724 10.52862358 -0.875824 -0.425230 0.228281
-42.99729156 -22.70342255 11.51530933 -0.875824 -0.425230 0.228281
-43.48192215 -22.31675720 10.37772655 -0.875824 -0.425230 0.228281
-44.11189651 -21.20581245 10.02567101 -0.875824 -0.425230 0.228281
-43.85955811 -21.70970917 10.05758858 -0.875824 -0.425230 0.228281
-42.98576736 -22.82358742 11.33683014 -0.875824 -0.425230 0.228281
-42.92008591 -22.48948669 12.20687485 -0.875824 -0.425230 0.228281
-43.61057663 -21.45901489 11.47428513 -0.875824 -0.425230 0.228281
-44.10272217 -21.02003670 10.40483379 -0.875824 -0.425230 0.228281
-44.36947632 -20.50979614 10.32952309 -0.875824 -0.425230 0.228281
-43.29135895 -22.63713074 10.51326752 -0.875824 -0.425230 0.228281
-44.23809052 -20.82870674 10.24141788 -0.875824 -0.425230 0.228281
-43.47497177 -22.48580551 10.09121609 -0.875824 -0.425230 0.228281
-42.81467438 -22.61505890 12.37749386 -0.875824 -0.425230 0.228281
-43.42285538 -21.73518372 11.68081474 -0.875824 -0.425230 0.228281
-43.73435974 -21.27219391 11.34681320 -0.875824 -0.425230 0.228281
-43.50893021 -22.17640686 10.53437138 -0.875824 -0.425230 0.228281
-44.09563065 -20.87217712 10.70582581 -0.875824 -0.425230 0.228281
-43.82990646 -21.86831093 9.87724876 -0.875824 -0.425230 0.228281
-43.76653290 -21.24865341 11.26735878 -0.875824 -0.425230 0.228281
-43.54506302 -22.20983124 10.33424473 -0.875824 -0.425230 0.228281
-44.66831207 -20.64886284 8.52796650 -0.891206 -0.423215 0.163219
-45.18129349 -20.07695198 7.22575665 -0.891206 -0.423215 0.163219
-45.25029373 -19.59284019 8.10079670 -0.891206 -0.423215 0.163219
-44.43827820 -21.06567383 8.69833946 -0.891206 -0.423215 0.163219
-44.32337952 -20.97367477 9.55766869 -0.891206 -0.423215 0.163219
-44.89227676 -20.17401314 8.54014874 -0.891206 -0.423215 0.163219
-44.31457901 -21.25882339 8.86986923 -0.891206 -0.423215 0.163219
-44.60073471 -20.85109711 8.37223911 -0.891206 -0.423215 0.163219
-44.96984863 -19.97989655 8.62084103 -0.891206 -0.423215 0.163219
-44.31671524 -21.31736374 8.70731258 -0.891206 -0.423215 0.163219
-45.05912018 -19.55698776 9.22827625 -0.891206 -0.423215 0.163219
-44.05997086 -21.50846291 9.60444832 -0.891206 -0.423215 0.163219
-45.00045776 -20.12493706 8.08103466 -0.891206 -0.423215 0.163219
-44.31603622 -20.98853683 9.55908585 -0.891206 -0.423215 0.163219
-44.22526169 -21.29296494 9.26537514 -0.891206 -0.423215 0.163219
-45.00695801 -19.93185806 8.54382420 -0.891206 -0.423215 0.163219
-44.56085205 -21.03506851 8.11366081 -0.891206 -0.423215 0.163219
-45.09536362 -19.83768845 8.30807209 -0.891206 -0.423215 0.163219
-44.83959961 -20.46340561 8.07895088 -0.891206 -0.423215 0.163219
-44.55474472 -20.88447571 8.53512001 -0.891206 -0.423215 0.163219
-45.15566635 -20.04924774 7.43596506 -0.891206 -0.423215 0.163219
-44.49366760 -21.16265297 8.14833641 -0.891206 -0.423215 0.163219
-45.04980850 -19.70521164 8.89639950 -0.891206 -0.423215 0.163219
43.06993866 -21.99415398 12.55108452 0.875824 -0.425230 0.228281
43.40848923 -22.25949287 10.76467323 0.875824 -0.425230 0.228281
43.39988708 -22.53936768 10.27921104 0.875824 -0.425230 0.228281
42.81881714 -22.62317467 12.34661770 0.875824 -0.425230 0.228281
43.89503098 -20.26309395 12.60122585 0.875824 -0.425230 0.228281
43.47227478 -22.09730911 10.82106781 0.875824 -0.425230 0.228281
42.80377579 -22.42552948 12.77021027 0.875824 -0.425230 0.228281
43.36776733 -22.45026398 10.56709957 0.875824 -0.425230 0.228281
42.91881180 -22.81343651 11.61173820 0.875824 -0.425230 0.228281
43.17475510 -21.75863838 12.58637524 0.875824 -0.425230 0.228281
43.38469315 -22.46239090 10.47991085 0.875824 -0.425230 0.228281
43.52377319 -21.38451958 11.94427204 0.875824 -0.425230 0.228281
43.17177200 -21.81459427 12.49415112 0.875824 -0.425230 0.228281
43.89684296 -20.01498032 13.05383492 0.875824 -0.425230 0.228281
43.38506699 -22.68294525 10.06997299 0.875824 -0.425230 0.228281
43.55971527 -21.61894608 11.37259865 0.875824 -0.425230 0.228281
43.46874619 -22.40649033 10.26191044 0.875824 -0.425230 0.228281
43.38650513 -22.15967178 11.03363991 0.875824 -0.425230 0.228281
43.51387787 -22.25108337 10.37712765 0.875824 -0.425230 0.228281
43.88071823 -19.97440910 13.19064999 0.875824 -0.425230 0.228281
43.26025009 -22.09899521 11.62896919 0.875824 -0.425230 0.228281
43.73457718 -20.76286125 12.28933716 0.875824 -0.425230 0.228281
43.53414154 -21.72535515 11.27335072 0.875824 -0.425230 0.228281
44.09513092 -20.02905273 12.26930141 0.875824 -0.425230 0.228281
44.32245255 -20.43295670 10.65171814 0.875824 -0.425230 0.228281
44.18246078 -20.93783951 10.25207710 0.875824 -0.425230 0.228281
43.78414536 -21.84339333 10.09843731 0.875824 -0.425230 0.228281
44.18812943 -20.50554085 11.03107738 0.875824 -0.425230 0.228281
43.66385269 -22.01064682 10.24879074 0.875824 -0.425230 0.228281
44.25636673 -20.15964317 11.41070461 0.875824 -0.425230 0.228281
44.16252136 -20.06843758 11.93859386 0.875824 -0.425230 0.228281
44.35036087 -20.54912949 10.32978535 0.875824 -0.425230 0.228281
44.23771667 -20.89167404 10.12622929 0.875824 -0.425230 0.228281
44.18513107 -19.82149696 12.30947113 0.875824 -0.425230 0.228281
44.63112640 -19.87372398 10.50679874 0.875824 -0.425230 0.228281
44.19480133 -20.63778496 10.76061058 0.875824 -0.425230 0.228281
44.08988571 -20.68239975 11.07929420 0.875824 -0.425230 0.228281
43.65775299 -21.75941086 10.73744106 0.875824 -0.425230 0.228281
43.94940567 -20.20890236 12.49360943 0.875824 -0.425230 0.228281
44.10407639 -19.76058197 12.73233604 0.875824 -0.425230 0.228281
43.99978256 -21.39420128 10.10559654 0.875824 -0.425230 0.228281
43.53164673 -22.47609901 9.89239979 0.875824 -0.425230 0.228281
44.10128021 -21.20199013 10.07334995 0.875824 -0.425230 0.228281
43.97345734 -21.17900848 10.60484982 0.875824 -0.425230 0.228281
44.54740524 -19.95700264 10.67278957 0.875824 -0.425230 0.228281
43.87915802 -21.67918015 10.03915882 0.875824 -0.425230 0.228281
-42.25373459 -22.75718307 13.92461586 -0.855952 -0.425671 0.293513
-42.27561188 -22.74533463 13.87766933 -0.855952 -0.425671 0.293513
-42.89878082 -21.63925743 13.65582180 -0.855952 -0.425671 0.293513
-43.33854675 -20.96764183 13.34121037 -0.855952 -0.425671 0.293513
-43.33446884 -20.68187332 13.76778030 -0.855952 -0.425671 0.293513
-42.49646759 -21.73567963 14.69519234 -0.855952 -0.425671 0.293513
-42.47053146 -22.39161491 13.81953239 -0.855952 -0.425671 0.293513
-42.82838821 -22.14312935 13.13109779 -0.855952 -0.425671 0.293513
-41.79970932 -22.77165222 15.23447037 -0.855952 -0.425671 0.293513
-43.24910355 -21.27271271 13.16076851 -0.855952 -0.425671 0.293513
-42.73539734 -21.48268509 14.36191273 -0.855952 -0.425671 0.293513
-43.01329803 -21.23331451 13.90913677 -0.855952 -0.425671 0.293513
-43.25911713 -21.19323158 13.24673557 -0.855952 -0.425671 0.293513
-42.93148422 -21.32710075 14.01287079 -0.855952 -0.425671 0.293513
-43.16240692 -21.36537170 13.28045368 -0.855952 -0.425671 0.293513
-42.61507034 -21.81722832 14.22922325 -0.855952 -0.425671 0.293513
-42.89028168 -21.69371605 13.60172272 -0.855952 -0.425671 0.293513
-43.13396454 -21.10190582 13.74608707 -0.855952 -0.425671 0.293513
-42.88551331 -21.41747856 14.01649094 -0.855952 -0.425671 0.293513
-42.17395782 -22.06119537 15.16825676 -0.855952 -0.425671 0.293513
-42.97949982 -21.70544243 13.32318878 -0.855952 -0.425671 0.293513
-42.58607864 -21.82684135 14.30026531 -0.855952 -0.425671 0.293513
-42.20557785 -22.24817276 14.80429554 -0.855952 -0.425671 0.293513
-43.75236130 -21.05131340 11.68704796 -0.875824 -0.425230 0.228281
-44.73368454 -19.81081963 10.23100090 -0.875824 -0.425230 0.228281
-43.47963333 -20.94527626 12.92665577 -0.875824 -0.425230 0.228281
