11.86848736 -37.14619827 31.26249123 0.251016 -0.718317 0.648854
12.38337326 -36.13817596 32.18383026 0.251016 -0.718317 0.648854
11.55865574 -36.02409744 32.62817383 0.251016 -0.718317 0.648854
11.51095676 -36.44162750 32.18278503 0.251016 -0.718317 0.648854
11.02458191 -37.14233398 31.59180832 0.251016 -0.718317 0.648854
10.96650314 -36.99496078 31.77787018 0.251016 -0.718317 0.648854
11.98385429 -36.92608261 31.46255112 0.251016 -0.718317 0.648854
11.58974838 -35.87297440 32.78406143 0.251016 -0.718317 0.648854
12.12836552 -35.89515686 32.55197525 0.251016 -0.718317 0.648854
11.85373974 -36.92650604 31.51219559 0.251016 -0.718317 0.648854
11.14579296 -36.88063812 31.83580208 0.251016 -0.718317 0.648854
11.71430779 -35.12545776 33.56637192 0.251016 -0.718317 0.648854
11.30715561 -36.63446426 32.04708481 0.251016 -0.718317 0.648854
11.37934589 -36.78621674 31.85072136 0.251016 -0.718317 0.648854
11.61915874 -37.11567688 31.39241600 0.251016 -0.718317 0.648854
-11.58234978 -35.84380341 32.81930542 -0.251016 -0.718317 0.648854
-11.85061932 -34.85107040 33.81864166 -0.251016 -0.718317 0.648854
-11.22501087 -36.72806168 31.97476196 -0.251016 -0.718317 0.648854
-11.95616341 -35.14690018 33.44940948 -0.251016 -0.718317 0.648854
-12.04888344 -35.12495422 33.43807220 -0.251016 -0.718317 0.648854
-13.85171986 -34.78670883 33.11941910 -0.251016 -0.718317 0.648854
-13.10767269 -34.84444427 33.34185791 -0.251016 -0.718317 0.648854
-12.48350143 -35.86640549 32.44712448 -0.251016 -0.718317 0.648854
-12.67919540 -34.99020004 33.34498596 -0.251016 -0.718317 0.648854
-12.78803921 -34.74679184 33.57342911 -0.251016 -0.718317 0.648854
-12.88865662 -35.05373383 33.19374847 -0.251016 -0.718317 0.648854
-11.77196026 -35.69004059 32.91707230 -0.251016 -0.718317 0.648854
-13.38035297 -34.71641541 33.37903976 -0.251016 -0.718317 0.648854
-11.56605053 -36.68140411 31.89523315 -0.251016 -0.718317 0.648854
-11.79977512 -36.44071579 32.07255936 -0.251016 -0.718317 0.648854
-14.04628277 -34.72656250 33.11129379 -0.251016 -0.718317 0.648854
-11.62312317 -35.86979294 32.77473450 -0.251016 -0.718317 0.648854
-10.88973427 -35.61609268 33.29815292 -0.199788 -0.720167 0.664412
-9.13253117 -36.79747391 32.55093765 -0.199788 -0.720167 0.664412
-10.78421307 -37.02180862 31.80770111 -0.199788 -0.720167 0.664412
-9.78024673 -36.73589325 32.42144775 -0.199788 -0.720167 0.664412
-11.25958252 -35.27250290 33.55824661 -0.199788 -0.720167 0.664412
-10.72892189 -36.34816360 32.55401611 -0.199788 -0.720167 0.664412
-10.32134914 -36.81477737 32.17211914 -0.199788 -0.720167 0.664412
-9.19662094 -36.81660843 32.51080704 -0.199788 -0.720167 0.664412
-10.80893040 -36.15878296 32.73488617 -0.199788 -0.720167 0.664412
-9.52871990 -36.88211441 32.33927536 -0.199788 -0.720167 0.664412
-11.22344112 -35.94664001 32.83909225 -0.199788 -0.720167 0.664412
-9.43818951 -36.89618301 32.35145569 -0.199788 -0.720167 0.664412
-10.33806229 -37.17943192 31.77212906 -0.199788 -0.720167 0.664412
-11.01386452 -36.41925430 32.39072037 -0.199788 -0.720167 0.664412
-10.06328487 -37.07991791 31.96313667 -0.199788 -0.720167 0.664412
-10.91481876 -36.63583755 32.18615723 -0.199788 -0.720167 0.664412
9.76901436 -36.37352753 32.81729889 0.199788 -0.720167 0.664412
9.49170876 -36.79569244 32.44407654 0.199788 -0.720167 0.664412
9.70265007 -36.85274124 32.31840134 0.199788 -0.720167 0.664412
9.32133961 -35.64455795 33.74237823 0.199788 -0.720167 0.664412
8.79910755 -36.17418671 33.32696533 0.199788 -0.720167 0.664412
8.97511005 -37.02168274 32.35580444 0.199788 -0.720167 0.664412
9.73555470 -37.08471680 32.05720520 0.199788 -0.720167 0.664412
9.84032917 -37.02182388 32.09358215 0.199788 -0.720167 0.664412
9.79829693 -36.47680664 32.69657516 0.199788 -0.720167 0.664412
8.84762478 -37.11772537 32.29040146 0.199788 -0.720167 0.664412
8.63442326 -36.96192169 32.52371597 0.199788 -0.720167 0.664412
9.34546280 -35.72753906 33.64520645 0.199788 -0.720167 0.664412
8.83303261 -37.17691803 32.23071671 0.199788 -0.720167 0.664412
10.49428654 -37.22946167 31.67062569 0.199788 -0.720167 0.664412
10.12608528 -36.91365433 32.12417603 0.199788 -0.720167 0.664412
9.84299755 -35.94673538 33.25710678 0.199788 -0.720167 0.664412
10.08593464 -35.26065063 33.92657089 0.199788 -0.720167 0.664412
10.89083099 -35.06607437 33.89350128 0.199788 -0.720167 0.664412
9.92666054 -35.30306244 33.92887878 0.199788 -0.720167 0.664412
10.93582344 -36.70783997 32.10181808 0.199788 -0.720167 0.664412
10.03964043 -35.73154831 33.43059921 0.199788 -0.720167 0.664412
10.75762749 -35.26641846 33.71687317 0.199788 -0.720167 0.664412
11.31320190 -35.45123672 33.34843063 0.199788 -0.720167 0.664412
10.08030701 -34.86668777 34.35494232 0.199788 -0.720167 0.664412
11.03206730 -35.58221817 33.29172897 0.199788 -0.720167 0.664412
10.18984985 -34.95036316 34.23114395 0.199788 -0.720167 0.664412
10.88839436 -37.06636810 31.72788811 0.199788 -0.720167 0.664412
10.00515556 -35.93018341 33.22592163 0.199788 -0.720167 0.664412
10.42427063 -35.43394852 33.63640594 0.199788 -0.720167 0.664412
10.02536869 -35.66519547 33.50678635 0.199788 -0.720167 0.664412
10.68324947 -36.16334915 32.76800919 0.199788 -0.720167 0.664412
10.23263454 -35.99905014 33.08243561 0.199788 -0.720167 0.664412
9.93382931 -35.75053406 33.44209290 0.199788 -0.720167 0.664412
-9.57387543 -35.73350143 33.56956100 -0.199788 -0.720167 0.664412
-9.22696114 -35.52030182 33.90553665 -0.199788 -0.720167 0.664412
-11.02109814 -34.96823120 33.96001053 -0.199788 -0.720167 0.664412
-8.94620514 -35.73321533 33.75998688 -0.199788 -0.720167 0.664412
-10.64914417 -35.04694748 33.98741913 -0.199788 -0.720167 0.664412
-10.14079857 -35.27773285 33.89145279 -0.199788 -0.720167 0.664412
-9.26939201 -34.71773911 34.76187515 -0.199788 -0.720167 0.664412
-10.34361935 -35.23485184 33.87645721 -0.199788 -0.720167 0.664412
-9.18029881 -36.34630203 33.02510071 -0.199788 -0.720167 0.664412
-9.18130970 -35.28496552 34.17424011 -0.199788 -0.720167 0.664412
-9.47874546 -35.85318375 33.46875763 -0.199788 -0.720167 0.664412
-9.29361534 -35.81153107 33.56993866 -0.199788 -0.720167 0.664412
-9.66133499 -35.43928909 33.86170959 -0.199788 -0.720167 0.664412
-10.92670918 -35.29777145 33.63170242 -0.199788 -0.720167 0.664412
-10.53963184 -35.61367798 33.40681458 -0.199788 -0.720167 0.664412
-9.24016762 -34.95799637 34.51052475 -0.199788 -0.720167 0.664412
-9.75511265 -34.90995789 34.40657806 -0.199788 -0.720167 0.664412
-6.70463371 -37.11319733 32.80119324 -0.153024 -0.719668 0.677246
-7.74541187 -36.39814758 33.32738113 -0.153024 -0.719668 0.677246
-7.25238085 -36.64630127 33.17432785 -0.153024 -0.719668 0.677246
-8.68934441 -35.96777344 33.57288742 -0.153024 -0.719668 0.677246
-8.71137047 -36.31016541 33.20424271 -0.153024 -0.719668 0.677246
-8.17328262 -36.82289505 32.78025055 -0.153024 -0.719668 0.677246
-8.41857719 -37.15903091 32.36818695 -0.153024 -0.719668 0.677246
-7.86639404 -35.82910919 33.90471649 -0.153024 -0.719668 0.677246
-6.51487637 -37.13872528 32.81662369 -0.153024 -0.719668 0.677246
-7.12005949 -36.85803986 32.97908020 -0.153024 -0.719668 0.677246
-8.76635361 -35.62705994 33.91754532 -0.153024 -0.719668 0.677246
-7.04805613 -36.62699127 33.24065781 -0.153024 -0.719668 0.677246
-8.25792217 -36.56546402 33.03472900 -0.153024 -0.719668 0.677246
-6.57436514 -37.11547852 32.82797623 -0.153024 -0.719668 0.677246
-7.01733160 -37.15166092 32.69021606 -0.153024 -0.719668 0.677246
-7.51129246 -37.15059280 32.58059311 -0.153024 -0.719668 0.677246
7.38531828 -34.75049591 35.15834045 0.153024 -0.719668 0.677246
8.20782661 -35.13581085 34.56461334 0.153024 -0.719668 0.677246
8.15680695 -35.32271957 34.37751007 0.153024 -0.719668 0.677246
8.40289974 -35.28459549 34.36282349 0.153024 -0.719668 0.677246
8.63245201 -35.18466187 34.41751099 0.153024 -0.719668 0.677246
7.63293886 -35.72201157 34.07082367 0.153024 -0.719668 0.677246
7.38118124 -35.03835678 34.85348892 0.153024 -0.719668 0.677246
7.98544645 -36.03680801 33.65739059 0.153024 -0.719668 0.677246
7.34997463 -35.28294754 34.60066605 0.153024 -0.719668 0.677246
7.25390625 -35.00830078 34.91395569 0.153024 -0.719668 0.677246
8.05833244 -34.70905304 35.05145645 0.153024 -0.719668 0.677246
8.75946140 -35.89492416 33.63455200 0.153024 -0.719668 0.677246
7.51193237 -35.70363235 34.11748505 0.153024 -0.719668 0.677246
8.81274319 -35.94110489 33.57354736 0.153024 -0.719668 0.677246
7.93674374 -35.44191742 34.30023193 0.153024 -0.719668 0.677246
8.50396252 -37.02352142 32.49298859 0.153024 -0.719668 0.677246
7.98140383 -35.33069229 34.40837097 0.153024 -0.719668 0.677246
6.23636436 -36.68583298 33.36015701 0.153024 -0.719668 0.677246
6.46806669 -35.49718475 34.57084274 0.153024 -0.719668 0.677246
6.80253601 -35.79548645 34.17897797 0.153024 -0.719668 0.677246
7.40031195 -37.01149750 32.75323105 0.153024 -0.719668 0.677246
7.88024235 -37.12471771 32.52534866 0.153024 -0.719668 0.677246
6.98093557 -35.43581009 34.52104187 0.153024 -0.719668 0.677246
6.81997585 -36.13622665 33.81311417 0.153024 -0.719668 0.677246
6.86062145 -36.73039246 33.17285156 0.153024 -0.719668 0.677246
7.21763563 -36.64699173 33.18138885 0.153024 -0.719668 0.677246
6.95695972 -36.77708435 33.10165024 0.153024 -0.719668 0.677246
6.89309025 -36.54527283 33.36220932 0.153024 -0.719668 0.677246
6.22807121 -36.57843399 33.47610092 0.153024 -0.719668 0.677246
7.10890484 -36.15818024 33.72500992 0.153024 -0.719668 0.677246
7.81195068 -36.59992981 33.09811783 0.153024 -0.719668 0.677246
6.62145758 -35.91173553 34.09609222 0.153024 -0.719668 0.677246
-8.20382309 -34.73048782 34.99606323 -0.153024 -0.719668 0.677246
-7.12830067 -36.26282501 33.60950089 -0.153024 -0.719668 0.677246
-7.25697470 -35.09477615 34.82140732 -0.153024 -0.719668 0.677246
-6.45032740 -36.59203339 33.41182327 -0.153024 -0.719668 0.677246
-7.32231331 -35.51648331 34.35879898 -0.153024 -0.719668 0.677246
-7.14065552 -35.28342438 34.64710236 -0.153024 -0.719668 0.677246
-6.67642212 -36.01021576 33.97916031 -0.153024 -0.719668 0.677246
-8.65523529 -35.04199219 34.56394577 -0.153024 -0.719668 0.677246
-6.62262011 -35.79459000 34.22027206 -0.153024 -0.719668 0.677246
-8.06101704 -35.05939484 34.67870331 -0.153024 -0.719668 0.677246
-7.33618593 -35.67929077 34.18274689 -0.153024 -0.719668 0.677246
-8.25999069 -35.33393097 34.34246063 -0.153024 -0.719668 0.677246
-7.19403505 -34.70873260 35.24559784 -0.153024 -0.719668 0.677246
-7.44832468 -35.83018494 33.99731445 -0.153024 -0.719668 0.677246
-6.58130980 -35.31171799 34.74246597 -0.153024 -0.719668 0.677246
-7.50464010 -35.29248428 34.55585861 -0.153024 -0.719668 0.677246
-6.94287825 -34.73415756 35.27490616 -0.153024 -0.719668 0.677246
-6.14962482 -36.96107101 33.08710861 -0.101518 -0.719451 0.687083
-4.46086502 -37.11750031 33.17333984 -0.101518 -0.719451 0.687083
-4.33850670 -37.03034210 33.28278732 -0.101518 -0.719451 0.687083
-5.36604404 -36.43159103 33.75797272 -0.101518 -0.719451 0.687083
-5.05258131 -36.76691055 33.45304871 -0.101518 -0.719451 0.687083
-4.93684959 -36.89278793 33.33829117 -0.101518 -0.719451 0.687083
-6.05273724 -36.97663879 33.08514404 -0.101518 -0.719451 0.687083
-5.68691397 -35.82501984 34.34601974 -0.101518 -0.719451 0.687083
-6.07921982 -36.56312943 33.51450729 -0.101518 -0.719451 0.687083
-6.14611244 -35.20308304 34.92968369 -0.101518 -0.719451 0.687083
-5.79370403 -36.21762085 33.91882706 -0.101518 -0.719451 0.687083
-4.23073196 -36.81259537 33.52691269 -0.101518 -0.719451 0.687083
-5.46592379 -35.93202591 34.26663208 -0.101518 -0.719451 0.687083
-4.25790596 -36.85081100 33.48284149 -0.101518 -0.719451 0.687083
-6.42172718 -35.50765610 34.56971741 -0.101518 -0.719451 0.687083
-4.19011307 -36.98038101 33.35711670 -0.101518 -0.719451 0.687083
6.27030993 -34.93684006 35.19025803 0.101518 -0.719451 0.687083
5.24442387 -36.01727295 34.21011353 0.101518 -0.719451 0.687083
5.47502661 -35.24908066 34.98088837 0.101518 -0.719451 0.687083
5.54981756 -35.85193634 34.33812332 0.101518 -0.719451 0.687083
5.88568783 -34.98517227 35.19659042 0.101518 -0.719451 0.687083
4.33524323 -34.75937271 35.66284180 0.101518 -0.719451 0.687083
5.33650494 -34.71232224 35.56383133 0.101518 -0.719451 0.687083
6.15165377 -35.32099915 34.80530930 0.101518 -0.719451 0.687083
5.69254827 -34.79689407 35.42248154 0.101518 -0.719451 0.687083
5.20809793 -35.23899078 35.03099823 0.101518 -0.719451 0.687083
6.17110109 -36.26826859 33.80985641 0.101518 -0.719451 0.687083
4.62445545 -34.95423126 35.41582870 0.101518 -0.719451 0.687083
6.24859524 -35.36591339 34.74388885 0.101518 -0.719451 0.687083
5.74630117 -34.87185287 35.33597565 0.101518 -0.719451 0.687083
6.05851746 -35.77225876 34.34626389 0.101518 -0.719451 0.687083
5.37801313 -36.09106445 34.11301041 0.101518 -0.719451 0.687083
5.76649952 -35.06933975 35.12604904 0.101518 -0.719451 0.687083
4.20230150 -37.22499084 33.09900665 0.101518 -0.719451 0.687083
4.47151470 -36.27075195 34.05900192 0.101518 -0.719451 0.687083
5.12339401 -36.90443420 33.29846191 0.101518 -0.719451 0.687083
4.11622429 -35.37982941 35.04515076 0.101518 -0.719451 0.687083
5.46718645 -36.97582626 33.17272949 0.101518 -0.719451 0.687083
3.86604905 -37.02954483 33.35360336 0.101518 -0.719451 0.687083
5.12579155 -36.77290344 33.43592834 0.101518 -0.719451 0.687083
5.58343029 -36.90912247 33.22540665 0.101518 -0.719451 0.687083
5.07226563 -36.74110031 33.47718048 0.101518 -0.719451 0.687083
3.82519984 -36.97598267 33.41577911 0.101518 -0.719451 0.687083
4.64074659 -36.83263779 33.44517517 0.101518 -0.719451 0.687083
4.70677376 -35.86708069 34.44713211 0.101518 -0.719451 0.687083
5.78850937 -37.15256500 32.93994522 0.101518 -0.719451 0.687083
5.15897560 -36.83717346 33.36366653 0.101518 -0.719451 0.687083
3.93538928 -36.58337402 33.81084061 0.101518 -0.719451 0.687083
4.92641258 -36.30941010 33.95111084 0.101518 -0.719451 0.687083
-4.35703754 -35.92456436 34.43870163 -0.101518 -0.719451 0.687083
-5.66244078 -35.41566849 34.77857208 -0.101518 -0.719451 0.687083
-5.48835373 -34.71177673 35.54191208 -0.101518 -0.719451 0.687083
-3.87094164 -36.60478592 33.79795074 -0.101518 -0.719451 0.687083
-4.47716427 -36.33326721 33.99266434 -0.101518 -0.719451 0.687083
-4.73032379 -34.95780945 35.39639664 -0.101518 -0.719451 0.687083
-4.99449158 -35.24726486 35.05397034 -0.101518 -0.719451 0.687083
-4.67328930 -36.26252365 34.03773880 -0.101518 -0.719451 0.687083
-5.74327564 -35.05263519 35.14699554 -0.101518 -0.719451 0.687083
-4.47852135 -35.96858978 34.37457275 -0.101518 -0.719451 0.687083
-4.60956383 -34.73470306 35.64805984 -0.101518 -0.719451 0.687083
-4.70230341 -36.11330795 34.18979263 -0.101518 -0.719451 0.687083
-5.17433214 -34.72225571 35.57744598 -0.101518 -0.719451 0.687083
-4.85640478 -35.49859238 34.81107330 -0.101518 -0.719451 0.687083
-5.53248167 -35.37914276 34.83609772 -0.101518 -0.719451 0.687083
-5.55841589 -35.22020340 34.99879074 -0.101518 -0.719451 0.687083
-4.18087578 -35.78223419 34.61392975 -0.101518 -0.719451 0.687083
-3.68674278 -35.77005768 34.68845749 -0.050028 -0.718968 0.693240
-3.42768192 -36.95256424 33.47853851 -0.050028 -0.718968 0.693240
-3.39930868 -35.46021271 35.03165817 -0.050028 -0.718968 0.693240
-2.65726662 -37.19791794 33.28028870 -0.050028 -0.718968 0.693240
-2.44273043 -36.92059708 33.58431244 -0.050028 -0.718968 0.693240
-2.75243497 -36.51042938 33.98779678 -0.050028 -0.718968 0.693240
-3.16099095 -35.60510635 34.89862442 -0.050028 -0.718968 0.693240
-3.30274415 -36.62036133 33.83300781 -0.050028 -0.718968 0.693240
-3.55281639 -35.21893692 35.27111816 -0.050028 -0.718968 0.693240
-1.98458886 -37.15447235 33.37498856 -0.050028 -0.718968 0.693240
-1.75277054 -36.88777542 33.66925049 -0.050028 -0.718968 0.693240
-2.84712172 -36.81336975 33.66596985 -0.050028 -0.718968 0.693240
-2.74508142 -36.75082016 33.73849487 -0.050028 -0.718968 0.693240
-2.80889392 -35.85371399 34.66617584 -0.050028 -0.718968 0.693240
-3.59899092 -36.50037384 33.93589401 -0.050028 -0.718968 0.693240
-3.69376373 -35.96782684 34.48239899 -0.050028 -0.718968 0.693240
1.83073449 -36.63066864 33.93072128 0.050028 -0.718968 0.693240
2.97439837 -36.93208313 33.53321457 0.050028 -0.718968 0.693240
1.46916664 -35.62454605 35.00304031 0.050028 -0.718968 0.693240
2.52543521 -36.69977188 33.80773163 0.050028 -0.718968 0.693240
2.36442232 -36.45173645 34.07737732 0.050028 -0.718968 0.693240
1.34695816 -36.89477921 33.69186401 0.050028 -0.718968 0.693240
2.18630457 -37.08884048 33.42834854 0.050028 -0.718968 0.693240
1.38427949 -36.56422043 34.03266525 0.050028 -0.718968 0.693240
1.81712842 -36.62012100 33.94268799 0.050028 -0.718968 0.693240
1.96087384 -36.17657089 34.39309311 0.050028 -0.718968 0.693240
2.36695290 -36.40636444 34.12435150 0.050028 -0.718968 0.693240
2.60033274 -36.80670929 33.69107437 0.050028 -0.718968 0.693240
1.34883761 -37.18871689 33.38622665 0.050028 -0.718968 0.693240
1.59720230 -36.00487518 34.59832764 0.050028 -0.718968 0.693240
2.31787443 -36.31069946 34.22739029 0.050028 -0.718968 0.693240
2.83662748 -35.54034424 34.98982239 0.050028 -0.718968 0.693240
3.61985993 -35.80064774 34.66159439 0.050028 -0.718968 0.693240
3.36002445 -34.87474060 35.64304733 0.050028 -0.718968 0.693240
3.38569784 -35.21448517 35.28805161 0.050028 -0.718968 0.693240
3.68727183 -36.49129868 33.93882370 0.050028 -0.718968 0.693240
3.37663293 -34.70760345 35.81553268 0.050028 -0.718968 0.693240
3.39902878 -36.09383774 34.37314606 0.050028 -0.718968 0.693240
3.70486069 -35.12851334 35.35389709 0.050028 -0.718968 0.693240
3.43487954 -35.25129318 35.24617767 0.050028 -0.718968 0.693240
3.43230081 -36.27609253 34.18127060 0.050028 -0.718968 0.693240
3.43708205 -35.96667862 34.50249863 0.050028 -0.718968 0.693240
2.76727152 -34.93846512 35.62047958 0.050028 -0.718968 0.693240
3.49923348 -35.90632629 34.56064606 0.050028 -0.718968 0.693240
3.29655433 -35.74025345 34.74817657 0.050028 -0.718968 0.693240
2.29269409 -35.28078842 35.29965591 0.050028 -0.718968 0.693240
3.16827130 -36.36683655 34.10640717 0.050028 -0.718968 0.693240
3.12141562 -35.59491730 34.91212845 0.050028 -0.718968 0.693240
-2.59482765 -34.71846771 35.86183167 -0.050028 -0.718968 0.693240
-1.73025739 -35.86530685 34.73358154 -0.050028 -0.718968 0.693240
-2.00546002 -35.70555878 34.87934113 -0.050028 -0.718968 0.693240
-1.32238209 -36.28204727 34.33049774 -0.050028 -0.718968 0.693240
-1.43704391 -36.28305054 34.32100677 -0.050028 -0.718968 0.693240
-1.51016033 -35.94804001 34.66380692 -0.050028 -0.718968 0.693240
-1.49652815 -35.18976593 35.45290375 -0.050028 -0.718968 0.693240
-1.32612586 -35.55571747 35.08511353 -0.050028 -0.718968 0.693240
-2.82378268 -35.67710495 34.84863663 -0.050028 -0.718968 0.693240
-2.51495171 -35.69041061 34.85755539 -0.050028 -0.718968 0.693240
-2.68607569 -34.89496994 35.67166901 -0.050028 -0.718968 0.693240
-1.59194493 -35.95951462 34.64585495 -0.050028 -0.718968 0.693240
-1.78127372 -36.24754715 34.33255386 -0.050028 -0.718968 0.693240
-2.62686205 -35.70426941 34.83490753 -0.050028 -0.718968 0.693240
-1.63882840 -36.81689072 33.75131226 -0.050028 -0.718968 0.693240
-3.52579522 -34.81532669 35.69258499 -0.050028 -0.718968 0.693240
-2.87535071 -34.94564056 35.60506058 -0.050028 -0.718968 0.693240
0.30945611 -36.81379700 33.78372192 0.001381 -0.719425 0.694569
-0.88915962 -35.43115997 35.21683884 0.001381 -0.719425 0.694569
-0.84944314 -37.01053619 33.57979584 0.001381 -0.719425 0.694569
-0.74059033 -37.23026276 33.35204697 0.001381 -0.719425 0.694569
-0.80020106 -35.73451614 34.90240479 0.001381 -0.719425 0.694569
0.58347857 -37.09200668 33.49534988 0.001381 -0.719425 0.694569
-1.26537168 -35.61578369 35.02547455 0.001381 -0.719425 0.694569
-0.32303303 -36.76430893 33.83501434 0.001381 -0.719425 0.694569
-0.99161559 -36.62546539 33.97892761 0.001381 -0.719425 0.694569
-0.21915382 -36.77237701 33.82664871 0.001381 -0.719425 0.694569
0.01929575 -36.87587357 33.71937561 0.001381 -0.719425 0.694569
-0.31600446 -36.84058380 33.75595474 0.001381 -0.719425 0.694569
-0.81784344 -36.86869431 33.72681427 0.001381 -0.719425 0.694569
0.36789912 -36.88761520 33.70720291 0.001381 -0.719425 0.694569
-0.74198902 -36.77659225 33.82228088 0.001381 -0.719425 0.694569
-1.15797520 -35.84868622 34.78406525 0.001381 -0.719425 0.694569
0.70826751 -35.52285385 35.12179565 0.001381 -0.719425 0.694569
0.15479492 -34.93307877 35.73310471 0.001381 -0.719425 0.694569
0.79926020 -35.70695877 34.93097305 0.001381 -0.719425 0.694569
0.37729412 -35.70780182 34.93009949 0.001381 -0.719425 0.694569
0.43702468 -34.89844131 35.76900864 0.001381 -0.719425 0.694569
0.98638666 -35.12189102 35.53740311 0.001381 -0.719425 0.694569
-0.34545657 -35.46131134 35.18558502 0.001381 -0.719425 0.694569
0.63165021 -35.39778137 35.25143814 0.001381 -0.719425 0.694569
0.43303075 -35.51049042 35.13460922 0.001381 -0.719425 0.694569
0.40904570 -34.89886856 35.76856613 0.001381 -0.719425 0.694569
0.79320467 -35.76026535 34.87571716 0.001381 -0.719425 0.694569
-0.57416469 -34.87944412 35.78870010 0.001381 -0.719425 0.694569
0.19886456 -35.66007233 34.97956848 0.001381 -0.719425 0.694569
0.83648348 -35.26051331 35.39371490 0.001381 -0.719425 0.694569
-0.23979422 -35.64150620 34.99881363 0.001381 -0.719425 0.694569
-0.31115317 -34.72354126 35.95029449 0.001381 -0.719425 0.694569
0.80642974 -36.61653900 33.98817825 0.001381 -0.719425 0.694569
18.91950989 -34.17657852 37.50541687 -0.540108 -0.795203 -0.275565
20.60057068 -36.47435379 40.83913040 -0.540108 -0.795203 -0.275565
18.58698273 -33.76676559 36.97452164 -0.540108 -0.795203 -0.275565
20.14212990 -36.03497696 40.47345352 -0.542800 -0.794533 -0.272187
20.56666565 -36.46623611 40.88284302 -0.542800 -0.794533 -0.272187
19.39121056 -35.05408859 39.11590576 -0.542800 -0.794533 -0.272187
18.09140205 -33.20000458 36.31230164 -0.542800 -0.794533 -0.272187
19.22281265 -34.69687271 38.41280746 -0.542800 -0.794533 -0.272187
19.57208443 -35.26425171 39.36707687 -0.542800 -0.794533 -0.272187
18.55852699 -33.78573608 37.08577728 -0.542800 -0.794533 -0.272187
18.98663521 -34.43533707 38.12226868 -0.542800 -0.794533 -0.272187
20.45706177 -36.46757126 41.10443115 -0.542800 -0.794533 -0.272187
19.79877090 -35.52015305 39.66010284 -0.542800 -0.794533 -0.272187
20.29834938 -36.19778442 40.63604736 -0.542800 -0.794533 -0.272187
19.72402573 -35.17411041 38.80721283 -0.540108 -0.795203 -0.275565
18.55856705 -33.47592163 36.19359970 -0.540108 -0.795203 -0.275565
17.54705429 -32.06988907 34.12028885 -0.540108 -0.795203 -0.275565
19.19965744 -34.41313553 37.64015198 -0.540108 -0.795203 -0.275565
17.64675140 -32.22826385 34.38155746 -0.540108 -0.795203 -0.275565
18.41279984 -33.34275818 36.09452057 -0.540108 -0.795203 -0.275565
17.40995789 -32.04147720 34.30551147 -0.540108 -0.795203 -0.275565
20.03347015 -35.57945633 39.37020111 -0.540108 -0.795203 -0.275565
18.04252052 -32.63558960 34.78216934 -0.540108 -0.795203 -0.275565
21.00303459 -36.90333557 42.25997162 0.403829 -0.555471 0.726893
24.18641281 -32.11035538 30.37010574 0.832867 -0.224645 -0.505833
25.17738152 -33.73046875 32.72209930 0.832867 -0.224645 -0.505833
26.36734009 -35.35861206 35.41227341 0.853811 -0.183279 -0.487253
26.10927010 -35.03079987 34.83693314 0.853811 -0.183279 -0.487253
26.53984833 -36.78177261 39.08538055 0.412975 -0.618633 0.668389
35.22245407 -35.39481354 0.63539004 0.707101 -0.707101 -0.004151
35.20294571 -35.41408539 0.59233028 0.707101 -0.707101 -0.004151
35.70740891 -34.91200638 1.02635002 0.707101 -0.707101 -0.004151
35.37493134 -35.23924637 0.07380702 0.707101 -0.707101 -0.004151
35.85506058 -34.75941086 0.12719943 0.707101 -0.707101 -0.004151
35.77346420 -34.84492111 0.83867079 0.707101 -0.707101 -0.004151
34.04886246 -36.56625748 0.24461307 0.707101 -0.707101 -0.004151
35.67291641 -34.94766235 1.23786628 0.707101 -0.707101 -0.004151
35.69491959 -34.92374039 0.88894713 0.707101 -0.707101 -0.004151
35.26711655 -35.34976196 0.56458730 0.707101 -0.707101 -0.004151
34.10240173 -36.51361465 0.40742764 0.707101 -0.707101 -0.004151
35.93696594 -34.68107224 0.77554262 0.707101 -0.707101 -0.004151
35.51822662 -35.09771729 0.39432412 0.707101 -0.707101 -0.004151
34.26397324 -36.35247803 0.48711300 0.707101 -0.707101 -0.004151
-34.59016418 -36.02775192 0.75376129 -0.707101 -0.707101 -0.004151
-34.88084030 -35.73428726 0.24630970 -0.707101 -0.707101 -0.004151
-35.18714523 -35.42755127 0.16797793 -0.707101 -0.707101 -0.004151
-35.21463013 -35.40148926 0.42658001 -0.707101 -0.707101 -0.004151
-35.66335678 -34.95753098 1.29305780 -0.707101 -0.707101 -0.004151
-34.16549301 -36.44914246 0.15690517 -0.707101 -0.707101 -0.004151
-35.58867645 -35.02734756 0.40896407 -0.707101 -0.707101 -0.004151
-35.55865479 -35.06171417 1.19952679 -0.707101 -0.707101 -0.004151
-33.81695557 -36.79813004 0.23819101 -0.707101 -0.707101 -0.004151
-34.86638641 -35.75167465 0.77869540 -0.707101 -0.707101 -0.004151
-34.62381363 -35.99515533 0.94471216 -0.707101 -0.707101 -0.004151
-35.88976288 -34.73542404 2.07574630 -0.707101 -0.707101 -0.004151
-35.16526031 -35.45139313 0.52423692 -0.707101 -0.707101 -0.004151
-35.00242615 -35.61766434 1.14849496 -0.707101 -0.707101 -0.004151
26.84548950 -36.02160645 36.49923706 0.853811 -0.183279 -0.487253
16.65608025 -31.87836647 35.52437210 -0.579901 -0.776848 -0.245403
17.97499847 -33.14590454 36.41267776 -0.579901 -0.776848 -0.245403
17.52199745 -32.69575500 36.06066132 -0.579901 -0.776848 -0.245403
18.50919342 -33.96612930 37.74551773 -0.579901 -0.776848 -0.245403
19.36557388 -35.21566010 39.67485046 -0.579901 -0.776848 -0.245403
17.98497963 -33.06644058 36.13699341 -0.579901 -0.776848 -0.245403
17.30669212 -32.72491074 36.66427994 -0.579901 -0.776848 -0.245403
18.22415543 -33.41537094 36.67568207 -0.579901 -0.776848 -0.245403
18.21526337 -33.90426636 38.24715805 -0.579901 -0.776848 -0.245403
18.29244614 -34.02526855 38.44764328 -0.579901 -0.776848 -0.245403
17.45430946 -33.12845230 37.59352112 -0.579901 -0.776848 -0.245403
17.69774246 -33.16520691 37.13212585 -0.579901 -0.776848 -0.245403
16.82663918 -32.07925034 35.75648117 -0.579901 -0.776848 -0.245403
17.36335945 -32.30421829 35.19565582 -0.579901 -0.776848 -0.245403
18.68434715 -34.56017685 39.21351624 -0.579901 -0.776848 -0.245403
17.71360779 -32.95684052 36.43370056 -0.579901 -0.776848 -0.245403
17.75036240 -32.93711853 36.28389359 -0.579901 -0.776848 -0.245403
18.36582756 -33.77492523 37.47954178 -0.579901 -0.776848 -0.245403
19.06958389 -34.71131134 38.77817917 -0.579901 -0.776848 -0.245403
17.66213799 -32.83205414 36.16017532 -0.579901 -0.776848 -0.245403
17.91541672 -33.02884293 36.18291473 -0.579901 -0.776848 -0.245403
19.65646553 -35.63306808 40.30791092 -0.579901 -0.776848 -0.245403
17.07065582 -32.06126404 35.12011337 -0.579901 -0.776848 -0.245403
16.91003227 -32.04989243 35.46539307 -0.579901 -0.776848 -0.245403
18.13830185 -33.28913498 36.47918320 -0.579901 -0.776848 -0.245403
17.46269989 -32.90554428 36.86672211 -0.579901 -0.776848 -0.245403
16.16224861 -31.51151466 35.53343964 -0.579901 -0.776848 -0.245403
17.68565369 -32.93266296 36.42339706 -0.579901 -0.776848 -0.245403
17.24855614 -32.08962631 34.78769302 -0.579901 -0.776848 -0.245403
16.05205727 -31.43839264 35.56316376 -0.579901 -0.776848 -0.245403
17.08442307 -32.38115692 36.10187149 -0.579901 -0.776848 -0.245403
18.30430603 -34.18938828 38.93896484 -0.577373 -0.777654 -0.248787
20.59399414 -36.94736099 42.24829865 -0.577373 -0.777654 -0.248787
19.45650291 -35.60493469 40.69125366 -0.577373 -0.777654 -0.248787
20.62648201 -36.95565033 42.19841766 -0.577373 -0.777654 -0.248787
20.72727966 -37.02213287 42.32094955 0.392167 -0.546408 0.740030
24.67214775 -32.75489044 31.47060013 0.888284 -0.096522 -0.449038
24.49347115 -32.27757645 31.01277733 0.888284 -0.096522 -0.449038
25.70402336 -34.24266434 33.83953476 0.888284 -0.096522 -0.449038
25.92675018 -34.54575729 34.34695053 0.888284 -0.096522 -0.449038
25.15764236 -33.34641647 32.56166458 0.888284 -0.096522 -0.449038
27.52174377 -36.89064789 38.02264786 0.904581 -0.049732 -0.423392
24.80465317 -32.71230316 31.72567558 0.904581 -0.049732 -0.423392
26.03462029 -34.52769470 34.56727982 0.904581 -0.049732 -0.423392
26.91526604 -36.78208160 38.85326385 0.410281 -0.622897 0.666084
16.78965950 -32.55705643 37.35289383 -0.577373 -0.777654 -0.248787
18.00197411 -34.22693634 39.76320648 -0.577373 -0.777654 -0.248787
20.42959595 -36.86185074 42.36392975 -0.577373 -0.777654 -0.248787
19.60982132 -35.86016846 41.13435364 -0.577373 -0.777654 -0.248787
19.06622124 -35.41625595 41.01070404 -0.577373 -0.777654 -0.248787
19.10961151 -35.41548538 40.90690994 -0.577373 -0.777654 -0.248787
17.87426567 -34.10290909 39.67219543 -0.577373 -0.777654 -0.248787
16.77152634 -32.46400070 37.10310745 -0.577373 -0.777654 -0.248787
19.41212654 -36.12627029 42.43169022 -0.577373 -0.777654 -0.248787
19.96719551 -36.50486374 42.32347107 -0.577373 -0.777654 -0.248787
17.06472206 -32.81895447 37.53250885 -0.577373 -0.777654 -0.248787
18.46860695 -34.62606812 39.92608643 -0.577373 -0.777654 -0.248787
19.91093636 -36.66147232 42.94660187 -0.577373 -0.777654 -0.248787
18.17246246 -34.24550629 39.42319107 -0.577373 -0.777654 -0.248787
19.59651947 -36.21201706 42.27009201 -0.577373 -0.777654 -0.248787
17.85058403 -33.98455811 39.35593414 -0.577373 -0.777654 -0.248787
19.30943680 -35.66328430 41.21802521 -0.577373 -0.777654 -0.248787
18.15776253 -34.28740311 39.58907700 -0.577373 -0.777654 -0.248787
17.36048698 -33.08817291 37.68671417 -0.577373 -0.777654 -0.248787
17.32773972 -33.10620117 37.81983185 -0.577373 -0.777654 -0.248787
19.66821098 -36.55961227 43.19388580 -0.577373 -0.777654 -0.248787
17.78279686 -33.59460068 38.29001617 -0.577373 -0.777654 -0.248787
18.54687691 -35.09806442 41.22509003 -0.577373 -0.777654 -0.248787
18.83301735 -35.48737717 41.77884293 -0.577373 -0.777654 -0.248787
19.34992409 -35.74631500 41.38411331 -0.577373 -0.777654 -0.248787
19.73040390 -36.25309372 42.08625793 -0.577373 -0.777654 -0.248787
17.41722870 -33.33284760 38.32233047 -0.577373 -0.777654 -0.248787
20.42722321 -36.83012772 42.62181473 0.392167 -0.546408 0.740030
20.66360283 -36.47728729 42.75753403 0.392167 -0.546408 0.740030
26.68124771 -35.35486984 36.04630280 0.904581 -0.049732 -0.423392
27.53972626 -36.70583344 38.03946304 0.904581 -0.049732 -0.423392
26.19564247 -36.48028183 39.57851791 0.410281 -0.622897 0.666084
25.55129433 -33.45357895 33.45804214 0.932160 0.078680 -0.353394
25.71436691 -33.69955444 33.83366394 0.932160 0.078680 -0.353394
26.68874359 -35.10124969 36.09337616 0.932160 0.078680 -0.353394
26.60245323 -35.03475189 35.88031006 0.932160 0.078680 -0.353394
24.64262199 -32.14907455 31.36206055 0.922987 0.024734 -0.384035
26.48573875 -35.02001953 35.59325790 0.922987 0.024734 -0.384035
24.57527542 -32.09945297 31.20383644 0.922987 0.024734 -0.384035
24.78172684 -32.38946915 31.67985153 0.922987 0.024734 -0.384035
25.24786949 -33.22140503 32.74303055 0.922987 0.024734 -0.384035
24.83356285 -32.58515930 31.79132462 0.922987 0.024734 -0.384035
26.92784309 -36.56381989 39.04962158 0.409433 -0.624924 0.664707
25.13032913 -32.29719162 32.71596527 0.930367 0.081658 -0.357421
27.57950401 -36.19544220 38.20882034 0.930367 0.081658 -0.357421
26.66686440 -34.79405594 36.15014648 0.930367 0.081658 -0.357421
27.08679199 -35.50082779 37.08304214 0.930367 0.081658 -0.357421
25.37262917 -33.02495575 33.10955429 0.938915 0.148969 -0.310238
27.16049767 -35.71475983 37.21775055 0.938915 0.148969 -0.310238
26.14073944 -34.04660034 34.93942261 0.938915 0.148969 -0.310238
26.29789925 -34.43540955 35.22673798 0.938915 0.148969 -0.310238
25.15189743 -32.69199371 32.60277557 0.938915 0.148969 -0.310238
24.37760162 -31.50972366 30.83199692 0.938915 0.148969 -0.310238
26.36186409 -34.39237213 35.44118500 0.938915 0.148969 -0.310238
24.67387390 -31.66235733 31.65476799 0.938915 0.148969 -0.310238
26.46084976 -34.61495209 35.63294983 0.938915 0.148969 -0.310238
27.34980774 -36.04813385 37.62922287 0.938915 0.148969 -0.310238
24.31387138 -31.18304253 30.79737091 0.938915 0.148969 -0.310238
26.28142929 -36.39065170 39.60972595 0.409433 -0.624924 0.664707
17.78086853 -34.10361862 39.93536758 -0.616517 -0.756281 -0.218964
17.26932907 -33.48053741 39.21537781 -0.616517 -0.756281 -0.218964
18.18686485 -34.74829865 41.02890015 -0.616517 -0.756281 -0.218964
19.12460709 -36.15346527 43.26305389 -0.616517 -0.756281 -0.218964
17.06014061 -33.12782669 38.58052826 -0.616517 -0.756281 -0.218964
18.44490242 -35.12142563 41.59664154 -0.616517 -0.756281 -0.218964
16.87212753 -32.83343887 38.08855438 -0.616517 -0.756281 -0.218964
19.17513084 -36.17747498 43.20368195 -0.616517 -0.756281 -0.218964
18.23765182 -34.89097214 41.38137436 -0.616517 -0.756281 -0.218964
18.89924431 -35.61874008 42.03965378 -0.619264 -0.755844 -0.212630
17.28888321 -33.31941986 38.59529877 -0.619264 -0.755844 -0.212630
18.42847824 -34.94596100 41.03060532 -0.619264 -0.755844 -0.212630
16.98367500 -32.95011139 38.17719269 -0.619264 -0.755844 -0.212630
17.19652748 -33.22429657 38.52748871 -0.619264 -0.755844 -0.212630
15.87833214 -31.42088127 35.98602295 -0.619264 -0.755844 -0.212630
19.37924576 -36.00020218 43.76961899 0.379254 -0.532258 0.756880
19.94868279 -35.67435074 43.70669556 0.394841 -0.532461 0.748723
20.24913979 -35.74134064 43.50056839 0.394841 -0.532461 0.748723
20.81229782 -36.11456680 42.93832397 0.394841 -0.532461 0.748723
19.89290810 -35.48138428 43.87316895 0.394841 -0.532461 0.748723
19.93973351 -34.70138550 44.40240479 0.394841 -0.532461 0.748723
20.77968979 -35.96293640 43.06321335 0.394841 -0.532461 0.748723
19.59545708 -36.36817932 43.40035248 0.394841 -0.532461 0.748723
20.56985474 -36.28877640 42.94254303 0.394841 -0.532461 0.748723
25.48778343 -32.74887085 33.58392334 0.938879 0.171830 -0.298297
25.35574722 -32.64333344 33.22787476 0.938879 0.171830 -0.298297
27.63295174 -36.09915543 38.42449188 0.938879 0.171830 -0.298297
27.34951019 -35.63093185 37.79965973 0.938879 0.171830 -0.298297
27.04277611 -35.22560120 37.06496048 0.938879 0.171830 -0.298297
27.70288086 -36.02016830 38.69092560 0.938879 0.171830 -0.298297
27.73240089 -36.05963135 38.76137924 0.938879 0.171830 -0.298297
27.12953758 -36.23757935 39.23099899 0.410281 -0.622897 0.666084
27.63685036 -36.36610031 38.79855728 0.410281 -0.622897 0.666084
20.90657616 -34.80825043 43.83433914 0.376586 -0.546131 0.748281
21.24595642 -36.05024719 42.75722885 0.376586 -0.546131 0.748281
21.33275223 -35.52076340 43.09957886 0.376586 -0.546131 0.748281
21.98906326 -35.81923676 42.55062866 0.376586 -0.546131 0.748281
21.45999146 -35.75177002 42.86688232 0.376586 -0.546131 0.748281
21.78356743 -35.55700302 42.84560013 0.376586 -0.546131 0.748281
21.98693657 -34.92786407 43.20179749 0.376586 -0.546131 0.748281
21.15870285 -35.89424896 42.91503906 0.376586 -0.546131 0.748281
20.73360634 -35.02824402 43.76119995 0.376586 -0.546131 0.748281
22.95730209 -34.63366318 42.92657471 0.376586 -0.546131 0.748281
21.96348763 -35.71576691 42.63899994 0.376586 -0.546131 0.748281
21.56595230 -35.15239334 43.25053406 0.376586 -0.546131 0.748281
20.30381775 -35.00545120 43.99475479 0.376586 -0.546131 0.748281
22.58908463 -34.70256042 43.06218338 0.376586 -0.546131 0.748281
23.41886330 -34.58403778 42.72979736 0.376586 -0.546131 0.748281
23.32967186 -34.67893982 42.70560074 0.376586 -0.546131 0.748281
22.36103630 -35.40506363 42.66493988 0.376586 -0.546131 0.748281
27.63185692 -36.10931778 39.04136658 0.410218 -0.619479 0.669303
26.63085365 -36.05292511 39.70891571 0.410218 -0.619479 0.669303
26.92762566 -35.93355942 39.63692474 0.410218 -0.619479 0.669303
27.52202797 -35.54499054 39.62887573 0.410064 -0.612606 0.675693
25.91271210 -35.85525894 40.31866837 0.394416 -0.585848 0.707968
25.33320045 -35.92374039 40.58389664 0.394416 -0.585848 0.707968
24.84878349 -34.81233215 41.77161407 0.394416 -0.585848 0.707968
24.78337669 -34.70883942 41.89348221 0.394416 -0.585848 0.707968
26.00308037 -35.71426392 40.38502884 0.394416 -0.585848 0.707968
26.91225052 -34.79149246 40.64288712 0.394416 -0.585848 0.707968
25.62740898 -35.11232376 41.09122849 0.394416 -0.585848 0.707968
26.40683937 -35.01611328 40.73789215 0.394416 -0.585848 0.707968
25.32577896 -35.82140732 40.67260742 0.394416 -0.585848 0.707968
25.96126366 -35.35841751 40.70239639 0.394416 -0.585848 0.707968
24.36626053 -34.90509033 41.96290970 0.394416 -0.585848 0.707968
26.61417198 -35.15879059 40.50481796 0.394416 -0.585848 0.707968
25.17183685 -35.73221207 40.83182526 0.394416 -0.585848 0.707968
26.38647652 -35.06192398 40.71134186 0.394416 -0.585848 0.707968
26.28077316 -35.41829300 40.47546387 0.394416 -0.585848 0.707968
25.49203300 -35.72776031 40.65768433 0.394416 -0.585848 0.707968
26.64269066 -35.50983047 40.19418716 0.408948 -0.604315 0.683787
26.26852608 -35.78805923 40.17133331 0.408948 -0.604315 0.683787
26.78661919 -35.75384521 39.88737869 0.410064 -0.612606 0.675693
25.79709244 -36.09893417 40.17716599 0.410064 -0.612606 0.675693
18.03796577 -35.15423965 42.86367035 -0.616517 -0.756281 -0.218964
16.50159454 -32.71934128 38.74853134 -0.616517 -0.756281 -0.218964
17.26155663 -33.99441910 41.02946472 -0.616517 -0.756281 -0.218964
17.43381310 -33.99400330 40.54133987 -0.616517 -0.756281 -0.218964
18.29714203 -35.14295959 42.09220505 -0.616517 -0.756281 -0.218964
18.40992546 -35.70027924 43.70903778 -0.616517 -0.756281 -0.218964
16.14093208 -32.19873047 37.95957184 -0.616517 -0.756281 -0.218964
18.59846687 -35.55973434 42.68822861 -0.616517 -0.756281 -0.218964
17.65650368 -34.68930054 42.32678986 -0.616517 -0.756281 -0.218964
17.86726379 -34.69187164 41.74023819 -0.616517 -0.756281 -0.218964
16.05587006 -31.95001221 37.33613205 -0.616517 -0.756281 -0.218964
18.04552460 -34.86799622 41.84822464 -0.616517 -0.756281 -0.218964
18.18373299 -35.10667419 42.28662109 -0.616517 -0.756281 -0.218964
18.60703087 -35.98564911 44.14318466 -0.616517 -0.756281 -0.218964
19.04176331 -36.14537430 43.46957016 -0.616517 -0.756281 -0.218964
17.61369896 -34.36072540 41.30664444 -0.616517 -0.756281 -0.218964
15.93227005 -31.87223816 37.41526031 -0.616517 -0.756281 -0.218964
17.65285492 -34.58271408 41.96694946 -0.616517 -0.756281 -0.218964
17.23395157 -33.84695816 40.59536362 -0.616517 -0.756281 -0.218964
18.18211555 -35.19319153 42.59165573 -0.616517 -0.756281 -0.218964
17.78219986 -34.58831024 41.62093353 -0.616517 -0.756281 -0.218964
18.88573456 -35.90918732 43.08980560 -0.619264 -0.755844 -0.212630
17.10236740 -33.33354568 39.17978668 -0.619264 -0.755844 -0.212630
15.95533085 -31.77230072 37.00113297 -0.619264 -0.755844 -0.212630
15.88642883 -31.55148888 36.42244720 -0.619264 -0.755844 -0.212630
15.76900673 -31.34300995 36.02789307 -0.619264 -0.755844 -0.212630
16.65511322 -32.74563599 38.40379333 -0.619264 -0.755844 -0.212630
18.41958618 -35.24690628 42.10640717 -0.619264 -0.755844 -0.212630
16.53343201 -32.50442123 37.90618896 -0.619264 -0.755844 -0.212630
19.52251434 -35.00801849 44.39690781 0.379254 -0.532258 0.756880
18.65877914 -35.83551788 44.24686813 0.379254 -0.532258 0.756880
19.06210899 -36.12365723 43.84162903 0.379254 -0.532258 0.756880
19.01795578 -36.16836548 43.83226013 0.379254 -0.532258 0.756880
24.77415276 -31.51693153 32.13293457 0.935364 0.265043 -0.234192
27.13062859 -35.06798553 37.48557663 0.935364 0.265043 -0.234192
24.41100693 -31.10808372 31.15181732 0.935364 0.265043 -0.234192
24.52377701 -30.77561760 31.97521782 0.935364 0.265043 -0.234192
25.85421181 -33.13095474 34.60155106 0.935364 0.265043 -0.234192
24.83910942 -31.59716225 32.30041885 0.935364 0.265043 -0.234192
24.48910332 -30.99992371 31.58420181 0.935364 0.265043 -0.234192
25.99484825 -33.37673569 34.88278198 0.935364 0.265043 -0.234192
26.19643784 -33.54767609 35.49067688 0.935364 0.265043 -0.234192
25.60959435 -32.55551910 34.27941895 0.935364 0.265043 -0.234192
25.07150650 -31.93156624 32.84614563 0.935364 0.265043 -0.234192
25.07108307 -32.07491684 32.68260574 0.935364 0.265043 -0.234192
25.93466568 -33.28003693 34.75286484 0.935364 0.265043 -0.234192
24.39628792 -31.09586334 31.10713768 0.935364 0.265043 -0.234192
24.59924889 -31.03850174 31.97824669 0.935364 0.265043 -0.234192
24.90249634 -31.76378250 32.36412811 0.935364 0.265043 -0.234192
24.37327576 -30.99869156 31.12542534 0.935364 0.265043 -0.234192
25.06810188 -31.67236900 33.12527466 0.935364 0.265043 -0.234192
25.54385948 -32.21094894 34.39338684 0.934901 0.256502 -0.245289
26.63578606 -33.95486069 36.75562668 0.934901 0.256502 -0.245289
25.61400986 -32.30935669 34.55939865 0.934901 0.256502 -0.245289
25.98117447 -33.04166794 35.20111084 0.934901 0.256502 -0.245289
26.61091042 -33.93722916 36.67870712 0.934901 0.256502 -0.245289
27.36842346 -35.25317383 38.20648575 0.934901 0.256502 -0.245289
27.30138016 -35.20511246 37.99973297 0.934901 0.256502 -0.245289
24.74909401 -31.01116371 32.60129929 0.934901 0.256502 -0.245289
27.45298004 -35.37799454 38.40010834 0.934901 0.256502 -0.245289
25.49095154 -32.25615692 34.14327240 0.934901 0.256502 -0.245289
27.66235924 -35.63945007 38.92936707 0.934901 0.256502 -0.245289
27.66391373 -35.64705276 38.92736816 0.934901 0.256502 -0.245289
26.90284157 -34.59089661 37.11423492 0.934901 0.256502 -0.245289
25.96157265 -33.03263092 35.13541412 0.934901 0.256502 -0.245289
16.95693398 -33.98706818 41.92156219 -0.650001 -0.736053 -0.189007
16.61046600 -33.49147415 41.18008423 -0.650001 -0.736053 -0.189007
15.75916862 -32.32945251 39.57597733 -0.646049 -0.738562 -0.192735
14.97032166 -31.19899750 37.88492966 -0.646049 -0.738562 -0.192735
16.94429016 -33.89813232 41.62165070 -0.646049 -0.738562 -0.192735
15.78936768 -32.20763397 39.01059723 -0.646049 -0.738562 -0.192735
15.00047684 -31.23466873 37.92078781 -0.646049 -0.738562 -0.192735
14.58874226 -30.71454620 37.30499268 -0.646049 -0.738562 -0.192735
18.12509155 -35.53679657 43.94879913 -0.646049 -0.738562 -0.192735
15.36894035 -31.74003983 38.62419510 -0.646049 -0.738562 -0.192735
16.88079262 -33.77450180 41.36097717 -0.646049 -0.738562 -0.192735
15.35298634 -31.56134033 37.99732590 -0.620305 -0.754005 -0.216096
16.55514336 -32.94559097 39.38407516 -0.620305 -0.754005 -0.216096
15.51129150 -31.49639702 37.31122971 -0.620305 -0.754005 -0.216096
15.67097473 -31.55506897 37.05550766 -0.620305 -0.754005 -0.216096
15.90529919 -32.05496979 38.13427734 -0.620305 -0.754005 -0.216096
16.59337425 -33.14468002 39.97305679 -0.620305 -0.754005 -0.216096
16.16699600 -32.71578217 39.69928741 -0.620305 -0.754005 -0.216096
15.23264980 -31.01667023 36.43153000 -0.620305 -0.754005 -0.216096
16.01599121 -32.11860657 38.03770065 -0.620305 -0.754005 -0.216096
17.64671707 -34.74011230 42.53229904 -0.620305 -0.754005 -0.216096
16.75403786 -33.45202255 40.58828354 -0.620305 -0.754005 -0.216096
17.62443733 -34.78925705 42.76943207 -0.620305 -0.754005 -0.216096
15.52621937 -31.48349762 37.22272491 -0.620305 -0.754005 -0.216096
15.38574982 -31.20793724 36.66075897 -0.620305 -0.754005 -0.216096
15.25590038 -31.41822815 37.77528000 -0.620305 -0.754005 -0.216096
15.31548119 -31.37882233 37.46448135 -0.620305 -0.754005 -0.216096
15.77620029 -31.97352028 38.22150040 -0.620305 -0.754005 -0.216096
14.97443962 -30.88389587 36.71186066 -0.620305 -0.754005 -0.216096
19.27374268 -35.06383514 44.48162079 0.367230 -0.519299 0.771668
15.79070950 -32.51799774 40.20413971 -0.650001 -0.736053 -0.189007
16.34634590 -33.53699875 42.26979446 -0.650001 -0.736053 -0.189007
16.30596352 -33.14191437 40.86465836 -0.650001 -0.736053 -0.189007
16.89723969 -34.42974472 43.85823059 -0.650001 -0.736053 -0.189007
17.49726295 -35.03401947 44.14933777 -0.650001 -0.736053 -0.189007
17.24687958 -34.54528046 43.10295868 -0.650001 -0.736053 -0.189007
17.62706375 -34.96057892 43.41417313 -0.650001 -0.736053 -0.189007
16.29904938 -33.54052734 42.44684219 -0.650001 -0.736053 -0.189007
18.00121117 -35.61011124 44.66190720 -0.650001 -0.736053 -0.189007
17.44051743 -34.73240280 43.16608810 -0.650001 -0.736053 -0.189007
17.40003014 -35.12909698 44.85668182 -0.650001 -0.736053 -0.189007
14.54197979 -30.70710182 37.43517685 -0.650001 -0.736053 -0.189007
16.90344429 -33.98786926 42.10934830 -0.650001 -0.736053 -0.189007
16.48379898 -33.75825500 42.66028214 -0.650001 -0.736053 -0.189007
17.00606537 -34.39005280 43.32740021 -0.650001 -0.736053 -0.189007
16.97172737 -34.64817429 44.45502853 -0.650001 -0.736053 -0.189007
17.11834717 -34.34749985 42.77345657 -0.650001 -0.736053 -0.189007
16.95369911 -34.28520203 43.09826279 -0.650001 -0.736053 -0.189007
17.84646606 -35.46148300 44.61503601 -0.650001 -0.736053 -0.189007
15.80633354 -32.67836380 40.77714157 -0.650001 -0.736053 -0.189007
16.17764473 -33.08018494 41.06628036 -0.650001 -0.736053 -0.189007
16.10149193 -33.16352081 41.65493774 -0.650001 -0.736053 -0.189007
18.16912270 -35.71841049 44.50566864 -0.650001 -0.736053 -0.189007
16.63053894 -33.94372177 42.87881088 -0.650001 -0.736053 -0.189007
15.49267864 -32.25322723 40.19782257 -0.650001 -0.736053 -0.189007
17.70480919 -35.08943558 43.64954758 -0.650001 -0.736053 -0.189007
17.45303726 -35.13900375 44.71240997 -0.650001 -0.736053 -0.189007
19.24703026 -34.74946594 44.70571518 0.367230 -0.519299 0.771668
18.48322487 -34.88308716 44.97881317 0.367230 -0.519299 0.771668
19.15525246 -34.83943558 44.68882751 0.367230 -0.519299 0.771668
18.78303337 -35.05578232 44.72021484 0.367230 -0.519299 0.771668
19.71685219 -34.64375305 44.55354691 0.367230 -0.519299 0.771668
26.27998924 -33.22691727 36.19653320 0.926825 0.320227 -0.196086
25.42326355 -31.97239113 34.19647598 0.926825 0.320227 -0.196086
27.72008324 -35.42172241 39.41779709 0.926825 0.320227 -0.196086
26.44422913 -33.54341125 36.45568848 0.926825 0.320227 -0.196086
25.58923531 -31.61661720 35.81576157 0.923715 0.324932 -0.202905
26.12817192 -32.59351730 36.70484543 0.923715 0.324932 -0.202905
26.87108231 -33.70615387 38.30813217 0.923715 0.324932 -0.202905
26.81422615 -33.59040833 38.23482513 0.923715 0.324932 -0.202905
25.20034409 -31.02032280 34.99886322 0.923715 0.324932 -0.202905
27.23729134 -34.33217621 38.97326660 0.923715 0.324932 -0.202905
27.61532974 -35.07835388 39.49855804 0.923715 0.324932 -0.202905
25.44065857 -31.41242790 35.46552658 0.923715 0.324932 -0.202905
25.83849907 -32.08254242 36.20421219 0.923715 0.324932 -0.202905
27.10896873 -34.05060577 38.84061813 0.923715 0.324932 -0.202905
26.09981155 -32.58328629 36.59159470 0.923715 0.324932 -0.202905
24.25234604 -29.49683571 33.09775543 0.918346 0.359721 -0.165048
26.82158661 -33.98819733 37.53158569 0.918346 0.359721 -0.165048
27.20499992 -34.47523880 38.59159470 0.918346 0.359721 -0.165048
24.46387100 -30.16397858 32.81623459 0.918346 0.359721 -0.165048
25.53035355 -31.82323647 35.10261917 0.918346 0.359721 -0.165048
25.28207207 -31.57814598 34.26335526 0.918346 0.359721 -0.165048
24.72663879 -30.42568779 33.69942474 0.918346 0.359721 -0.165048
25.47674942 -31.85717773 34.73257446 0.918346 0.359721 -0.165048
24.94602966 -31.00453186 33.65335464 0.918346 0.359721 -0.165048
25.49336815 -31.64659691 35.28226089 0.918346 0.359721 -0.165048
24.49374199 -30.51116180 32.22645187 0.918346 0.359721 -0.165048
26.25693893 -33.14913177 36.23533630 0.918346 0.359721 -0.165048
24.51013947 -30.21385956 32.96348572 0.918346 0.359721 -0.165048
25.94996262 -32.48069000 35.99214935 0.918346 0.359721 -0.165048
24.12677765 -29.31267166 32.80419922 0.918346 0.359721 -0.165048
24.25298119 -30.14544868 31.69100761 0.918346 0.359721 -0.165048
24.69151878 -30.69079590 32.92891693 0.918346 0.359721 -0.165048
26.65403557 -33.53447723 37.59208298 0.918346 0.359721 -0.165048
25.63842010 -31.99250412 35.33182526 0.918346 0.359721 -0.165048
24.10400581 -29.30147171 32.70270157 0.918346 0.359721 -0.165048
25.53502083 -31.91325951 34.93267822 0.918346 0.359721 -0.165048
24.76229477 -30.93806648 32.78244019 0.918346 0.359721 -0.165048
24.46074104 -30.48475266 32.10149384 0.918346 0.359721 -0.165048
26.09893036 -32.78116608 36.16213608 0.918346 0.359721 -0.165048
24.22544479 -29.88287354 32.10974121 0.918346 0.359721 -0.165048
26.53009224 -33.45518875 37.07949448 0.918346 0.359721 -0.165048
