-43.1544347138 -19.4400832743 16.1786258203
-43.9244842977 -17.9800803760 15.6277431452
-44.0848875644 -17.8293636103 15.3284708749
-44.0262923636 -17.8429959096 15.4876181431
-44.9988642415 -16.1112384759 14.6568472742
-44.4167027164 -16.9748600316 15.3621987080
-45.0471504209 -16.3105118484 14.2724729887
-44.0738259278 -17.5016311194 15.7558356864
-44.4083038776 -17.0648425949 15.2791235564
-42.8408865688 -18.6369478502 17.7257123245
-42.2696403745 -18.9549065440 18.7793952078
-43.8801979300 -17.1367477126 16.7190767270
-43.4379096044 -17.4024756683 17.5155944632
-43.9364126819 -16.7798740657 16.9369871651
-43.0352414501 -18.7083300780 17.1898654258
-43.1740812919 -18.7043373775 16.8613865076
-43.8498371968 -16.9719197453 16.9545787240
-43.3929557691 -17.9169819012 17.1150234583
-44.0679307510 -16.6860176014 16.7147996617
-43.4861578487 -17.3153846183 17.4860921415
-42.7451906755 -19.3714003934 17.2293958887
-43.0602313122 -17.9242295383 17.9045108682
-42.2631274276 -19.1684381012 18.5840741236
-42.6967045178 -19.1062334675 17.6074065347
-42.4015242453 -18.7314338660 18.6843579091
-43.1220488823 -18.9560683809 16.7373147503
-42.9039092493 -19.3197461073 16.9003895162
-42.8067721863 -19.0463611329 17.4030036634
-43.9753406727 -16.6448461515 16.9771459232
-43.4768239924 -17.4837181149 17.3421675236
-43.6291065404 -17.3340507909 17.1253943090
43.5970210406 -17.5956827483 16.8331180099
43.4333968700 -16.3858085759 18.4265527610
44.0439724622 -16.7054509108 16.6438486221
43.2115445742 -17.8988947560 17.4574266557
43.3201865301 -17.8779527709 17.2174362986
43.2684758160 -16.7886237523 18.4226387384
43.5475587580 -16.3073814035 18.2303849878
43.1300415415 -18.2742351998 17.2805422004
43.3087717474 -16.5934506607 18.5196170703
43.5445054519 -18.0212297420 16.5368432177
43.1020685273 -16.9271052939 18.6846140330
43.3912418767 -16.9387636467 17.9789799432
43.5529254562 -16.3908462387 18.1346693433
43.6918024266 -16.7180642600 17.4766072671
43.0926299369 -19.0336196215 16.6167030859
43.1191741235 -19.1237491497 16.4635390852
43.7107169351 -16.2497250642 17.8959981672
43.5900748824 -16.6075728348 17.8304169946
43.4882096848 -17.7390720059 16.9519878756
43.1916526616 -18.3148058533 17.0923945055
43.1640206196 -18.3239964027 17.1495973630
43.2033325991 -17.7795295096 17.5955856071
42.9925107885 -19.0587913193 16.8320217305
42.7722900512 -18.8741868064 17.5438056031
42.9719610445 -19.5200677716 16.4235613452
42.4551414459 -19.4168802445 17.7664376972
42.6500446229 -17.4100021091 19.2903058239
42.5529497268 -17.7202429426 19.2154606120
42.1849305723 -19.1875532863 18.6425765258
42.3753453182 -19.2318152997 18.1416195849
43.0470911215 -19.2796015633 16.4818830415
42.5309307403 -18.3863026990 18.6072985704
42.8054520232 -17.5597116018 18.7687274044
42.5967452934 -19.3132613613 17.5293888743
42.6212100370 -19.2624157320 17.5211276495
42.9419750251 -16.9716787565 19.0246257112
42.6240141826 -18.5230553516 18.2481629538
42.4065883965 -18.1105235238 19.1794374388
42.5145619251 -18.1652262356 18.8659958908
42.9523435573 -16.4138138330 19.5533876989
42.1920520840 -19.3388545387 18.4753355781
42.6048641753 -19.0295645063 17.7914549948
42.6390887659 -18.8441101489 17.8933630839
42.4581070742 -18.6059690722 18.5640844879
-42.9489139318 -16.6724784873 19.4074384131
-43.2326045009 -17.3815714366 18.0277928186
-42.9726148948 -16.6394867858 19.3832695187
-42.2872506178 -18.5524165630 19.1347847702
-42.3486601185 -18.5822427786 18.9582841662
-42.7690163433 -17.7531526805 18.7707443823
-42.7245211476 -17.7764434479 18.8542768195
-43.2331679130 -17.2899647114 18.1169370153
-42.9370057456 -17.1176807899 18.9962076698
-42.2558347952 -18.6362929936 19.1271595041
-42.1424100589 -18.9303530043 19.1082801021
-43.3550067096 -17.0584124612 18.0539210619
-42.7255367282 -17.9750407164 18.6556857151
-42.7723479612 -18.1405750655 18.3801049381
-44.1949948810 -16.0882737539 17.0009772632
-43.7622192100 -16.3019716008 17.8260982752
-42.6434992682 -17.7464393653 19.0779016064
-43.3927021148 -17.3379939680 17.6875203444
-42.6110584013 -17.5245200431 19.3747765177
-43.1621033600 -17.5568171186 18.0235023306
-42.6058076524 -18.0676313614 18.8508947726
-43.2848035745 -17.1323247412 18.1490056699
-41.8904902552 -18.6743650334 19.8715520577
-41.5651100821 -18.1621431821 20.9445998080
-41.1575503947 -19.3194221435 20.7746888962
-41.9788571282 -18.6310663644 19.7336485096
-42.5866324278 -16.8491051201 20.0342975373
-41.2399094135 -18.7809065210 21.0654273944
-41.3604011857 -18.9399559782 20.6938429386
-41.9428999882 -17.7763343241 20.5239599145
-42.1201239665 -18.1513273096 19.8586993253
-41.9577660061 -17.9668702470 20.3342680062
-41.6629636048 -18.8125479661 20.2041395177
-41.5178157854 -18.6620033272 20.6172145536
-41.4170924584 -18.3679550903 21.0634121203
-41.6389726145 -17.8891431887 21.0286353418
-42.1779658652 -17.8128133939 20.0294830289
-42.8202303971 -16.5251349685 19.8460974087
-41.7275746401 -17.9284832020 20.8207262667
-41.7609282409 -18.8810261104 19.9532319103
-41.8263368459 -19.3552239346 19.4250828685
-41.6320475559 -18.5577822918 20.4795545408
-40.6725547066 -19.1341817138 21.8874442306
-41.5841781644 -18.4474013131 20.6669026140
42.3110010199 -16.1603337314 21.0714270385
41.8226808969 -16.4133597506 21.8230103460
42.4493761257 -17.4261260250 19.7279924807
42.1549705023 -16.4101911029 21.1687360616
42.2571480264 -16.7766476523 20.6569817258
42.7494021380 -16.3117767173 20.0766817009
41.9740468078 -17.8271385345 20.3288264923
41.8394339208 -18.2112826697 20.2702761375
42.1075313550 -16.4788940782 21.2044539095
42.0764197399 -17.8176122542 20.1344805553
42.1644765138 -17.4612425067 20.2615843522
41.7227390445 -17.1475633431 21.4000596317
41.6112528605 -16.1773627281 22.4404893561
42.5414394681 -16.9124733512 19.9801268154
42.5921102645 -16.4478774781 20.2726237123
42.7368171366 -16.1617511854 20.2283567742
42.1340938288 -17.5479846772 20.2483380111
41.7129935890 -18.0288814789 20.6744263082
41.8896475951 -16.8115381439 21.3540770726
41.5158259620 -16.4198660928 22.4241864988
41.8950566191 -18.5493732915 19.8745582797
41.6898780524 -18.5370233207 20.2906499827
41.3624988168 -16.9671401512 22.2647662803
41.4094263389 -17.6070475771 21.6311342173
41.3980130840 -18.0025314648 21.3194403422
41.1508302795 -18.1761561556 21.6613887524
40.9928815911 -19.1770940793 21.1276638492
40.6154231199 -19.1237373078 21.9190315748
41.3563063986 -17.2700687191 22.0209749473
41.1189545892 -17.2216885421 22.5311260580
40.4616610959 -19.2250750690 22.1373738528
41.3419135791 -18.0102813384 21.4237982960
40.8595683709 -18.2176117249 22.2021990296
40.6578219640 -18.9733542495 21.9623097188
41.3268207588 -16.3738750034 22.8367365892
40.9534662231 -17.8665735522 22.3132544013
41.5152629112 -18.7351399588 20.4684208788
41.2484833863 -18.8636809522 20.8872291144
41.0997828160 -19.2339043888 20.8683032024
41.2905560068 -18.0546351110 21.4878536943
41.2236138687 -19.3686737647 20.5095707725
41.3988247115 -17.7709951682 21.5135270403
41.1536865145 -19.4585915210 20.5718221276
-40.8359237426 -18.7058414259 21.9256328007
-42.0773596880 -17.0954288299 20.8317484673
-40.4391092062 -19.2384362615 22.2602760135
-42.3408169071 -16.9048606047 20.4723529389
-41.5901869730 -16.4243730437 22.3576803046
-41.7322516345 -17.6112342694 21.0784989071
-40.7529281494 -18.5366474895 22.2317805919
-41.3066451332 -18.1391297952 21.4738981288
-41.4950209006 -16.7436885073 22.2766917719
-42.0659644385 -16.1576838490 21.6434624389
-41.1171743309 -18.2611198920 21.7450385018
-41.3511934886 -17.0480104635 22.3043243296
-42.0609266645 -16.4053829608 21.4449342612
-41.4191519856 -16.8080752769 22.3721916784
-41.8777609304 -16.4522036491 21.7668997109
-42.3308498069 -16.6592259232 20.6987543559
-42.4175545366 -16.6695717783 20.5189782106
-42.1144363570 -17.0478796582 20.7986180352
-41.0165517633 -18.2514555330 21.9517028888
-41.4251563411 -17.6792250867 21.6271557179
-41.6351215050 -17.3889204036 21.4572380971
-40.7607631563 -18.5486726177 22.2061990132
-40.9194762281 -17.9797389370 22.3718966055
-40.8017428970 -17.8571146685 22.6941219484
-40.6940517460 -17.6019345895 23.0606743580
-40.2062493023 -18.9188478600 22.8996530433
-40.6102103331 -18.0184588398 22.8929202345
-39.2906600028 -19.1968556418 24.2133278332
-40.1010773277 -18.7749957140 23.1800294089
-38.7735126433 -19.4685236096 24.8708765975
-41.4276670726 -16.0937761914 22.9549069013
-41.2921157430 -16.5054685594 22.8764633179
-40.0262296272 -18.3740928337 23.5994629762
-40.6230798965 -17.8474256896 22.9975564248
-40.5564767648 -17.6413149928 23.2598327628
-39.3075411807 -18.7780666529 24.4938035721
-40.4243531236 -18.1327780312 23.1169479946
-40.8943844781 -17.5570605066 22.7614959828
-40.2227930300 -17.7944463545 23.7004284574
-40.1213288136 -19.3907892560 22.6928574989
-39.8352517103 -18.1331727216 24.0936449821
-40.5233477326 -17.3351295675 23.5403021903
-40.8428871827 -17.6360197503 22.7887401903
-40.3264328864 -19.2684845790 22.4427929358
-40.7535538257 -17.3599980459 23.1402095357
40.4753080243 -18.6827502712 22.5481265183
40.5335017171 -17.3716605162 23.4208754575
40.0242853984 -16.6827347269 24.7763557796
40.2769968062 -18.8785313003 22.7328638605
40.1004631095 -17.2722106581 24.2139214127
40.4868239107 -18.2559740717 22.8445584168
40.4133379757 -18.0101266731 23.1484421028
40.7657039409 -16.5233917517 23.6622863030
40.0581695854 -18.2000363087 23.5981441518
39.8248213491 -16.2181662752 25.4512818812
40.7119659042 -16.6260245860 23.6756872560
40.5532704718 -18.0179012406 22.9101838670
40.4259757509 -16.1540367836 24.4998596674
39.7971345060 -16.9657720029 24.9444959893
39.8086608797 -16.6877919897 25.1308804814
40.9022871068 -16.8567486582 23.1888602746
40.6461330354 -17.2668619493 23.3112250037
40.7303116246 -17.1574844909 23.2522356017
40.0099795114 -18.0717897575 23.7730438054
40.0884623259 -16.4915266195 24.8111077269
40.7075766921 -17.6803816312 22.9033697877
39.7744892814 -16.7253967771 25.1598579353
39.7510191409 -17.9325988367 24.3062332058
39.5591089512 -16.4839888460 25.6962159754
39.3969825315 -17.7557717805 25.0252233245
39.9992590892 -18.3029750415 23.6199102793
39.2626521583 -19.4273109648 24.0124575559
39.2088226743 -18.4736410947 24.8070600227
38.9695944410 -19.3101378447 24.5860241748
39.3015792830 -19.0599322315 24.2194193276
39.4487671558 -18.6534860318 24.2753969270
39.0702302790 -18.7943966917 24.8001604805
39.0595054035 -18.2923183660 25.1892153572
39.1787637309 -17.9159056162 25.2693982021
39.2564068237 -18.7449853627 24.5273584362
39.6847135823 -17.6112290071 24.6540220561
39.5255544619 -16.5757087184 25.6841540716
39.3843605011 -17.4181545269 25.2958324110
39.6887644141 -19.2592255940 23.4287411633
39.5874311849 -19.0855635485 23.7255189656
39.7768148979 -17.0200797379 24.9380995215
39.6065234534 -16.6144005967 25.5210090105
39.3096242498 -18.9045910837 24.3209194721
-39.5773775070 -17.2119056357 25.1999095160
-40.5678274429 -16.1439926027 24.3439196628
-41.0581421561 -16.4815176187 23.2821390400
-40.2417762392 -16.4188271773 24.6822186598
-40.7359832477 -16.7181656005 23.6421034924
-39.4751295688 -17.8341417633 24.9111509217
-40.1160584516 -17.2772253201 24.2584198169
-40.7540682348 -16.3321467602 23.8964518445
-40.2498744673 -16.4014392599 24.6815905502
-39.7693371252 -16.1980938545 25.6283161236
-40.1528136437 -16.4974705675 24.7718231656
-40.3115390128 -16.6275586954 24.4127669909
-40.2056578185 -16.1799137156 24.9180983881
-39.7022078350 -18.0596062220 24.3684830309
-40.8423941883 -16.5056634382 23.6221563914
-39.4382143017 -17.3678771725 25.3158166239
-39.4479425343 -17.0139632734 25.5603657575
-39.5118489461 -17.6892997585 24.9569407655
-39.1731636782 -17.6316138433 25.5611158987
-40.5725280380 -16.4900936696 24.0811823648
-39.6349219629 -16.5272416602 25.6087896113
-40.2586206930 -16.4859341426 24.6048531145
-40.5687047364 -16.5375491442 24.0525769226
-38.5967060929 -18.3178327337 25.9305509324
-39.1252026081 -17.0680638863 26.0064235089
-39.1020603415 -17.2266627786 25.9347481708
-38.5638408898 -18.9655949802 25.5507599086
-39.1906454670 -17.1818778918 25.8390967572
-38.5084203359 -19.1076711949 25.5355537594
-37.8508543772 -18.4451807777 26.9002060549
-37.7145899248 -19.4308977330 26.4440858270
-37.7809056890 -18.4567736532 26.9913713541
-37.2132099650 -18.8623893409 27.5263075419
-38.4578190374 -18.9884303078 25.6854821044
-38.0152208593 -19.4182759981 26.0277776809
-37.6529957512 -19.2803498458 26.6301402931
-38.3802811817 -17.9652383538 26.4682271387
-38.8212488458 -17.0927340468 26.4194929437
-38.9270600155 -17.7039024272 25.8679097218
-38.7761462277 -18.7437406974 25.3968775982
-37.4393264536 -18.9129450150 27.1736710394
-37.4546040085 -18.6780869204 27.3066273713
-38.7310535976 -17.5947363478 26.2165840102
-37.8945908613 -18.2150611975 26.9898452520
-38.6836607565 -17.4683352142 26.3666840362
38.5291059984 -18.0214561758 26.1554801899
38.5919400120 -16.1789881934 27.2831069029
38.3474808652 -17.7301764889 26.6047703528
39.2225556704 -17.3094107695 25.6445268211
38.7759886353 -17.4857745422 26.1598829742
39.1086512876 -16.4110134735 26.3988634620
38.0151751239 -16.2660482546 28.0416342398
38.6413237278 -17.5507315336 26.3075177749
38.5135538432 -16.5788828956 27.1299718169
38.3703357185 -17.4881091373 26.7322639718
38.9772470688 -17.9487831384 25.5694309166
38.7900091118 -18.2465016592 25.6377621771
38.6159162308 -17.6267361957 26.2932785151
38.1961444535 -17.1867904165 27.1776605263
38.1664567762 -16.3790974642 27.7529549292
38.2759824674 -17.2430654836 27.0275484157
38.9805466717 -17.5233609411 25.8456560260
38.7206905066 -18.4974925731 25.5701162744
38.5901502257 -18.6374989939 25.6623587072
38.2501741588 -17.1459913994 27.1281538142
38.9740168673 -18.0116300174 25.5325053339
38.0394284174 -17.5790908523 27.1403579794
37.9381695502 -17.2615412665 27.4932871436
37.6804950840 -19.0136948848 26.7009528587
38.0017030204 -18.9389005598 26.2958945075
37.7220083411 -17.2468535861 27.8088174758
37.0973907993 -18.0113573025 28.1877465674
37.4780899913 -17.5306952217 27.9664947826
37.6727522537 -17.5681598134 27.6663545614
36.7282621224 -19.1949861699 27.9284776321
37.2349026136 -18.8535340385 27.4371299283
37.8686172719 -19.1200208045 26.3645914512
37.3227598256 -18.1411044948 27.7832239664
37.3360329571 -19.3951717146 26.9364277215
37.7659979188 -17.9144311108 27.3057989736
37.5237539389 -16.5534867259 28.5471140998
37.6837288293 -18.1011704882 27.2988911428
37.7487164308 -16.6627938019 28.1566656407
37.6968342251 -18.5803850083 26.9639424670
36.9105681446 -19.3096017296 27.5948719223
37.8333616354 -17.5546092417 27.4480685909
36.9866625916 -19.2299334496 27.5398151306
36.9965813163 -19.0468190060 27.6466887148
37.7223745932 -16.9506249555 28.0038831802
37.7418668192 -18.5781937109 26.9016698960
-37.3308220448 -17.0328280129 28.5616142179
-35.2696866797 -19.3545656846 29.6741566269
-35.4324157080 -19.1946472762 29.5723436970
-36.4825419506 -18.0876203150 28.9601949191
-36.6644827602 -18.3537114852 28.5805870286
-35.6880284427 -19.4353842393 29.1185421693
-35.8858578837 -18.9710851198 29.1560074290
-36.4749220002 -17.6658461419 29.2214079236
-36.9923685948 -17.9460949454 28.4264690436
-36.0672846471 -18.0071796708 29.5118369073
-36.0459581575 -19.4040560959 28.7031860381
-35.2345818317 -19.2818280025 29.7601781227
-37.3770076529 -16.8903840107 28.5907041734
-36.0910696808 -18.9860098031 28.8982264484
-34.7353586866 -19.1933524414 30.4184503314
-36.8639039495 -17.4007323131 28.9080603800
-37.1776991089 -16.9026093335 28.8251030363
-36.8253229186 -18.0869962815 28.5448728798
-36.3923925319 -17.5762272796 29.3750328640
-36.2838826455 -18.5890009077 28.9015800454
-36.2550504385 -18.4152370070 29.0403513016
-37.9196053443 -17.1978888586 27.6237855050
-37.6964856049 -16.1080912438 28.6559783885
-37.2153401110 -17.5362139750 28.3958834196
-37.7346664604 -16.7558440699 28.1758488217
-37.8240710588 -17.8522768848 27.3281536954
-38.8928227001 -16.8823127986 26.4568490797
-37.6611519808 -18.2061199322 27.3254384237
-39.4147737242 -16.2973601272 26.1045296990
-37.8730853821 -17.1404295715 27.7273028234
-37.9691590737 -16.6943913926 27.8850849603
-37.9792310161 -16.9032555606 27.7334301674
-38.0216387390 -16.3764930212 28.0201344218
-37.3846361908 -17.2599497512 28.3385464638
-37.9097599738 -17.3763203125 27.5202936051
-37.1870139396 -17.5821468996 28.4056703622
-37.7162673111 -16.2348510967 28.5446360021
-38.4138952000 -16.2553708485 27.5457996585
-37.7649868598 -17.6382640912 27.5524188410
-38.7693306351 -17.0300652435 26.5340579166
-37.7653644775 -17.3651152159 27.7316090347
-38.6454421559 -16.7364616259 26.9022244790
-37.3507153220 -17.7593903460 28.0578418717
36.1053625326 -18.0251632468 29.3993465928
37.4931910356 -16.4329539901 28.6678598449
35.6485890854 -16.5602929607 30.8320736931
36.5920469453 -17.0259830839 29.4070153100
36.7391472517 -18.3189073891 28.4534785898
36.5673558444 -16.1746662261 29.9472083619
36.1894415421 -16.2125651209 30.3835273398
36.8716988894 -16.1567794589 29.5882616549
36.5058419866 -17.9679852072 28.9471798061
36.5475763583 -18.7776492838 28.4112460146
37.0584195242 -17.6224721158 28.4830591814
36.8217669297 -18.4382807545 28.2815847468
37.1041605329 -17.6415535365 28.4160679426
36.4157934158 -16.6362617385 29.8546653109
36.9857158748 -17.1759366678 28.8389795136
36.7894522755 -18.0296724920 28.5657200493
36.8240192138 -16.6722913372 29.3372269064
35.6151530840 -16.1913966041 31.0937695682
36.0515927620 -17.1664050791 29.9793185341
36.2647632205 -16.1674435935 30.3190822435
35.8067921173 -16.4264210062 30.7201458902
36.3077330314 -17.0158571468 29.7584243686
35.5599620848 -19.2903870080 29.3035579658
36.0753307861 -18.5107195856 29.1448277706
35.9472237325 -17.8229756368 29.7126075215
35.9287957560 -18.3098696033 29.4431857166
35.3412818922 -16.4635248569 31.2633363801
35.7608631827 -18.6004743921 29.4730057705
35.1568900172 -17.1463681573 31.0780725857
34.9735509025 -18.4435402175 30.5233540923
35.9043967250 -18.0999061523 29.5986567451
35.6762949935 -17.3540204419 30.3227361613
35.1601854586 -19.1066452554 29.8992617010
35.4019279561 -17.6850338477 30.4576116362
35.5311241969 -19.2089569475 29.3873826755
34.7399280718 -18.7432980984 30.6274822643
36.0603027439 -18.3346507126 29.2685992160
35.3271874869 -17.1519472732 30.8678795912
36.3725208428 -18.9334381200 28.5305124169
34.7152324972 -18.5859707879 30.7517662051
35.0913046475 -18.1487986496 30.5569711538
35.2147161119 -18.0344381092 30.4756074028
35.0290894932 -17.5939831873 30.9650491989
35.2388780960 -17.4398652095 30.8025904597
-34.4120176906 -18.0055120674 31.4438213387
-34.9331892920 -17.5857385705 31.1295720760
-33.6667966186 -18.8732713120 31.7460797923
-34.4819851091 -17.6567469110 31.5623884924
-34.4919548408 -18.2675615227 31.2161588624
-32.9934147731 -18.6228403612 32.5879536553
-33.3657177594 -18.3625413372 32.3417211709
-34.2673978145 -17.6112352436 31.8118147994
-33.6111272079 -18.5369835965 31.9891705240
-33.8024768935 -18.8226459758 31.6320229744
-34.8912603505 -17.4061774469 31.2721358525
-34.3132392234 -17.8467142918 31.6344190216
-34.4426756387 -18.4217928137 31.1829027142
-34.9126878667 -17.0890991497 31.4240496830
-34.5222895055 -18.7912368681 30.8965384648
-35.0551845453 -17.3356753775 31.1394708296
-34.5335560810 -18.2814140395 31.1650344163
-32.3302252762 -19.4488075540 32.8274052357
-34.6198686758 -17.8949546595 31.2872385506
-33.8609237485 -18.6077691935 31.6890325195
-33.5653996785 -18.3864175339 32.1197709442
-34.6724077587 -17.4134677990 31.4970012206
-35.5717462685 -17.4658843065 30.4361662016
-37.1806015688 -16.1323427535 29.2817544262
-36.1349229878 -16.3216077581 30.4367982410
-35.3099848910 -18.1007621136 30.3743164476
-36.8965720884 -16.6554435370 29.3136914469
-36.5707695708 -16.9789774056 29.5155176597
-36.9511719859 -16.3830241235 29.4102270156
-36.3001178152 -17.1049419452 29.7684873315
-35.8364635207 -16.8426839197 30.4874400502
-36.1198043200 -16.3224007290 30.4546510107
-35.2582555342 -17.3958913063 30.8581518293
-36.3979458727 -16.5981813756 29.9525919564
-36.7808800943 -16.4532844497 29.5747639361
-36.1204724409 -17.3098206559 29.8639468577
-35.7605711614 -17.7393665443 30.0437884795
-35.5442544811 -16.4914174571 31.0516580691
-36.7439151161 -16.6917623975 29.4771236213
-35.5766433745 -16.5664235398 30.9675745928
-36.9885013179 -16.6648191484 29.1966065760
-36.9965811122 -16.4486561880 29.3159427995
-35.3391013617 -17.4655385994 30.7184999846
-35.9605718405 -16.7855139313 30.3710884080
-35.4148205049 -18.4046317442 30.0656490617
34.2925708427 -16.9215166480 32.1177790727
34.5261323649 -18.0340753412 31.2597558599
33.7674204608 -17.2331740706 32.4959694601
33.4180661807 -16.9792139021 33.0018901222
34.0541849176 -17.7955692557 31.8855473000
34.5348311398 -17.1497833473 31.7381953267
33.5771698724 -16.6913285370 32.9939754557
34.3010579389 -18.7954010808 31.0757350210
34.2324848035 -17.5186188509 31.8515026437
33.4973952924 -17.0011128249 32.9067321392
34.8873577904 -17.1666776268 31.3596603371
34.7556846947 -18.0007892462 31.0376844276
33.3823316350 -16.0853105572 33.5321656334
34.4618966468 -16.6684680983 32.0799538251
34.2500643057 -17.5548887322 31.8130925243
33.6265149214 -16.4729317539 33.0627038443
34.8575322850 -17.6941868619 31.1000540704
34.6479163689 -16.7603788665 31.8344545036
33.8895283969 -16.4332011775 32.8091423002
34.5630454200 -17.4564729942 31.5395520285
34.1146726769 -17.9321229572 31.7469083263
34.8860341178 -17.6410953659 31.0994759660
33.4195231014 -17.4218907696 32.7562914486
32.4518978215 -18.2197501862 33.3298360303
33.8867924831 -18.8592063092 31.4744307264
32.4816947457 -18.7828529588 32.9881622077
33.2136974635 -19.4848053753 31.8344816869
32.4275937715 -18.4138627456 33.2482699656
33.4050234560 -17.6737970508 32.6325856883
32.8282232956 -17.1232399022 33.5402530504
33.6511418041 -17.8421235275 32.2820147062
32.3802418555 -19.4193075999 32.7435143202
33.1272156041 -18.4808014715 32.4786121249
33.1809043275 -17.6414161825 32.8851719505
33.5304371260 -18.9037897189 31.8230829940
32.4260907133 -19.2713771870 32.7770518217
33.6595924225 -19.3863783512 31.4217323404
32.7975288923 -17.5545158153 33.3346143425
33.0868715535 -16.6448364651 33.5331212308
32.5335492682 -18.1101161942 33.3047676929
32.6928240999 -18.9562558228 32.6714306577
34.1652435432 -19.1922060334 30.9992020256
32.8048876807 -16.9143289815 33.6798758918
32.5575761042 -17.9749956442 33.3541011384
-32.8570884788 -17.0987518316 33.5684039797
-33.0687371799 -18.2389450563 32.7202329071
-33.8586067345 -16.1767414221 33.0279515546
-33.7847779971 -17.2431733086 32.5188644698
-33.7959141239 -16.5710856700 32.8767136820
-32.5534927085 -18.0330942694 33.3722335270
-33.0333761577 -16.7171121011 33.5938706277
-33.6169714781 -17.0353640029 32.8086010320
-34.8086568195 -16.0518149242 32.1031063135
-33.5936006234 -17.2003265143 32.7423536234
-34.5629583734 -16.8268325428 31.9339644968
-33.5367234792 -17.6737643920 32.5415496450
-33.8656357635 -16.8002619943 32.6778097426
-34.5105888721 -16.3069597981 32.2745387739
-32.5735427401 -18.1300043104 33.2979858094
-33.5356988637 -16.6679277042 33.0955947891
-34.1222023260 -17.0111467921 32.2935625694
-32.8550770614 -16.9575524779 33.6481413166
-34.9307533881 -16.4045942409 31.7814726346
-33.1211857487 -17.0730566084 33.3063534095
-34.9226434987 -16.1532851426 31.9281113440
-32.4472041675 -18.8189406926 33.0513471621
-33.1810415476 -17.8019727581 32.8430293953
-32.4693566235 -16.6431677624 34.1676388930
-31.3764931646 -18.2068061471 34.3540207847
-31.7531216866 -18.2033713841 34.0157968989
-30.5324002131 -19.0352846391 34.6920235415
-31.5190401436 -18.7463869789 33.9492378447
-31.8658097098 -18.2965345483 33.8664032014
-31.0502400692 -19.3542606340 34.0613591686
-32.1102871163 -17.1194982882 34.2480195563
-30.3973378976 -18.7552840572 34.9572193357
-32.1340021591 -18.4592556074 33.5410468235
-30.5257569432 -18.7160328897 34.8613855965
-31.5917612896 -18.0566766881 34.2365199269
-30.9373817029 -19.3354362315 34.1728646092
-31.6261133688 -18.1347102788 34.1655805198
-31.2822745180 -19.2154315121 33.9229430338
-32.0642054118 -18.4517768254 33.6078809555
-30.7093861929 -18.5469933879 34.7821238689
-31.7987186445 -17.5100643673 34.3294125906
-31.3453556935 -19.2609815289 33.8426948686
-31.5077580825 -18.6006063359 34.0340180058
-32.1013076236 -17.5756407744 34.0227086981
-32.2704562602 -17.5397261175 33.8884054038
31.2026678108 -17.5901079627 34.7859573353
31.8645591763 -17.9127474267 34.0220627397
32.5924626066 -16.5160663250 34.0805707644
31.7414036491 -17.6864407272 34.2495021630
32.0436656186 -16.7514974767 34.4559119599
31.5937733841 -18.1184447533 34.1613334961
31.3399699115 -16.5077649629 35.2171181072
30.8288396704 -16.0860083008 35.8955701673
32.0481348573 -19.1910088944 33.2003074285
32.0060444177 -18.1818439745 33.7560984642
31.4564162667 -16.9076289549 34.9067011061
32.2373613767 -18.8071604228 33.2261750088
32.6763154330 -16.4408248218 34.0433713947
31.6179617515 -17.1504970721 34.6360605748
31.9825641529 -18.8075078479 33.4563356272
31.7376643224 -17.5323309067 34.3319471604
32.3813089063 -17.9892253857 33.5156700150
32.6444958535 -16.1467820381 34.2229899142
31.8111164330 -18.7739928916 33.6285242548
31.4633265813 -16.4251559499 35.1479827906
31.9803774340 -18.5309030829 33.6002211000
32.5975221073 -16.3510390134 34.1606624585
30.6310540314 -17.6705316367 35.2614513207
30.0822191016 -19.1722968244 34.9871493011
30.8663922330 -18.9000446515 34.4179103837
29.7256835767 -19.2567304420 35.2661473332
30.7470254106 -17.9570082750 35.0096362326
31.9798376421 -19.4824989170 33.1125040626
30.6143703381 -18.2781230190 34.9648163281
31.4982003403 -18.7741829495 33.9113111468
31.0468622419 -18.9556912801 34.2262112658
31.2509481674 -19.1555865271 33.9391592314
30.7607636108 -17.4398755645 35.2625249450
30.6038431539 -17.8485040379 35.1947413586
30.3419445065 -17.1842633849 35.7722877985
30.0848432316 -18.2096151108 35.4786691581
30.7456558322 -17.1463442319 35.4267743681
31.2426642896 -18.4579716331 34.3045496208
30.2493553877 -19.1423921627 34.8513966170
30.9821670717 -17.3980223984 35.0838469500
30.2960025877 -19.1508285180 34.8048953707
31.8076379010 -19.0133120276 33.5088879039
30.0522783632 -17.8145531530 35.7107886039
-31.0002705552 -16.9314127594 35.3462532326
-30.5412099084 -17.9582482334 35.2352020058
-30.0259461551 -17.8850738529 35.7377647255
-30.4327655670 -17.5802174447 35.5265287121
-31.0282729187 -17.8385048015 34.8568088326
-30.5829520161 -17.0550237265 35.6597072722
-30.8638800542 -16.6746065748 35.6007759914
-31.3922199372 -16.1178571052 35.4087497006
-30.8920018733 -17.5625487833 35.1210255224
-31.2767031435 -17.6975658127 34.7046783472
-31.0054319423 -17.7976635255 34.8983272243
-31.0537961698 -17.7619888422 34.8729266345
-31.0198128372 -17.5448585338 35.0147060079
-30.9602301552 -17.8625114868 34.9059452468
-31.5226376278 -17.1584864640 34.7585267947
-30.3084602997 -17.4197885249 35.7208327751
-31.9889908529 -16.8371085205 34.5020129075
-30.3639376340 -18.5370222691 35.0990573713
-32.3349004982 -16.1423930104 34.5452573702
-32.2043505738 -16.5705475510 34.4440106853
-30.5047433929 -17.3574183758 35.5755670699
-30.7563143056 -16.8021926410 35.6325923541
-29.3292598838 -18.6052738529 35.9372697716
-27.9491569416 -18.9068077457 36.8651662822
-28.6189397598 -17.8312173545 36.8618178372
-28.5109440848 -19.0137109996 36.3769925975
-29.1741712050 -18.4436428259 36.1355875624
-30.0891491619 -17.2076796273 36.0187576392
-28.7439617826 -18.0499747513 36.6594002258
-30.0289785559 -17.2913896273 36.0252718859
-28.9215289850 -17.8431587501 36.6208295516
-29.6813808782 -17.5355011814 36.1780832801
-29.5160077996 -17.8710675677 36.1452428657
-29.6555532092 -17.8531390769 36.0453794035
-29.1915349400 -19.2973404912 35.7114572251
-28.4548457226 -18.3975543783 36.7169759572
-28.7669072029 -18.3123561999 36.5153566630
-28.9485261749 -18.1305450804 36.4616071473
-28.7260178777 -19.0144281126 36.2094429905
-28.3641173898 -18.6378663404 36.6719213569
-29.2513797885 -18.9817708503 35.8167173029
-27.9007571187 -19.2042162029 36.7597395513
-29.3925935721 -17.8838679408 36.2350315990
-28.5026915419 -18.0146751904 36.8639493746
28.4444370417 -17.7842581877 36.9850835944
28.4332371732 -17.9328407751 36.9221720906
28.1971716641 -18.4873773947 36.8386091408
27.8409488058 -18.8936004343 36.9201102761
27.9667213077 -19.2977780469 36.6273188457
27.6267997103 -19.0466611847 37.0130514041
27.5740419228 -18.0409106885 37.5390248545
29.0379937264 -19.1468028867 35.8660273441
28.6246968674 -18.9297425858 36.2924657276
27.9455685898 -19.0745747957 36.7514039729
27.5220340851 -18.2120572796 37.4970039978
27.7797521333 -17.4208244644 37.6778231915
26.9950920189 -19.1232918683 37.4679445932
27.9701263770 -18.6931932340 36.9161551195
29.1918985855 -19.1964397896 35.7222669757
28.6162982627 -18.9746962132 36.2773322265
29.0154467285 -19.4815776898 35.7221768798
28.2676366917 -17.5829122147 37.2198149301
28.1373940731 -18.0490077607 37.0965041427
27.7927451331 -18.2057919516 37.2892556925
27.7542275836 -19.2468790052 36.8173058566
28.1632968675 -17.4234950806 37.3779097351
28.4475405673 -16.1211275222 37.7845103337
28.5241483121 -17.2030161621 37.2032572463
28.2851811277 -16.4844642835 37.7357460236
29.3520793107 -16.6008941167 36.8489376002
29.1407148604 -18.2393265329 36.2235661465
29.2327014024 -16.8016486120 36.8450913575
28.5406344862 -16.5140302014 37.5226004264
29.2428290635 -16.6461033255 36.9121984568
29.4683670870 -17.2207894485 36.4595248418
29.0705850082 -16.4823950029 37.1252379184
29.6310073432 -16.9993021498 36.4396796965
29.1518372284 -17.4903424583 36.5760121776
29.4096454859 -19.0089739591 35.6431133175
29.3499167636 -17.1270558575 36.5969416603
28.8002731752 -17.8371042159 36.6825556970
28.8716115952 -17.0169063272 37.0224515745
29.8212528618 -17.9825442473 35.8175063662
28.8757584127 -17.9491500306 36.5697666608
29.4853440456 -17.5658926136 36.2799234145
30.1591560427 -16.3815370706 36.3263090777
29.9836123678 -16.7899137626 36.2660950846
27.9228927495 -16.4795838620 38.0201748654
-30.0780545223 -16.2892750394 36.4691404319
-28.9513788754 -17.0127294770 36.9970648097
-27.3789522497 -18.1431970341 37.6757577650
-28.0782965861 -17.4895543345 37.4464729013
-27.8190958237 -17.6417411852 37.5747786684
-30.0116653811 -16.1482876393 36.5885643907
-27.9948799981 -16.1360868590 38.1623476937
-29.9160349520 -16.4359088705 36.5245680256
-27.9704029534 -18.3905166537 37.0969831767
-27.4637066797 -17.8188009586 37.7659034306
-26.9810208702 -19.3017956620 37.4278287909
-27.2076295052 -18.8564061586 37.4658929233
-28.3466123746 -17.5937801427 37.1877439245
-27.4248002544 -17.3400401425 38.0264342909
-28.0032767727 -18.3074704662 37.1113765354
-27.7024599257 -18.2819605509 37.3575065142
-27.9465253578 -16.1524966802 38.1920478824
-28.6451619257 -16.5852552029 37.4407480142
-27.6038947898 -17.8479944742 37.6428738693
-28.7657490078 -16.3725150884 37.4493262970
-28.9571075176 -16.0541103421 37.4537129499
-28.9240077503 -16.9712138804 37.0383160984
-27.3864882086 -17.1752313310 38.1290240597
-26.7805364117 -17.8792167809 38.2113414316
-27.0957209374 -17.2600735160 38.2839040476
-26.2408017971 -18.0887673923 38.4750851514
-27.1942657103 -17.5248683921 38.0975230596
-26.1466503753 -18.0461708676 38.5571975551
-26.1408619755 -17.9768569847 38.5926646547
-26.3345752420 -19.3038408881 37.8584575416
-25.9150164150 -18.7589241026 38.3863141111
-27.1529065997 -17.8401480338 37.9812586017
-27.1977150466 -16.5318959559 38.5481267920
-26.8518504080 -18.7546877453 37.7645616415
-25.5469167884 -18.9385277442 38.5494575416
-26.5941294341 -17.5240684965 38.4974220231
-25.2495582111 -18.7474480857 38.8345711434
-27.5526422523 -16.4872861956 38.3321822737
-27.2914440173 -16.9499668473 38.2950415943
-27.3666548128 -16.4841962559 38.4574092070
-26.6725042112 -18.3205703893 38.0819579718
-26.4887966228 -18.3844457312 38.1751284896
-26.9977207026 -18.9034157457 37.5996142147
26.7044311631 -19.2750676581 37.5929230381
24.8908409719 -16.9520879353 39.8638737938
24.6805970057 -19.0554587768 39.0427153038
24.8142048791 -17.8845967813 39.4887758215
24.7878533736 -16.1896333116 40.2810243085
25.3240194434 -16.9554234949 39.5735231273
24.8528259175 -19.3619987551 38.7877756161
24.5992111385 -18.5393774215 39.3328557163
24.9398853345 -19.0889579758 38.8545213950
26.3103094008 -19.2586677554 37.8632073986
24.6753972086 -18.7466432794 39.1873275728
25.1766612334 -17.6224827413 39.3668963659
25.0680623861 -17.0129755275 39.7178850509
25.0013064544 -16.4998894719 39.9968976008
24.9852075502 -17.3447277950 39.6214977397
25.4627865139 -19.4487635065 38.3414224719
25.3102327118 -19.3871187634 38.4713141298
24.9411559804 -18.6228357438 39.0667153109
25.0639046338 -19.4606321965 38.6019567282
24.7415017109 -16.4337192449 40.2003652498
24.8429700499 -17.7251647520 39.5424594514
24.5915046996 -18.3209863878 39.4378069642
26.3996753054 -16.4893739754 39.0693238630
25.1108891618 -16.1390448653 40.0887587576
24.9205602983 -16.1813663896 40.1963197674
25.9260907732 -17.5465710000 38.9019011151
26.9140529380 -18.5246031947 37.7961557174
26.9625198691 -16.2097545929 38.8218397454
26.8028875710 -18.3399227017 37.9546827929
26.3687395525 -17.8728986313 38.4576080801
27.0226773511 -18.8238964772 37.5869352242
27.0643916930 -16.5641262073 38.5919469043
26.9466926901 -17.8112348309 38.1004338861
25.4560730407 -16.1586191221 39.8496499403
25.7438809728 -16.3869402655 39.5533984409
26.4831747563 -16.0848268413 39.1985481679
27.4450079428 -16.5245126487 38.3562742631
25.5239444372 -16.5318776420 39.6338035023
25.5030452685 -16.8729010357 39.4918704577
26.0550482047 -17.4670009939 38.8522823416
26.1841869574 -17.8898196774 38.5729265250
27.1209402729 -16.2369312520 38.7037887640
26.3675598297 -18.3909359499 38.2216295543
26.0134109084 -17.1882164793 39.0074627608
-26.6431712186 -16.1640074440 39.0851017128
-25.3028086357 -17.5428553290 39.3485410951
-25.3910730747 -16.4249801053 39.7996452799
-26.3869067179 -16.5132538556 39.0964141453
-24.7076776191 -18.3901858404 39.3582756043
-25.5474544717 -17.1923360357 39.3455434747
-25.7087135401 -16.3308531576 39.6311118399
-25.8112664871 -17.2700674002 39.1344603982
-26.0325164520 -16.0425522488 39.5470360419
-26.3710434640 -16.5371575608 39.0960770964
-25.5355764249 -17.8152337914 39.0693425532
-24.3287449095 -19.1864427332 39.2473706895
-24.6327552405 -18.7057649222 39.2642155233
-24.6984216141 -18.4327478299 39.3450234355
-25.0030745034 -17.4377096341 39.5960443883
-24.8959824071 -17.9321113443 39.4418380851
-25.6685046021 -17.3853523105 39.1769226061
-25.2502184332 -16.6279832231 39.8008299880
-25.2238800241 -16.7510098768 39.7622496217
-24.4327435944 -17.9407996924 39.7462779252
-26.3496643042 -16.3675333015 39.1876739258
-25.1780285093 -16.5350138522 39.8912921461
-26.0154596174 -16.1321725310 39.5175179669
-24.3436625851 -16.8287047510 40.2823395342
-23.9141601448 -17.9348831367 40.0426139365
-23.9337522637 -17.2934889064 40.3111343739
-22.7410856707 -18.9658270298 40.2554151093
-23.6853944646 -17.5941506406 40.3202688798
-23.8893352298 -17.5809573676 40.2109009674
-24.2775057613 -18.4953109605 39.5932225105
-24.1477604423 -18.2374316010 39.7788677396
-23.0403536180 -17.9145487506 40.5447303192
-23.1036471678 -18.8167093940 40.1157515038
-24.2042773919 -18.9379820496 39.4415971482
-24.6143797588 -16.8539150482 40.1185378911
-23.1987115482 -18.5216487565 40.1907049920
-24.5190538810 -16.7749218730 40.2067781818
-22.8953417799 -18.7407683715 40.2664381178
-23.6573342647 -17.6121009875 40.3282887326
-24.1591046497 -17.4048698712 40.1353741864
-22.8096024093 -18.7454399214 40.3128039756
-23.1874036442 -17.9051256216 40.4658296106
-23.4457917945 -18.6505089087 39.9950612986
-23.1425355047 -19.2229833390 39.9167071426
-24.0918485420 -18.7544145584 39.5850789932
21.5621107787 -19.4568864453 40.6812425029
21.8292639157 -19.0200047377 40.7209762606
21.6619438685 -18.6298002123 40.9859742591
21.3311724274 -18.7007549853 41.1420061649
22.5194245259 -18.8965814673 40.3846532174
22.1324012581 -18.5272623801 40.7647526585
21.6365992949 -19.4198277952 40.6553110299
22.6855838008 -18.1214570885 40.6291936754
21.4579452774 -18.8822416710 40.9910778271
21.7276152619 -17.7063767378 41.3520926462
22.5850260995 -19.3086200894 40.1676327320
21.6715236562 -19.0934780045 40.7780759050
21.6406528363 -18.5747637919 41.0220494465
22.6150475870 -19.1493304874 40.2202174176
22.8645706580 -19.1457554514 40.0806969761
21.2232224521 -19.3527421497 40.9183294421
23.6658065517 -19.3194587971 39.5518173763
21.6884595850 -17.2773663358 41.5615715124
22.3002415074 -19.3952935029 40.2908031876
22.0025568266 -17.6034830454 41.2415690919
21.3225583344 -19.0814018305 40.9806555621
22.6433571514 -18.4412466136 40.5134208672
23.9986068080 -19.2458270013 39.3958124713
22.9055069745 -17.3740883927 40.8312153400
24.2727457499 -17.9153250452 39.8218222382
24.5440448535 -16.9621161674 40.0846776673
23.9085900555 -17.2388363271 40.3231318065
24.5290198748 -16.8166429216 40.1567040415
23.4514585301 -17.2061212827 40.5958777983
23.5042713754 -17.2032688972 40.5672645375
24.6041032321 -16.5751318677 40.2197153956
24.6509276933 -16.3555344461 40.2891326868
24.0575039492 -18.8779280498 39.5231671114
23.9010728697 -17.5887623466 40.1745715300
24.0919292503 -17.9753149409 39.8978609282
24.0360936786 -17.1114465021 40.3066654604
23.0332599604 -17.1163919455 40.8715139877
24.3337655774 -17.6804997817 39.8898651590
24.2002039319 -18.3480950634 39.6738561232
23.2028333585 -16.0971522863 41.2207258859
23.2761058106 -17.9059561140 40.3894148506
23.7112034808 -16.2213591073 40.8790506047
23.6709575467 -18.4538067038 39.9269258280
24.3434627124 -17.0653144032 40.1530231878
-22.0223183362 -17.0568899375 41.4932444690
-22.6078835192 -16.1293500943 41.5670110179
-22.1509148201 -17.0005048719 41.4452336361
-21.5396494733 -17.6293660901 41.5161676750
-21.7190619517 -17.6374159345 41.4113844757
-24.1390515365 -16.3716259048 40.5970788283
-22.1112357075 -16.4619377410 41.7023922645
-22.0803282262 -16.3260408355 41.7790718562
-23.3352708089 -17.1760294887 40.7001699342
-21.7379426001 -16.6032905925 41.8514964431
-22.7564294348 -16.9715488589 41.1160492584
-22.0189987065 -18.6017030546 40.8217444938
-22.3220926702 -17.8461520643 40.9799901174
-22.7761744302 -16.1940588840 41.4438084432
-21.8067370984 -16.7065285358 41.7676599958
-24.4415767168 -16.3034787987 40.4560151961
-23.5034780165 -16.4933126450 40.9028112539
-21.9731761790 -17.8120636130 41.1918080174
-23.5129280660 -16.2780742565 40.9912988985
-22.1255391139 -17.7881781419 41.1162138262
-21.4531331873 -18.6705249702 41.1111676535
-23.2265812681 -16.9758503425 40.8487796854
-21.7011245477 -18.4133513667 41.0832792262
-20.8430528674 -17.6071767626 41.8579991264
-20.6478564013 -19.4305569319 41.1849443282
-19.1931462339 -18.8638311940 42.1083559376
-21.1390719105 -17.6989350499 41.6799816795
-19.8682413343 -18.5845031870 41.9073752976
-20.5873859248 -17.5764022175 41.9914111376
-20.0075578417 -18.4976655502 41.8781504960
-19.6789398845 -18.7037853535 41.9465465096
-20.5890438163 -18.0541963099 41.7901587744
-20.9982124114 -16.8418854409 42.1059718122
-20.7456580012 -19.1764130666 41.2454805570
-19.6994327940 -19.3268864457 41.6754474698
-21.1219785942 -18.5752558723 41.3203480878
-19.7543713849 -19.0031465515 41.7853893634
-20.3643055380 -18.5333898037 41.6950193868
-19.0436325916 -18.8513666181 42.1840529265
-21.4336313377 -17.8318900051 41.4853673097
-21.0565410004 -17.9788327883 41.6014397274
-19.8255500411 -18.3243651249 42.0366435857
-18.8897320759 -19.1083369382 42.1487711960
-20.4718274374 -17.5198442289 42.0696040911
-20.6441424103 -17.8543604777 41.8480355514
21.0386205809 -17.4899372966 41.8242960750
21.6010530012 -16.8332986849 41.8044638541
21.0864616146 -18.5945892440 41.3210723297
21.1683522565 -19.1583435773 41.0332258976
21.1770690033 -18.6785640225 41.2358700054
21.5109466392 -16.5584619351 41.9718813846
-19.8498808907 -16.4970449866 42.7918819917
-19.5397889541 -17.9560121692 42.3258814532
-18.5186605854 -17.8022373077 42.8716727818
-19.7491818781 -17.3761080076 42.4705083535
-20.9115727934 -16.5842779420 42.2548962411
-18.3291518497 -18.2483487879 42.7738107094
-18.8624838757 -17.0329280607 43.0324090988
-20.1049707618 -16.8882874965 42.5074966218
-18.4714777036 -18.1846778682 42.7334496031
-19.6099200449 -17.9342606641 42.3019551885
-19.5706594386 -17.0810098229 42.6784641072
-18.1774866919 -19.1783180907 42.4550983814
-21.4435499207 -16.3017988661 42.1226873533
-19.2313268938 -16.7729282330 42.9676603121
-18.5070902508 -17.3417461217 43.0703363362
-20.3008411608 -16.6894743670 42.4985981638
-19.0052365005 -16.0322043140 43.3850118982
-19.6044987324 -16.7090310940 42.8185896185
-18.4219797519 -19.0021449377 42.4137841535
-20.8646267772 -16.7710692887 42.1986446628
-18.3792877758 -18.2356363396 42.7555146495
-19.2989311430 -17.9926069031 42.4240438076
-16.6190241413 -18.8303934760 43.1974228731
-18.4415983398 -16.4600979587 43.4605324108
-17.5418889141 -17.3297670299 43.4527892017
-15.1310986912 -19.3526166098 43.5570455765
-17.3406444415 -17.9918747655 43.2609583749
-16.4635145785 -18.9476728658 43.2095144303
-16.7838595633 -18.5164876736 43.2616861640
-18.3012587446 -17.1709578950 43.2254701413
-16.3075855440 -18.6331009326 43.3973513508
-16.6878161639 -18.8215070431 43.1745943370
-18.0439253123 -18.8450510100 42.6437533077
-18.4801815778 -16.6072970788 43.3858593280
-17.0231860816 -19.1734420721 42.9025968731
-16.8032478129 -19.0631270808 43.0319907181
-18.3594807241 -16.7364015566 43.3797658612
-15.9956843093 -19.3322089944 43.2330060146
-17.4983213889 -19.1240315034 42.7400506530
-16.7691186207 -18.9096429252 43.1075095751
-16.6940866350 -18.2412598394 43.4080917811
-17.0863309623 -17.8090458078 43.4330452464
-17.7049944248 -18.6754374814 42.8429891413
-16.1145266183 -18.8790564319 43.3715644429
-16.6248067185 -17.5816633557 43.7028916074
-15.5835321198 -18.6827944582 43.6554602887
-15.3829004956 -18.8088558511 43.6813283906
-15.1085586802 -18.5672766254 43.8850013729
-15.8735006803 -16.1844452758 44.5597515672
-16.2816490765 -16.4763161430 44.2842010930
-16.2769013370 -17.9939568483 43.6689987453
-17.8520748812 -16.7000340603 43.5895907542
-17.2000210427 -17.0638932062 43.6922977230
-15.8546905694 -17.3067094762 44.1107032535
-15.5706881328 -16.7195031763 44.4586082235
-16.3000457026 -16.5160579072 44.2609693947
-17.8398327536 -16.2032922534 43.7962558096
-15.9884293641 -16.2430146955 44.4917597490
-16.0558448421 -17.2642036268 44.0506654024
-15.7642557818 -16.5827435096 44.4398105406
-17.3873922995 -16.5157003768 43.8431526825
-17.4918566750 -16.2362160926 43.9166255240
-18.0858444436 -16.1193267420 43.7358264672
-15.7156585076 -16.4948850902 44.4942095464
-16.3007814765 -16.6685139934 44.1987025700
-16.0808705599 -17.1837136958 44.0737697780
-14.4388118240 -17.9910375995 44.3192352718
-13.8373719904 -17.9603179995 44.5131947886
-14.7568074649 -17.5297236256 44.4059991442
-14.5249091150 -19.0385452520 43.8779567611
-13.9176294885 -18.3791859542 44.3228871048
-12.6895074166 -18.8577761908 44.5043575017
-14.2549359509 -19.0707635577 43.9467818396
-14.4912847772 -17.7599203667 44.3949967158
-14.3035852626 -18.8806975790 44.0074211152
-13.7231449789 -17.9682084159 44.5445925089
-14.4526871535 -18.3676465397 44.1657437519
-14.5661778295 -18.6491141293 44.0198607492
-14.7079726303 -16.8144735329 44.7042984821
-14.2614412627 -17.3841504646 44.6134292053
-14.6785142581 -16.7672632419 44.7319206190
-13.3235518383 -18.0993105805 44.6133939523
-14.3377294149 -17.9385527652 44.3705895987
-15.1111443388 -16.8362443489 44.5738162870
-12.4757311772 -19.0469233641 44.4939865601
-14.3794691380 -19.3004598834 43.8180822639
-12.4989613654 -18.9091254783 44.5415905174
-14.7550861952 -16.9529637471 44.6351596163
-12.4163292281 -18.1073320394 44.8844193554
-13.9720531889 -17.0471067973 44.8345090682
-14.4241625300 -16.8328511729 44.7827962190
-12.2539430488 -17.5971690564 45.1357423586
-11.9275953585 -17.7502797273 45.1736801835
-13.9065073988 -16.3472671415 45.1317528330
-14.8941060056 -16.1923966036 44.8946480500
-11.9488848919 -18.9151134127 44.7054766638
-12.5934327684 -18.1102792610 44.8297215304
-12.3647319503 -16.3888934007 45.5812473399
-13.2380793894 -16.7162361534 45.1875159192
-14.3107990770 -16.4170644445 44.9818911007
-12.4598157872 -18.2533892254 44.8133738490
-14.2284907173 -16.7747255861 44.8649770508
-14.2316617756 -16.5044595036 44.9711619239
-12.7940892015 -16.9687699631 45.2215960349
-13.1466089692 -16.5771609005 45.2702952274
-12.8253098839 -16.2541552633 45.4954546216
-12.9071189834 -17.7050566010 44.8955504449
-13.2801162301 -16.5576197300 45.2376896553
-11.9974362461 -17.5483954347 45.2326048296
-12.8218751006 -17.2696028181 45.0939418840
-11.5121607070 -17.4385618578 45.3911737897
-11.0545379562 -19.3161236836 44.7634666654
-10.8064217764 -19.1816438868 44.8712553311
-11.5390562146 -16.6146922441 45.7055064628
-10.5813492163 -18.5573450808 45.1643503308
-9.0804997267 -19.0355908779 45.3140997886
-10.4873763029 -19.0509463394 44.9934403707
-9.8140422226 -18.5028979011 45.3571514370
-10.6355295777 -18.7067903342 45.0941193092
-10.4989240263 -19.1785054472 44.9412599162
-9.4380730602 -19.4075912311 45.0894708223
-10.4715339290 -17.7102884204 45.5182817236
-10.4090476766 -19.2187544291 44.9457113040
-11.2405306203 -17.5706105998 45.4005824418
-11.3195033948 -18.4769089692 45.0305203998
-11.5904075944 -16.5902830886 45.7035104424
-11.8914710268 -17.3956543840 45.3230121787
-10.0325122838 -19.2226476403 45.0284195155
-10.5392224686 -19.1293347072 44.9513612944
-10.7461993595 -17.4474701908 45.5590353806
-10.0121058412 -18.9058235628 45.1561771024
-8.9819762683 -17.5005957037 45.9329969712
-10.3263579133 -16.1453390586 46.1592596668
-11.5669432896 -16.3751261600 45.7924241065
-10.3952119909 -17.0883394213 45.7771862686
-8.9779552038 -17.5190813467 45.9267060301
-10.3890772315 -17.1038295652 45.7725389804
-10.6128492438 -16.7893447104 45.8447691670
-8.9955462892 -17.9831332787 45.7423361789
-8.8375036318 -17.1412460217 46.1050367650
-10.2351414923 -17.3156807270 45.7245968174
-11.6670924236 -16.1040062043 45.8754397889
-11.1627270549 -16.4592785527 45.8501148986
-11.2757541506 -16.1217606712 45.9560712342
-9.4809776708 -18.0085845127 45.6238596127
-9.7760683677 -16.6637189806 46.0807827346
-10.2848280133 -16.8935712416 45.8776128789
-9.8773248478 -17.7120098084 45.6505229887
-9.0892287693 -17.9902970243 45.7185967202
-9.5506431625 -18.1573145950 45.5504456528
-10.9993051738 -16.5315414566 45.8585716908
-9.5123573049 -16.2416780490 46.3038766018
-8.9845766049 -16.8696319832 46.1777562649
-9.0875516058 -16.6067136668 46.2569512739
-6.1538574467 -19.3290100812 45.6817400784
-7.1402066421 -17.7124598493 46.1561694534
-6.7906731396 -18.0088686185 46.0940869388
-7.1310593696 -18.9918468861 45.6667776960
-7.3197812632 -19.2534042453 45.5385861771
-7.2462250440 -18.0854894789 45.9974290101
-7.5794744527 -18.7189641924 45.7052420020
-6.5285357871 -18.2806561151 46.0285384295
-5.8280295463 -18.8181086654 45.9258183471
-8.2460648067 -16.5616003150 46.4343291693
-7.7476448712 -19.3085916607 45.4542386849
-7.7949400182 -19.0055900106 45.5634816512
-6.4081922293 -18.6254016013 45.9140733463
-6.8267313236 -18.0775315691 46.0624216518
-7.7700887858 -19.0446529747 45.5521664814
-7.0393335929 -17.6640453707 46.1896348559
-7.2040742181 -17.7911628487 46.1165500646
-6.4702438565 -18.2176240187 46.0613234214
-7.8327372086 -18.4805103564 45.7593097280
-8.0617706799 -17.7473297260 46.0067240415
-7.9959847382 -17.1298450707 46.2532885968
9.1579499519 -18.4810663933 45.5154280450
9.3641207137 -19.3177378050 45.1484832681
9.0158806278 -18.3311532636 45.6028281898
8.9168144156 -18.6015062825 45.5183781151
9.0513538510 -19.2299235734 45.2469460231
8.7596299705 -18.2056067012 45.7042863041
9.1418162214 -19.1443685980 45.2614960579
9.3276925163 -18.8649393113 45.3315985304
