-3.753375244000000066e+01 -3.582381999999999928e-02 4.658541489000000269e+01 0.000000000000000000e+00 0.000000000000000000e+00 0.000000000000000000e+00
-3.774157714999999769e+01 1.579258400000000118e-01 4.641247558999999967e+01 0.000000000000000000e+00 0.000000000000000000e+00 0.000000000000000000e+00
-3.709090041999999698e+01 1.367047190000000079e+00 4.688783646000000260e+01 0.000000000000000000e+00 0.000000000000000000e+00 0.000000000000000000e+00
-3.734558867999999876e+01 -1.043710699999999963e-01 4.673810576999999711e+01 0.000000000000000000e+00 0.000000000000000000e+00 0.000000000000000000e+00
-3.684624099999999913e+01 7.096073600000000203e-01 4.710705184999999773e+01 0.000000000000000000e+00 0.000000000000000000e+00 0.000000000000000000e+00
-3.777487946000000107e+01 9.327024800000000004e-01 4.635769272000000285e+01 0.000000000000000000e+00 0.000000000000000000e+00 0.000000000000000000e+00
-3.736085128999999938e+01 5.859202100000000524e-01 4.670079041000000331e+01 0.000000000000000000e+00 0.000000000000000000e+00 0.000000000000000000e+00
-3.322122191999999785e+01 1.843240700000000065e-01 4.887880324999999715e+01 0.000000000000000000e+00 0.000000000000000000e+00 0.000000000000000000e+00
-3.371594238000000132e+01 2.310544999999999960e-01 4.949991989000000103e+01 0.000000000000000000e+00 0.000000000000000000e+00 0.000000000000000000e+00
-3.293000411999999955e+01 4.998936999999999825e-02 4.846760941000000145e+01 0.000000000000000000e+00 0.000000000000000000e+00 0.000000000000000000e+00
-3.302898788000000252e+01 -5.177972000000000130e-02 4.854447556000000219e+01 0.000000000000000000e+00 0.000000000000000000e+00 0.000000000000000000e+00
-3.341460800000000120e+01 -1.522275100000000103e-01 4.897023010000000198e+01 0.000000000000000000e+00 0.000000000000000000e+00 0.000000000000000000e+00
-3.023138236999999862e+01 -8.091940000000000591e-03 4.516347884999999707e+01 0.000000000000000000e+00 0.000000000000000000e+00 0.000000000000000000e+00
-3.335690308000000215e+01 5.274140000000000078e-02 4.898754883000000149e+01 0.000000000000000000e+00 0.000000000000000000e+00 0.000000000000000000e+00
-3.139361571999999967e+01 2.032902099999999990e-01 4.666600036999999901e+01 0.000000000000000000e+00 0.000000000000000000e+00 0.000000000000000000e+00
-2.906097602999999907e+01 -8.025849000000000177e-02 4.371042252000000161e+01 0.000000000000000000e+00 0.000000000000000000e+00 0.000000000000000000e+00
-3.291241455000000116e+01 2.224334000000000033e-01 4.851980208999999888e+01 0.000000000000000000e+00 0.000000000000000000e+00 0.000000000000000000e+00
-3.344200133999999736e+01 1.241969799999999985e-01 4.912144852000000128e+01 0.000000000000000000e+00 0.000000000000000000e+00 0.000000000000000000e+00
-3.244633865000000128e+01 -2.832780000000000020e-03 4.785732651000000004e+01 0.000000000000000000e+00 0.000000000000000000e+00 0.000000000000000000e+00
-3.403059769000000045e+01 1.757141600000000081e-01 4.933596038999999678e+01 0.000000000000000000e+00 0.000000000000000000e+00 0.000000000000000000e+00
-3.507426070999999723e+01 -2.422269999999999805e-03 3.603721236999999888e+01 0.000000000000000000e+00 0.000000000000000000e+00 0.000000000000000000e+00
-2.966796683999999829e+01 1.156802179999999902e+00 4.497048187000000041e+01 0.000000000000000000e+00 0.000000000000000000e+00 0.000000000000000000e+00
-2.791253852999999907e+01 1.573481319999999961e+00 4.301205444000000000e+01 0.000000000000000000e+00 0.000000000000000000e+00 0.000000000000000000e+00
-2.774374579999999924e+01 1.345340130000000078e+00 4.271075821000000161e+01 0.000000000000000000e+00 0.000000000000000000e+00 0.000000000000000000e+00
-2.758347321000000107e+01 6.711113499999999954e-01 4.223190308000000215e+01 0.000000000000000000e+00 0.000000000000000000e+00 0.000000000000000000e+00
-2.783945273999999870e+01 3.860202999999999829e-01 4.242297744999999765e+01 0.000000000000000000e+00 0.000000000000000000e+00 0.000000000000000000e+00
-3.096942519999999988e+01 3.744692800000000155e-01 4.622301102000000128e+01 0.000000000000000000e+00 0.000000000000000000e+00 0.000000000000000000e+00
-2.926505660999999847e+01 1.268403409999999898e+00 4.452770232999999678e+01 0.000000000000000000e+00 0.000000000000000000e+00 0.000000000000000000e+00
-3.053218460000000078e+01 5.067674500000000082e-01 4.574721909000000153e+01 0.000000000000000000e+00 0.000000000000000000e+00 0.000000000000000000e+00
-3.008257293999999860e+01 4.991240499999999858e-01 4.519743729000000343e+01 0.000000000000000000e+00 0.000000000000000000e+00 0.000000000000000000e+00
-3.080058097999999944e+01 7.274644399999999900e-01 4.616646193999999781e+01 0.000000000000000000e+00 0.000000000000000000e+00 0.000000000000000000e+00
-2.834271621999999979e+01 1.272033499999999928e-01 4.292573546999999934e+01 0.000000000000000000e+00 0.000000000000000000e+00 0.000000000000000000e+00
-3.194060516000000050e+01 8.005520699999999490e-01 4.758310318000000194e+01 0.000000000000000000e+00 0.000000000000000000e+00 0.000000000000000000e+00
-3.178187943000000004e+01 8.085277100000000106e-01 4.739350891000000132e+01 0.000000000000000000e+00 0.000000000000000000e+00 0.000000000000000000e+00
-3.259701919999999831e+01 6.422138200000000463e-01 4.831436157000000264e+01 0.000000000000000000e+00 0.000000000000000000e+00 0.000000000000000000e+00
-2.789753913999999924e+01 1.996645900000000029e-01 4.241508865000000128e+01 0.000000000000000000e+00 0.000000000000000000e+00 0.000000000000000000e+00
-2.892068291000000002e+01 2.320774800000000027e-01 4.367251205000000169e+01 0.000000000000000000e+00 0.000000000000000000e+00 0.000000000000000000e+00
-3.083551406999999855e+01 3.073279300000000269e-01 4.603194046000000128e+01 0.000000000000000000e+00 0.000000000000000000e+00 0.000000000000000000e+00
-2.852700806000000000e+01 5.594505100000000120e-01 4.333185576999999711e+01 0.000000000000000000e+00 0.000000000000000000e+00 0.000000000000000000e+00
-3.092736053000000140e+01 5.429730400000000179e-01 4.624285889000000083e+01 0.000000000000000000e+00 0.000000000000000000e+00 0.000000000000000000e+00
-3.039543151999999893e+01 8.136420199999999658e-01 4.571025085000000132e+01 0.000000000000000000e+00 0.000000000000000000e+00 0.000000000000000000e+00
-2.929810714999999988e+01 4.071535499999999752e-01 4.420507431000000054e+01 0.000000000000000000e+00 0.000000000000000000e+00 0.000000000000000000e+00
-2.776584244000000012e+01 1.597512250000000078e+00 4.284384917999999942e+01 0.000000000000000000e+00 0.000000000000000000e+00 0.000000000000000000e+00
-2.879732131999999822e+01 9.536322400000000199e-01 4.382651137999999946e+01 0.000000000000000000e+00 0.000000000000000000e+00 0.000000000000000000e+00
-3.133226776000000058e+01 4.244322200000000267e-01 4.668514251999999942e+01 0.000000000000000000e+00 0.000000000000000000e+00 0.000000000000000000e+00
-2.963375664000000143e+01 9.203926300000000449e-01 4.482930374000000029e+01 0.000000000000000000e+00 0.000000000000000000e+00 0.000000000000000000e+00
-2.876053428999999895e+01 3.352216499999999821e-01 4.352128220000000169e+01 0.000000000000000000e+00 0.000000000000000000e+00 0.000000000000000000e+00
-2.841208649000000008e+01 6.673377799999999915e-01 4.323760223000000025e+01 0.000000000000000000e+00 0.000000000000000000e+00 0.000000000000000000e+00
-2.840959930000000000e+01 7.947304800000000169e-01 4.328824233999999649e+01 0.000000000000000000e+00 0.000000000000000000e+00 0.000000000000000000e+00
-3.265018082000000277e+01 6.595571000000000073e-01 4.838628769000000318e+01 0.000000000000000000e+00 0.000000000000000000e+00 0.000000000000000000e+00
-2.892774581999999839e+01 6.490623399999999599e-01 4.385675429999999864e+01 0.000000000000000000e+00 0.000000000000000000e+00 0.000000000000000000e+00
-2.891749572999999884e+01 1.351940039999999899e+00 4.414038848999999942e+01 0.000000000000000000e+00 0.000000000000000000e+00 0.000000000000000000e+00
-2.877959633000000039e+01 6.117610300000000390e-01 4.366094589000000070e+01 0.000000000000000000e+00 0.000000000000000000e+00 0.000000000000000000e+00
-3.000489044000000050e+01 5.192306599999999550e-01 4.511147689999999955e+01 0.000000000000000000e+00 0.000000000000000000e+00 0.000000000000000000e+00
-3.021598625000000027e+01 1.902505499999999905e-01 4.522938918999999913e+01 0.000000000000000000e+00 0.000000000000000000e+00 0.000000000000000000e+00
-3.333617401000000058e+01 3.737692799999999815e-01 4.909931945999999670e+01 0.000000000000000000e+00 0.000000000000000000e+00 0.000000000000000000e+00
-3.761676024999999868e+01 6.491609799999999986e-01 3.845530319000000219e+01 0.000000000000000000e+00 0.000000000000000000e+00 0.000000000000000000e+00
-3.745348357999999678e+01 5.379383599999999488e-01 3.840441895000000017e+01 0.000000000000000000e+00 0.000000000000000000e+00 0.000000000000000000e+00
-3.509719848999999670e+01 2.431225800000000048e-01 3.569771193999999781e+01 0.000000000000000000e+00 0.000000000000000000e+00 0.000000000000000000e+00
-3.643699646000000314e+01 5.722601400000000282e-01 3.699364853000000153e+01 0.000000000000000000e+00 0.000000000000000000e+00 0.000000000000000000e+00
-4.007687759000000227e+01 8.167903399999999481e-01 4.149229430999999835e+01 0.000000000000000000e+00 0.000000000000000000e+00 0.000000000000000000e+00
-3.580992126000000297e+01 1.686545000000000127e-01 3.676276398000000256e+01 0.000000000000000000e+00 0.000000000000000000e+00 0.000000000000000000e+00
-3.521109771999999793e+01 3.702151200000000086e-01 3.565868758999999955e+01 0.000000000000000000e+00 0.000000000000000000e+00 0.000000000000000000e+00
-3.573662948999999855e+01 7.778705399999999992e-01 3.574770737000000054e+01 0.000000000000000000e+00 0.000000000000000000e+00 0.000000000000000000e+00
-3.549691010000000091e+01 1.598543500000000062e-01 3.635749816999999950e+01 0.000000000000000000e+00 0.000000000000000000e+00 0.000000000000000000e+00
-3.577200699000000128e+01 4.044831999999999872e-01 3.635707854999999711e+01 0.000000000000000000e+00 0.000000000000000000e+00 0.000000000000000000e+00
-3.972889328000000120e+01 8.822761199999999970e-01 4.092844009000000227e+01 0.000000000000000000e+00 0.000000000000000000e+00 0.000000000000000000e+00
-3.556777190999999760e+01 6.237235700000000049e-01 3.575397490999999661e+01 0.000000000000000000e+00 0.000000000000000000e+00 0.000000000000000000e+00
-3.520370482999999950e+01 3.445905400000000007e-01 3.568737411000000037e+01 0.000000000000000000e+00 0.000000000000000000e+00 0.000000000000000000e+00
-3.974665833000000248e+01 7.330247199999999630e-01 4.117686081000000087e+01 0.000000000000000000e+00 0.000000000000000000e+00 0.000000000000000000e+00
-3.773224640000000107e+01 5.845773199999999559e-01 3.870692824999999715e+01 0.000000000000000000e+00 0.000000000000000000e+00 0.000000000000000000e+00
-3.754665374999999727e+01 8.975770499999999874e-01 3.798762511999999703e+01 0.000000000000000000e+00 0.000000000000000000e+00 0.000000000000000000e+00
-3.762728881999999686e+01 4.568387899999999946e-01 3.875888823999999744e+01 0.000000000000000000e+00 0.000000000000000000e+00 0.000000000000000000e+00
-3.628092575000000153e+01 6.368862400000000479e-01 3.668769072999999992e+01 0.000000000000000000e+00 0.000000000000000000e+00 0.000000000000000000e+00
-3.752901839999999822e+01 3.800828500000000276e-01 3.874303436000000289e+01 0.000000000000000000e+00 0.000000000000000000e+00 0.000000000000000000e+00
-3.737974930000000029e+01 9.049336300000000444e-01 3.775338744999999818e+01 0.000000000000000000e+00 0.000000000000000000e+00 0.000000000000000000e+00
-3.753698348999999723e+01 5.707227000000000272e-01 3.846671295000000157e+01 0.000000000000000000e+00 0.000000000000000000e+00 0.000000000000000000e+00
-3.526451492000000343e+01 3.212789300000000181e-01 3.580377196999999967e+01 0.000000000000000000e+00 0.000000000000000000e+00 0.000000000000000000e+00
-3.595597838999999851e+01 2.732617900000000044e-01 3.680058669999999665e+01 0.000000000000000000e+00 0.000000000000000000e+00 0.000000000000000000e+00
-4.028146361999999669e+01 6.766688800000000281e-01 4.197665786999999682e+01 0.000000000000000000e+00 0.000000000000000000e+00 0.000000000000000000e+00
-4.086237334999999860e+01 7.548224900000000126e-01 4.263574599999999748e+01 0.000000000000000000e+00 0.000000000000000000e+00 0.000000000000000000e+00
-3.814579391000000186e+01 3.429174999999999862e-01 3.962326431000000326e+01 0.000000000000000000e+00 0.000000000000000000e+00 0.000000000000000000e+00
-4.115203094000000306e+01 6.846712200000000248e-01 4.312817763999999698e+01 0.000000000000000000e+00 0.000000000000000000e+00 0.000000000000000000e+00
-3.943290328999999872e+01 4.726330599999999937e-01 4.114879990000000021e+01 0.000000000000000000e+00 0.000000000000000000e+00 0.000000000000000000e+00
-3.963189315999999707e+01 5.803555799999999820e-01 4.125306319999999971e+01 0.000000000000000000e+00 0.000000000000000000e+00 0.000000000000000000e+00
-3.393820190000000281e+01 5.062189700000000459e-01 4.940258407999999690e+01 0.000000000000000000e+00 0.000000000000000000e+00 0.000000000000000000e+00
-3.028943252999999913e+01 1.189079049999999915e+00 4.573946380999999661e+01 0.000000000000000000e+00 0.000000000000000000e+00 0.000000000000000000e+00
-2.827404403999999971e+01 1.593863959999999969e+00 4.345996857000000091e+01 0.000000000000000000e+00 0.000000000000000000e+00 0.000000000000000000e+00
-3.204526137999999946e+01 1.317264079999999948e+00 4.792699051000000310e+01 0.000000000000000000e+00 0.000000000000000000e+00 0.000000000000000000e+00
-2.960602570000000000e+01 1.499318120000000087e+00 4.503902434999999826e+01 0.000000000000000000e+00 0.000000000000000000e+00 0.000000000000000000e+00
-3.140214157000000128e+01 1.781624199999999991e+00 4.734012984999999674e+01 0.000000000000000000e+00 0.000000000000000000e+00 0.000000000000000000e+00
-3.235691451999999657e+01 1.330662849999999953e+00 4.831134414999999649e+01 0.000000000000000000e+00 0.000000000000000000e+00 0.000000000000000000e+00
-3.358235931000000107e+01 8.344497699999999796e-01 4.959252930000000248e+01 0.000000000000000000e+00 0.000000000000000000e+00 0.000000000000000000e+00
-3.207295227000000182e+01 1.171892640000000041e+00 4.789968872000000033e+01 0.000000000000000000e+00 0.000000000000000000e+00 0.000000000000000000e+00
-3.273934174000000041e+01 1.290291070000000095e+00 4.875916672000000318e+01 0.000000000000000000e+00 0.000000000000000000e+00 0.000000000000000000e+00
-3.287994384999999653e+01 1.457228779999999890e+00 4.900002669999999938e+01 0.000000000000000000e+00 0.000000000000000000e+00 0.000000000000000000e+00
-2.966410254999999907e+01 1.584108000000000072e+00 4.514515304999999756e+01 0.000000000000000000e+00 0.000000000000000000e+00 0.000000000000000000e+00
-2.898986053000000140e+01 1.794630530000000057e+00 4.441403961000000322e+01 0.000000000000000000e+00 0.000000000000000000e+00 0.000000000000000000e+00
-3.177343177999999924e+01 1.233727690000000043e+00 4.756162262000000140e+01 0.000000000000000000e+00 0.000000000000000000e+00 0.000000000000000000e+00
-2.959400940000000091e+01 1.535122279999999950e+00 4.503943252999999913e+01 0.000000000000000000e+00 0.000000000000000000e+00 0.000000000000000000e+00
-2.972725104999999957e+01 1.435808299999999926e+00 4.515971375000000165e+01 0.000000000000000000e+00 0.000000000000000000e+00 0.000000000000000000e+00
-2.952122115999999963e+01 1.434354780000000051e+00 4.490872574000000128e+01 0.000000000000000000e+00 0.000000000000000000e+00 0.000000000000000000e+00
-3.169734383000000122e+01 1.200910930000000043e+00 4.745539855999999901e+01 0.000000000000000000e+00 0.000000000000000000e+00 0.000000000000000000e+00
-2.761271667000000107e+01 1.654142379999999912e+00 4.268155670000000157e+01 0.000000000000000000e+00 0.000000000000000000e+00 0.000000000000000000e+00
-2.988809204000000008e+01 1.797763589999999967e+00 4.550693512000000140e+01 0.000000000000000000e+00 0.000000000000000000e+00 0.000000000000000000e+00
-3.224134444999999971e+01 1.477552289999999990e+00 4.823248291000000165e+01 0.000000000000000000e+00 0.000000000000000000e+00 0.000000000000000000e+00
-3.204639816000000252e+01 1.409943699999999911e+00 4.796722794000000079e+01 0.000000000000000000e+00 0.000000000000000000e+00 0.000000000000000000e+00
-3.037154578999999899e+01 1.731184599999999962e+00 4.606654358000000116e+01 0.000000000000000000e+00 0.000000000000000000e+00 0.000000000000000000e+00
-3.041544341999999901e+01 1.820840240000000110e+00 4.615748214999999988e+01 0.000000000000000000e+00 0.000000000000000000e+00 0.000000000000000000e+00
-3.292746352999999715e+01 1.780458209999999930e+00 4.919329453000000285e+01 0.000000000000000000e+00 0.000000000000000000e+00 0.000000000000000000e+00
-3.247341156000000240e+01 9.068285200000000268e-01 4.827521895999999657e+01 0.000000000000000000e+00 0.000000000000000000e+00 0.000000000000000000e+00
-3.341271972999999917e+01 1.899869320000000084e+00 4.973385619999999818e+01 0.000000000000000000e+00 0.000000000000000000e+00 0.000000000000000000e+00
-3.355098723999999777e+01 1.568675279999999894e+00 4.965340805000000302e+01 0.000000000000000000e+00 0.000000000000000000e+00 0.000000000000000000e+00
-3.385597609999999946e+01 1.037966490000000075e+00 4.944261168999999967e+01 0.000000000000000000e+00 0.000000000000000000e+00 0.000000000000000000e+00
-3.388052749999999946e+01 5.863771399999999634e-01 4.944448853000000099e+01 0.000000000000000000e+00 0.000000000000000000e+00 0.000000000000000000e+00
-4.103327560000000318e+01 1.077505949999999935e+00 4.365995026000000223e+01 0.000000000000000000e+00 0.000000000000000000e+00 0.000000000000000000e+00
-4.105460739000000103e+01 1.295579789999999898e+00 4.362104796999999934e+01 0.000000000000000000e+00 0.000000000000000000e+00 0.000000000000000000e+00
-4.029716873000000277e+01 1.855891699999999922e+00 4.423567200000000099e+01 0.000000000000000000e+00 0.000000000000000000e+00 0.000000000000000000e+00
-3.929972075999999959e+01 1.184967880000000084e+00 4.510721587999999826e+01 0.000000000000000000e+00 0.000000000000000000e+00 0.000000000000000000e+00
-3.948368453999999872e+01 1.551558259999999967e+00 4.493301392000000050e+01 0.000000000000000000e+00 0.000000000000000000e+00 0.000000000000000000e+00
-3.893171691999999950e+01 1.426432729999999927e+00 4.540165710000000132e+01 0.000000000000000000e+00 0.000000000000000000e+00 0.000000000000000000e+00
-3.906432343000000174e+01 1.719043490000000007e+00 4.527451706000000087e+01 0.000000000000000000e+00 0.000000000000000000e+00 0.000000000000000000e+00
-4.048646927000000062e+01 1.087512849999999975e+00 4.411991882000000231e+01 0.000000000000000000e+00 0.000000000000000000e+00 0.000000000000000000e+00
-3.934489441000000198e+01 1.258870960000000094e+00 4.506533051000000256e+01 0.000000000000000000e+00 0.000000000000000000e+00 0.000000000000000000e+00
-3.990707779000000244e+01 2.476349350000000005e+00 4.452758407999999690e+01 0.000000000000000000e+00 0.000000000000000000e+00 0.000000000000000000e+00
-4.048888778999999971e+01 1.624899740000000037e+00 4.408810806000000326e+01 0.000000000000000000e+00 0.000000000000000000e+00 0.000000000000000000e+00
-3.976517487000000273e+01 1.111112590000000067e+00 4.472196198000000322e+01 0.000000000000000000e+00 0.000000000000000000e+00 0.000000000000000000e+00
-3.902407073999999909e+01 1.660659789999999969e+00 4.531142043999999913e+01 0.000000000000000000e+00 0.000000000000000000e+00 0.000000000000000000e+00
-3.959543610000000058e+01 1.668779369999999984e+00 4.483303451999999822e+01 0.000000000000000000e+00 0.000000000000000000e+00 0.000000000000000000e+00
-3.360000228999999905e+01 1.873269800000000096e+00 4.960157012999999893e+01 0.000000000000000000e+00 0.000000000000000000e+00 0.000000000000000000e+00
-3.509089661000000149e+01 1.687695860000000048e+00 4.846261977999999715e+01 0.000000000000000000e+00 0.000000000000000000e+00 0.000000000000000000e+00
-3.411043930000000302e+01 1.267939570000000016e+00 4.923585128999999938e+01 0.000000000000000000e+00 0.000000000000000000e+00 0.000000000000000000e+00
-3.496303177000000062e+01 1.623772259999999967e+00 4.856386948000000103e+01 0.000000000000000000e+00 0.000000000000000000e+00 0.000000000000000000e+00
-3.494056319999999971e+01 1.614321949999999894e+00 4.858158112000000273e+01 0.000000000000000000e+00 0.000000000000000000e+00 0.000000000000000000e+00
-3.482812881000000260e+01 1.946352599999999988e+00 4.865325545999999690e+01 0.000000000000000000e+00 0.000000000000000000e+00 0.000000000000000000e+00
-3.491133880999999661e+01 1.315876720000000111e+00 4.861741256999999905e+01 0.000000000000000000e+00 0.000000000000000000e+00 0.000000000000000000e+00
-3.708413314999999955e+01 9.578570100000000087e-01 3.727849960000000351e+01 0.000000000000000000e+00 0.000000000000000000e+00 0.000000000000000000e+00
-4.112404251000000244e+01 1.147978780000000087e+00 4.239498520000000070e+01 0.000000000000000000e+00 0.000000000000000000e+00 0.000000000000000000e+00
-3.751715468999999814e+01 9.697651900000000547e-01 3.783963013000000331e+01 0.000000000000000000e+00 0.000000000000000000e+00 0.000000000000000000e+00
-4.028523254000000264e+01 1.042836190000000052e+00 4.143124771000000095e+01 0.000000000000000000e+00 0.000000000000000000e+00 0.000000000000000000e+00
-3.932466124999999835e+01 1.177340870000000095e+00 3.994486237000000273e+01 0.000000000000000000e+00 0.000000000000000000e+00 0.000000000000000000e+00
-3.817816544000000079e+01 1.085753559999999895e+00 3.854934691999999785e+01 0.000000000000000000e+00 0.000000000000000000e+00 0.000000000000000000e+00
-3.881941986000000355e+01 9.377406799999999931e-01 3.962903975999999773e+01 0.000000000000000000e+00 0.000000000000000000e+00 0.000000000000000000e+00
-4.142658997000000198e+01 1.005701299999999909e+00 4.301316451999999657e+01 0.000000000000000000e+00 0.000000000000000000e+00 0.000000000000000000e+00
-4.008199692000000169e+01 9.204330400000000356e-01 4.134327697999999884e+01 0.000000000000000000e+00 0.000000000000000000e+00 0.000000000000000000e+00
-4.081436920000000157e+01 1.277391429999999994e+00 4.178659821000000107e+01 0.000000000000000000e+00 0.000000000000000000e+00 0.000000000000000000e+00
-4.029805374000000029e+01 1.238906379999999974e+00 4.115399551000000145e+01 0.000000000000000000e+00 0.000000000000000000e+00 0.000000000000000000e+00
-4.147776412999999707e+01 1.326157210000000086e+00 4.260043715999999847e+01 0.000000000000000000e+00 0.000000000000000000e+00 0.000000000000000000e+00
-3.850578308000000050e+01 1.166943070000000082e+00 3.886551285000000178e+01 0.000000000000000000e+00 0.000000000000000000e+00 0.000000000000000000e+00
-4.156507873999999703e+01 1.315392019999999995e+00 4.316510773000000256e+01 0.000000000000000000e+00 0.000000000000000000e+00 0.000000000000000000e+00
-4.108778380999999769e+01 1.798421620000000054e+00 4.354558182000000244e+01 0.000000000000000000e+00 0.000000000000000000e+00 0.000000000000000000e+00
-4.056393050999999872e+01 2.061261179999999804e+00 4.398759078999999872e+01 0.000000000000000000e+00 0.000000000000000000e+00 0.000000000000000000e+00
-3.663107681000000326e+01 1.181205870000000102e+00 3.633682632000000012e+01 0.000000000000000000e+00 0.000000000000000000e+00 0.000000000000000000e+00
-3.721799850000000021e+01 1.161340950000000039e+00 3.715168761999999703e+01 0.000000000000000000e+00 0.000000000000000000e+00 0.000000000000000000e+00
-3.642914581000000140e+01 1.175158499999999995e+00 3.607586669999999884e+01 0.000000000000000000e+00 0.000000000000000000e+00 0.000000000000000000e+00
-3.831344985999999864e+01 1.305447339999999956e+00 3.839979172000000318e+01 0.000000000000000000e+00 0.000000000000000000e+00 0.000000000000000000e+00
-3.624849701000000124e+01 1.237324239999999964e+00 3.574067306999999971e+01 0.000000000000000000e+00 0.000000000000000000e+00 0.000000000000000000e+00
-4.038297653000000054e+01 1.326808449999999917e+00 4.113541794000000351e+01 0.000000000000000000e+00 0.000000000000000000e+00 0.000000000000000000e+00
-3.635919188999999818e+01 1.196919199999999961e+00 3.594955444000000000e+01 0.000000000000000000e+00 0.000000000000000000e+00 0.000000000000000000e+00
-3.660285950000000099e+01 1.351397989999999938e+00 3.604286194000000165e+01 0.000000000000000000e+00 0.000000000000000000e+00 0.000000000000000000e+00
-3.947861481000000339e+01 1.385049460000000066e+00 3.983824538999999731e+01 0.000000000000000000e+00 0.000000000000000000e+00 0.000000000000000000e+00
-3.597275925000000285e+01 1.333979369999999998e+00 3.522638701999999711e+01 0.000000000000000000e+00 0.000000000000000000e+00 0.000000000000000000e+00
-3.608139801000000091e+01 1.309748050000000053e+00 3.540816115999999880e+01 0.000000000000000000e+00 0.000000000000000000e+00 0.000000000000000000e+00
-3.858779526000000004e+01 1.439228060000000031e+00 4.568647384999999872e+01 0.000000000000000000e+00 0.000000000000000000e+00 0.000000000000000000e+00
-3.718865585000000351e+01 3.308742280000000147e+00 4.672103118999999793e+01 0.000000000000000000e+00 0.000000000000000000e+00 0.000000000000000000e+00
-3.809601593000000008e+01 2.638018849999999915e+00 4.601536560000000264e+01 0.000000000000000000e+00 0.000000000000000000e+00 0.000000000000000000e+00
-3.923814391999999884e+01 2.892809390000000036e+00 4.505663681000000054e+01 0.000000000000000000e+00 0.000000000000000000e+00 0.000000000000000000e+00
-3.795980452999999954e+01 2.426660780000000184e+00 4.614131164999999868e+01 0.000000000000000000e+00 0.000000000000000000e+00 0.000000000000000000e+00
-3.731692122999999839e+01 3.213939429999999930e+00 4.662128066999999731e+01 0.000000000000000000e+00 0.000000000000000000e+00 0.000000000000000000e+00
-3.755661774000000008e+01 3.302712200000000209e+00 4.641780853000000207e+01 0.000000000000000000e+00 0.000000000000000000e+00 0.000000000000000000e+00
-3.862322617000000236e+01 2.550149199999999894e+00 4.558599472000000219e+01 0.000000000000000000e+00 0.000000000000000000e+00 0.000000000000000000e+00
-3.844951629999999909e+01 3.044214730000000202e+00 4.569763565000000227e+01 0.000000000000000000e+00 0.000000000000000000e+00 0.000000000000000000e+00
-3.824896240000000347e+01 1.903504249999999898e+00 4.593627547999999905e+01 0.000000000000000000e+00 0.000000000000000000e+00 0.000000000000000000e+00
-3.765940856999999653e+01 2.780098440000000171e+00 4.636650848000000025e+01 0.000000000000000000e+00 0.000000000000000000e+00 0.000000000000000000e+00
-3.796281814999999682e+01 2.447209360000000000e+00 4.613750839000000070e+01 0.000000000000000000e+00 0.000000000000000000e+00 0.000000000000000000e+00
-3.723843383999999901e+01 3.369157079999999915e+00 4.667608261000000169e+01 0.000000000000000000e+00 0.000000000000000000e+00 0.000000000000000000e+00
-3.669760512999999946e+01 1.904448750000000024e+00 4.718169022000000012e+01 0.000000000000000000e+00 0.000000000000000000e+00 0.000000000000000000e+00
-3.715793991000000318e+01 1.899080040000000080e+00 4.681339263999999645e+01 0.000000000000000000e+00 0.000000000000000000e+00 0.000000000000000000e+00
-3.649343872000000033e+01 2.938798670000000168e+00 4.729936981000000173e+01 0.000000000000000000e+00 0.000000000000000000e+00 0.000000000000000000e+00
-3.657560348999999889e+01 2.598544359999999998e+00 4.724864960000000025e+01 0.000000000000000000e+00 0.000000000000000000e+00 0.000000000000000000e+00
-3.600655365000000074e+01 2.688644889999999954e+00 4.770022964000000343e+01 0.000000000000000000e+00 0.000000000000000000e+00 0.000000000000000000e+00
-3.633808899000000281e+01 2.311281199999999814e+00 4.745150756999999686e+01 0.000000000000000000e+00 0.000000000000000000e+00 0.000000000000000000e+00
-3.714746474999999748e+01 2.547047379999999972e+00 4.679310225999999773e+01 0.000000000000000000e+00 0.000000000000000000e+00 0.000000000000000000e+00
-3.675365066999999897e+01 2.624241829999999887e+00 4.710496901999999864e+01 0.000000000000000000e+00 0.000000000000000000e+00 0.000000000000000000e+00
-3.825838088999999798e+01 1.527870059999999919e+00 4.594882965000000041e+01 0.000000000000000000e+00 0.000000000000000000e+00 0.000000000000000000e+00
-3.685424805000000248e+01 2.099794859999999819e+00 4.704764174999999682e+01 0.000000000000000000e+00 0.000000000000000000e+00 0.000000000000000000e+00
-3.779572678000000252e+01 2.221882579999999940e+00 4.628851318000000248e+01 0.000000000000000000e+00 0.000000000000000000e+00 0.000000000000000000e+00
-3.602774047999999851e+01 2.127612109999999834e+00 4.770809555000000302e+01 0.000000000000000000e+00 0.000000000000000000e+00 0.000000000000000000e+00
-4.048939513999999917e+01 1.860189199999999987e+00 4.047654724000000215e+01 0.000000000000000000e+00 0.000000000000000000e+00 0.000000000000000000e+00
-4.136744689999999736e+01 2.257045750000000073e+00 4.105495070999999996e+01 0.000000000000000000e+00 0.000000000000000000e+00 0.000000000000000000e+00
-4.119671630999999934e+01 1.580056190000000083e+00 4.184320449999999880e+01 0.000000000000000000e+00 0.000000000000000000e+00 0.000000000000000000e+00
-4.073998259999999760e+01 1.908967730000000085e+00 4.073844909999999686e+01 0.000000000000000000e+00 0.000000000000000000e+00 0.000000000000000000e+00
-4.190729903999999806e+01 2.423278569999999910e+00 4.152735137999999893e+01 0.000000000000000000e+00 0.000000000000000000e+00 0.000000000000000000e+00
-3.887021254999999798e+01 1.502411369999999913e+00 3.884824370999999843e+01 0.000000000000000000e+00 0.000000000000000000e+00 0.000000000000000000e+00
-3.921897125000000273e+01 1.564743400000000007e+00 3.922109222000000273e+01 0.000000000000000000e+00 0.000000000000000000e+00 0.000000000000000000e+00
-4.147825622999999950e+01 1.590609429999999991e+00 4.220389938000000285e+01 0.000000000000000000e+00 0.000000000000000000e+00 0.000000000000000000e+00
-4.110882186999999988e+01 1.864947679999999997e+00 4.129784775000000252e+01 0.000000000000000000e+00 0.000000000000000000e+00 0.000000000000000000e+00
-4.176153563999999818e+01 2.327938319999999894e+00 4.147556686000000070e+01 0.000000000000000000e+00 0.000000000000000000e+00 0.000000000000000000e+00
-4.202486037999999979e+01 2.138362879999999855e+00 4.211242294000000186e+01 0.000000000000000000e+00 0.000000000000000000e+00 0.000000000000000000e+00
-3.818715668000000107e+01 1.541073680000000001e+00 3.787664413000000252e+01 0.000000000000000000e+00 0.000000000000000000e+00 0.000000000000000000e+00
-4.124896240000000347e+01 2.060752869999999959e+00 4.119124603000000207e+01 0.000000000000000000e+00 0.000000000000000000e+00 0.000000000000000000e+00
-4.036169433999999967e+01 1.731154800000000105e+00 4.049951934999999992e+01 0.000000000000000000e+00 0.000000000000000000e+00 0.000000000000000000e+00
-3.959524918000000326e+01 2.026803489999999819e+00 3.903049088000000211e+01 0.000000000000000000e+00 0.000000000000000000e+00 0.000000000000000000e+00
-4.114753342000000202e+01 2.189740179999999814e+00 4.086190032999999744e+01 0.000000000000000000e+00 0.000000000000000000e+00 0.000000000000000000e+00
-4.183928299000000095e+01 1.451182720000000037e+00 4.289611816000000033e+01 0.000000000000000000e+00 0.000000000000000000e+00 0.000000000000000000e+00
-3.769164657999999690e+01 1.687827589999999933e+00 3.699355315999999760e+01 0.000000000000000000e+00 0.000000000000000000e+00 0.000000000000000000e+00
-3.969937133999999901e+01 1.613399269999999941e+00 3.979052733999999703e+01 0.000000000000000000e+00 0.000000000000000000e+00 0.000000000000000000e+00
-3.788990021000000041e+01 1.662457470000000104e+00 3.729681014999999888e+01 0.000000000000000000e+00 0.000000000000000000e+00 0.000000000000000000e+00
-4.146516418000000215e+01 1.773436309999999905e+00 4.191185379000000211e+01 0.000000000000000000e+00 0.000000000000000000e+00 0.000000000000000000e+00
-3.876545715000000314e+01 1.533860210000000057e+00 3.866091536999999789e+01 0.000000000000000000e+00 0.000000000000000000e+00 0.000000000000000000e+00
-4.128709030000000269e+01 2.088000300000000031e+00 4.120132064999999955e+01 0.000000000000000000e+00 0.000000000000000000e+00 0.000000000000000000e+00
-3.985132598999999942e+01 1.442669629999999925e+00 4.025013350999999773e+01 0.000000000000000000e+00 0.000000000000000000e+00 0.000000000000000000e+00
-3.994015502999999967e+01 1.950912240000000075e+00 3.960573958999999888e+01 0.000000000000000000e+00 0.000000000000000000e+00 0.000000000000000000e+00
-3.963938140999999860e+01 2.044355390000000217e+00 3.906315613000000297e+01 0.000000000000000000e+00 0.000000000000000000e+00 0.000000000000000000e+00
-4.042115783999999934e+01 1.940450189999999964e+00 4.026475906000000293e+01 0.000000000000000000e+00 0.000000000000000000e+00 0.000000000000000000e+00
-3.749229813000000178e+01 1.522801400000000083e+00 3.697475052000000062e+01 0.000000000000000000e+00 0.000000000000000000e+00 0.000000000000000000e+00
-4.180701446999999860e+01 2.168625350000000118e+00 4.287190627999999748e+01 0.000000000000000000e+00 0.000000000000000000e+00 0.000000000000000000e+00
-4.228190993999999847e+01 2.369002580000000080e+00 4.243111800999999872e+01 0.000000000000000000e+00 0.000000000000000000e+00 0.000000000000000000e+00
-4.169504929000000004e+01 2.322466610000000209e+00 4.295745467999999789e+01 0.000000000000000000e+00 0.000000000000000000e+00 0.000000000000000000e+00
-4.156546402000000029e+01 1.630127309999999996e+00 4.313600540000000194e+01 0.000000000000000000e+00 0.000000000000000000e+00 0.000000000000000000e+00
-4.192171096999999946e+01 1.782235980000000053e+00 4.280517960000000244e+01 0.000000000000000000e+00 0.000000000000000000e+00 0.000000000000000000e+00
-4.169104767000000322e+01 2.140364410000000106e+00 4.297765350000000240e+01 0.000000000000000000e+00 0.000000000000000000e+00 0.000000000000000000e+00
-4.102573395000000289e+01 2.128672359999999930e+00 4.357060242000000017e+01 0.000000000000000000e+00 0.000000000000000000e+00 0.000000000000000000e+00
-4.212799834999999860e+01 2.513746980000000075e+00 4.255481338999999963e+01 0.000000000000000000e+00 0.000000000000000000e+00 0.000000000000000000e+00
-3.591289520000000124e+01 1.551104070000000057e+00 3.474519730000000095e+01 0.000000000000000000e+00 0.000000000000000000e+00 0.000000000000000000e+00
-4.160238266000000351e+01 2.441665650000000021e+00 4.109286117999999988e+01 0.000000000000000000e+00 0.000000000000000000e+00 0.000000000000000000e+00
-3.928567885999999731e+01 2.123454569999999819e+00 3.847309494000000285e+01 0.000000000000000000e+00 0.000000000000000000e+00 0.000000000000000000e+00
-3.592184830000000062e+01 1.613706829999999925e+00 3.474018096999999727e+01 0.000000000000000000e+00 0.000000000000000000e+00 0.000000000000000000e+00
-3.952299117999999822e+01 2.106405500000000153e+00 3.881529617000000343e+01 0.000000000000000000e+00 0.000000000000000000e+00 0.000000000000000000e+00
-3.812422942999999975e+01 1.916590089999999913e+00 3.723011397999999872e+01 0.000000000000000000e+00 0.000000000000000000e+00 0.000000000000000000e+00
-4.145820236000000136e+01 2.423575880000000016e+00 4.092728043000000326e+01 0.000000000000000000e+00 0.000000000000000000e+00 0.000000000000000000e+00
-3.960369492000000236e+01 2.177091120000000046e+00 3.881790923999999876e+01 0.000000000000000000e+00 0.000000000000000000e+00 0.000000000000000000e+00
-3.777806853999999959e+01 1.961587790000000053e+00 3.670101547000000153e+01 0.000000000000000000e+00 0.000000000000000000e+00 0.000000000000000000e+00
-3.889690018000000293e+01 2.058266880000000132e+00 3.805099486999999669e+01 0.000000000000000000e+00 0.000000000000000000e+00 0.000000000000000000e+00
-3.603305053999999785e+01 1.785587070000000054e+00 3.463299561000000182e+01 0.000000000000000000e+00 0.000000000000000000e+00 0.000000000000000000e+00
-4.211853789999999975e+01 2.465966700000000067e+00 4.174583435000000264e+01 0.000000000000000000e+00 0.000000000000000000e+00 0.000000000000000000e+00
-3.005623244999999955e+01 2.041642190000000134e+00 4.581341934000000293e+01 0.000000000000000000e+00 0.000000000000000000e+00 0.000000000000000000e+00
-3.249405670000000157e+01 1.945713999999999944e+00 4.873587798999999876e+01 0.000000000000000000e+00 0.000000000000000000e+00 0.000000000000000000e+00
-3.271146774000000335e+01 2.196893220000000202e+00 4.910540771000000149e+01 0.000000000000000000e+00 0.000000000000000000e+00 0.000000000000000000e+00
-3.067787742999999878e+01 1.964395759999999935e+00 4.653659438999999765e+01 0.000000000000000000e+00 0.000000000000000000e+00 0.000000000000000000e+00
-3.173128890999999996e+01 2.137979270000000209e+00 4.788953781000000021e+01 0.000000000000000000e+00 0.000000000000000000e+00 0.000000000000000000e+00
-3.302984237999999806e+01 2.199233770000000199e+00 4.949329376000000025e+01 0.000000000000000000e+00 0.000000000000000000e+00 0.000000000000000000e+00
-2.957156372000000033e+01 1.950641990000000048e+00 4.518637465999999847e+01 0.000000000000000000e+00 0.000000000000000000e+00 0.000000000000000000e+00
-3.242995070999999996e+01 2.208113430000000044e+00 4.876799773999999843e+01 0.000000000000000000e+00 0.000000000000000000e+00 0.000000000000000000e+00
-3.256538009999999872e+01 2.107702730000000191e+00 4.889047622999999732e+01 0.000000000000000000e+00 0.000000000000000000e+00 0.000000000000000000e+00
-3.680447388000000331e+01 1.906020519999999996e+00 3.376291656000000074e+01 0.000000000000000000e+00 0.000000000000000000e+00 0.000000000000000000e+00
-3.676814651000000111e+01 1.954886200000000018e+00 3.379727935999999744e+01 0.000000000000000000e+00 0.000000000000000000e+00 0.000000000000000000e+00
-3.707134246999999760e+01 2.223628999999999856e+00 3.345000457999999810e+01 0.000000000000000000e+00 0.000000000000000000e+00 0.000000000000000000e+00
-3.676294708000000355e+01 2.878431799999999985e+00 3.372024918000000326e+01 0.000000000000000000e+00 0.000000000000000000e+00 0.000000000000000000e+00
-3.692811583999999669e+01 2.827230450000000062e+00 3.354873657000000264e+01 0.000000000000000000e+00 0.000000000000000000e+00 0.000000000000000000e+00
-3.624202346999999946e+01 1.940096739999999986e+00 3.435951613999999665e+01 0.000000000000000000e+00 0.000000000000000000e+00 0.000000000000000000e+00
-3.709447478999999959e+01 2.907910109999999992e+00 3.336416625999999752e+01 0.000000000000000000e+00 0.000000000000000000e+00 0.000000000000000000e+00
-3.913182831000000306e+01 3.110811469999999801e+00 3.679927826000000124e+01 0.000000000000000000e+00 0.000000000000000000e+00 0.000000000000000000e+00
-3.745822144000000264e+01 3.915903090000000031e+00 3.336715697999999719e+01 0.000000000000000000e+00 0.000000000000000000e+00 0.000000000000000000e+00
-3.815813064999999682e+01 3.183797119999999925e+00 3.539064025999999785e+01 0.000000000000000000e+00 0.000000000000000000e+00 0.000000000000000000e+00
-3.879281997999999732e+01 2.805813549999999879e+00 3.680030441000000252e+01 0.000000000000000000e+00 0.000000000000000000e+00 0.000000000000000000e+00
-3.743136597000000165e+01 3.963725569999999809e+00 3.326016998000000058e+01 0.000000000000000000e+00 0.000000000000000000e+00 0.000000000000000000e+00
-3.908525848000000025e+01 2.754106039999999922e+00 3.726768111999999888e+01 0.000000000000000000e+00 0.000000000000000000e+00 0.000000000000000000e+00
-3.848263167999999723e+01 3.933298349999999832e+00 3.470907211000000103e+01 0.000000000000000000e+00 0.000000000000000000e+00 0.000000000000000000e+00
-3.861913299999999793e+01 2.911043170000000124e+00 3.641186904999999996e+01 0.000000000000000000e+00 0.000000000000000000e+00 0.000000000000000000e+00
-3.950727844000000033e+01 3.446988820000000064e+00 3.680053711000000050e+01 0.000000000000000000e+00 0.000000000000000000e+00 0.000000000000000000e+00
-3.915222548999999930e+01 3.906163929999999951e+00 3.564347458000000302e+01 0.000000000000000000e+00 0.000000000000000000e+00 0.000000000000000000e+00
-3.898334884999999872e+01 2.776670460000000062e+00 3.709804153000000326e+01 0.000000000000000000e+00 0.000000000000000000e+00 0.000000000000000000e+00
-3.801282882999999657e+01 2.580065729999999835e+00 3.609465027000000248e+01 0.000000000000000000e+00 0.000000000000000000e+00 0.000000000000000000e+00
-3.690942383000000149e+01 2.548393729999999913e+00 3.466849899000000335e+01 0.000000000000000000e+00 0.000000000000000000e+00 0.000000000000000000e+00
-3.627681731999999926e+01 2.209910390000000113e+00 3.432731627999999802e+01 0.000000000000000000e+00 0.000000000000000000e+00 0.000000000000000000e+00
-3.705555343999999707e+01 3.323486570000000029e+00 3.371070098999999942e+01 0.000000000000000000e+00 0.000000000000000000e+00 0.000000000000000000e+00
-3.955992507999999930e+01 3.241388559999999863e+00 3.717664718999999707e+01 0.000000000000000000e+00 0.000000000000000000e+00 0.000000000000000000e+00
-3.990239715999999959e+01 3.882058380000000142e+00 3.668095397999999818e+01 0.000000000000000000e+00 0.000000000000000000e+00 0.000000000000000000e+00
-4.030798721000000029e+01 3.494743820000000056e+00 3.779860687000000041e+01 0.000000000000000000e+00 0.000000000000000000e+00 0.000000000000000000e+00
-3.681242751999999996e+01 2.276084899999999855e+00 3.494403458000000029e+01 0.000000000000000000e+00 0.000000000000000000e+00 0.000000000000000000e+00
-3.820636748999999810e+01 3.414311650000000142e+00 3.511216736000000083e+01 0.000000000000000000e+00 0.000000000000000000e+00 0.000000000000000000e+00
-3.842820739999999802e+01 3.625569819999999943e+00 3.509413147000000066e+01 0.000000000000000000e+00 0.000000000000000000e+00 0.000000000000000000e+00
-4.129207230000000095e+01 3.408474449999999933e+00 3.924087524000000116e+01 0.000000000000000000e+00 0.000000000000000000e+00 0.000000000000000000e+00
-4.014946365000000128e+01 3.839185239999999943e+00 3.707461166000000219e+01 0.000000000000000000e+00 0.000000000000000000e+00 0.000000000000000000e+00
-4.005208205999999649e+01 3.547014240000000207e+00 3.737916945999999996e+01 0.000000000000000000e+00 0.000000000000000000e+00 0.000000000000000000e+00
-4.064244460999999831e+01 3.494631290000000057e+00 3.824534225000000021e+01 0.000000000000000000e+00 0.000000000000000000e+00 0.000000000000000000e+00
-3.791406250000000000e+01 2.539262059999999988e+00 3.602347565000000174e+01 0.000000000000000000e+00 0.000000000000000000e+00 0.000000000000000000e+00
-3.786480713000000264e+01 3.599814649999999894e+00 3.438019179999999864e+01 0.000000000000000000e+00 0.000000000000000000e+00 0.000000000000000000e+00
-3.650831603999999686e+01 2.502751829999999789e+00 3.420083237000000054e+01 0.000000000000000000e+00 0.000000000000000000e+00 0.000000000000000000e+00
-4.029410933999999855e+01 3.841730829999999930e+00 3.726395035000000178e+01 0.000000000000000000e+00 0.000000000000000000e+00 0.000000000000000000e+00
-3.866538620000000037e+01 3.812461610000000167e+00 3.513282775999999785e+01 0.000000000000000000e+00 0.000000000000000000e+00 0.000000000000000000e+00
-3.797980498999999810e+01 2.810184239999999889e+00 3.570827102999999880e+01 0.000000000000000000e+00 0.000000000000000000e+00 0.000000000000000000e+00
-3.856464385999999678e+01 2.677075859999999974e+00 3.668712997000000087e+01 0.000000000000000000e+00 0.000000000000000000e+00 0.000000000000000000e+00
-4.006376266000000186e+01 3.206981180000000098e+00 3.790055084000000107e+01 0.000000000000000000e+00 0.000000000000000000e+00 0.000000000000000000e+00
-3.848243713000000099e+01 3.018516539999999804e+00 3.606949997000000252e+01 0.000000000000000000e+00 0.000000000000000000e+00 0.000000000000000000e+00
-3.842418671000000074e+01 3.086145399999999928e+00 3.589112853999999686e+01 0.000000000000000000e+00 0.000000000000000000e+00 0.000000000000000000e+00
-3.639972687000000207e+01 2.440395119999999807e+00 3.414859390000000161e+01 0.000000000000000000e+00 0.000000000000000000e+00 0.000000000000000000e+00
-3.956045913999999897e+01 3.305377009999999949e+00 3.708218383999999901e+01 0.000000000000000000e+00 0.000000000000000000e+00 0.000000000000000000e+00
-3.859354401000000223e+01 3.171903610000000207e+00 3.598969268999999827e+01 0.000000000000000000e+00 0.000000000000000000e+00 0.000000000000000000e+00
-3.741314315999999707e+01 3.148673300000000008e+00 3.444817734000000087e+01 0.000000000000000000e+00 0.000000000000000000e+00 0.000000000000000000e+00
-4.315950394000000045e+01 3.883840080000000139e+00 4.102718353000000207e+01 0.000000000000000000e+00 0.000000000000000000e+00 0.000000000000000000e+00
-3.881130980999999736e+01 2.846105580000000135e+00 3.676505279999999942e+01 0.000000000000000000e+00 0.000000000000000000e+00 0.000000000000000000e+00
-3.790370940999999760e+01 3.345492360000000165e+00 3.481043242999999876e+01 0.000000000000000000e+00 0.000000000000000000e+00 0.000000000000000000e+00
-3.960076140999999694e+01 3.034622189999999886e+00 3.753872298999999657e+01 0.000000000000000000e+00 0.000000000000000000e+00 0.000000000000000000e+00
-3.829059218999999814e+01 3.114985470000000145e+00 3.566985703000000285e+01 0.000000000000000000e+00 0.000000000000000000e+00 0.000000000000000000e+00
-3.828934859999999674e+01 3.749279979999999846e+00 3.472472382000000124e+01 0.000000000000000000e+00 0.000000000000000000e+00 0.000000000000000000e+00
-3.765965271000000314e+01 2.754065989999999964e+00 3.536427688999999930e+01 0.000000000000000000e+00 0.000000000000000000e+00 0.000000000000000000e+00
-4.087185286999999789e+01 3.828480480000000075e+00 3.805505752999999913e+01 0.000000000000000000e+00 0.000000000000000000e+00 0.000000000000000000e+00
-3.886013411999999789e+01 2.971087929999999933e+00 3.664434813999999818e+01 0.000000000000000000e+00 0.000000000000000000e+00 0.000000000000000000e+00
-3.667405319000000219e+01 2.663165569999999871e+00 3.418351745999999736e+01 0.000000000000000000e+00 0.000000000000000000e+00 0.000000000000000000e+00
-3.723157119999999765e+01 2.621943470000000165e+00 3.498922347999999971e+01 0.000000000000000000e+00 0.000000000000000000e+00 0.000000000000000000e+00
-3.834939574999999934e+01 2.856099130000000041e+00 3.613344573999999909e+01 0.000000000000000000e+00 0.000000000000000000e+00 0.000000000000000000e+00
-3.949717712000000347e+01 3.936783549999999909e+00 3.605850982999999843e+01 0.000000000000000000e+00 0.000000000000000000e+00 0.000000000000000000e+00
-4.280167007000000012e+01 3.521344420000000142e+00 4.108849335000000025e+01 0.000000000000000000e+00 0.000000000000000000e+00 0.000000000000000000e+00
-3.645207213999999851e+01 1.926783799999999935e+00 3.498244475999999992e+01 0.000000000000000000e+00 0.000000000000000000e+00 0.000000000000000000e+00
-4.038310242000000017e+01 2.827462670000000067e+00 3.889134216000000066e+01 0.000000000000000000e+00 0.000000000000000000e+00 0.000000000000000000e+00
-4.042560576999999711e+01 2.724144219999999894e+00 3.910172271999999793e+01 0.000000000000000000e+00 0.000000000000000000e+00 0.000000000000000000e+00
-3.926473999000000248e+01 2.311392070000000132e+00 3.816564559999999773e+01 0.000000000000000000e+00 0.000000000000000000e+00 0.000000000000000000e+00
-4.013431548999999876e+01 2.319898610000000083e+00 3.931394196000000107e+01 0.000000000000000000e+00 0.000000000000000000e+00 0.000000000000000000e+00
-3.973694229000000178e+01 2.547518970000000049e+00 3.844494628999999719e+01 0.000000000000000000e+00 0.000000000000000000e+00 0.000000000000000000e+00
-3.939054870999999736e+01 2.709671259999999915e+00 3.774136353000000099e+01 0.000000000000000000e+00 0.000000000000000000e+00 0.000000000000000000e+00
-4.108245087000000240e+01 3.228013990000000000e+00 3.922939301000000256e+01 0.000000000000000000e+00 0.000000000000000000e+00 0.000000000000000000e+00
-3.951839066000000145e+01 2.560722830000000005e+00 3.813353347999999698e+01 0.000000000000000000e+00 0.000000000000000000e+00 0.000000000000000000e+00
-4.316229630000000128e+01 3.823112249999999879e+00 4.112122725999999773e+01 0.000000000000000000e+00 0.000000000000000000e+00 0.000000000000000000e+00
-4.253397369000000339e+01 2.893072130000000186e+00 4.166535187000000207e+01 0.000000000000000000e+00 0.000000000000000000e+00 0.000000000000000000e+00
-4.260814666999999645e+01 3.607384199999999819e+00 4.070218277000000029e+01 0.000000000000000000e+00 0.000000000000000000e+00 0.000000000000000000e+00
