4.233082198999999690e+01 2.131471634000000037e+01 1.582579422000000058e+01 0.000000000000000000e+00 0.000000000000000000e+00 0.000000000000000000e+00
4.195831679999999864e+01 2.177707099999999940e+01 1.618822860999999946e+01 0.000000000000000000e+00 0.000000000000000000e+00 0.000000000000000000e+00
3.744426346000000194e+01 1.973644828999999845e+01 2.656409263999999837e+01 0.000000000000000000e+00 0.000000000000000000e+00 0.000000000000000000e+00
3.806773376000000297e+01 2.018281937000000070e+01 2.533944702000000149e+01 0.000000000000000000e+00 0.000000000000000000e+00 0.000000000000000000e+00
3.763978194999999971e+01 1.991759300000000010e+01 2.614789963000000128e+01 0.000000000000000000e+00 0.000000000000000000e+00 0.000000000000000000e+00
3.762765884000000227e+01 2.032834624999999917e+01 2.584416389000000081e+01 0.000000000000000000e+00 0.000000000000000000e+00 0.000000000000000000e+00
3.745388411999999789e+01 1.994885062999999903e+01 2.638470268000000019e+01 0.000000000000000000e+00 0.000000000000000000e+00 0.000000000000000000e+00
3.788026810000000211e+01 2.048542022999999901e+01 2.536655044999999831e+01 0.000000000000000000e+00 0.000000000000000000e+00 0.000000000000000000e+00
3.752016067999999649e+01 2.031649017000000157e+01 2.600447464000000153e+01 0.000000000000000000e+00 0.000000000000000000e+00 0.000000000000000000e+00
3.752780532999999963e+01 2.085591316000000006e+01 2.557248305999999971e+01 0.000000000000000000e+00 0.000000000000000000e+00 0.000000000000000000e+00
3.664653778000000273e+01 1.959774589999999961e+01 2.779332541999999862e+01 0.000000000000000000e+00 0.000000000000000000e+00 0.000000000000000000e+00
3.687104796999999934e+01 2.083733558999999858e+01 2.649504470999999839e+01 0.000000000000000000e+00 0.000000000000000000e+00 0.000000000000000000e+00
3.694342421999999715e+01 2.109061050000000037e+01 2.619305229000000068e+01 0.000000000000000000e+00 0.000000000000000000e+00 0.000000000000000000e+00
3.705494689999999736e+01 2.072940825999999959e+01 2.632760620000000173e+01 0.000000000000000000e+00 0.000000000000000000e+00 0.000000000000000000e+00
3.745015716999999711e+01 2.097855759000000120e+01 2.558374023000000008e+01 0.000000000000000000e+00 0.000000000000000000e+00 0.000000000000000000e+00
3.648431014999999888e+01 2.040501212999999936e+01 2.737345695000000134e+01 0.000000000000000000e+00 0.000000000000000000e+00 0.000000000000000000e+00
3.701413345000000277e+01 2.108167458000000138e+01 2.610268210999999994e+01 0.000000000000000000e+00 0.000000000000000000e+00 0.000000000000000000e+00
3.653459930000000355e+01 2.195716666999999944e+01 2.606505585000000025e+01 0.000000000000000000e+00 0.000000000000000000e+00 0.000000000000000000e+00
3.617137526999999864e+01 2.136034012000000004e+01 2.704236030999999940e+01 0.000000000000000000e+00 0.000000000000000000e+00 0.000000000000000000e+00
3.649131012000000140e+01 1.996781157999999934e+01 2.771281052000000145e+01 0.000000000000000000e+00 0.000000000000000000e+00 0.000000000000000000e+00
3.707582854999999711e+01 2.089689635999999950e+01 2.616511725999999882e+01 0.000000000000000000e+00 0.000000000000000000e+00 0.000000000000000000e+00
3.617934418000000107e+01 2.066735076999999876e+01 2.758457183999999884e+01 0.000000000000000000e+00 0.000000000000000000e+00 0.000000000000000000e+00
3.681856537000000174e+01 2.116889190999999926e+01 2.630273818999999946e+01 0.000000000000000000e+00 0.000000000000000000e+00 0.000000000000000000e+00
3.646350097999999917e+01 2.161464119000000039e+01 2.643652533999999932e+01 0.000000000000000000e+00 0.000000000000000000e+00 0.000000000000000000e+00
3.683409499999999781e+01 2.091715050000000176e+01 2.648228454999999926e+01 0.000000000000000000e+00 0.000000000000000000e+00 0.000000000000000000e+00
3.602871703999999653e+01 2.110494995000000173e+01 2.744295692000000031e+01 0.000000000000000000e+00 0.000000000000000000e+00 0.000000000000000000e+00
3.592574692000000169e+01 2.139222907999999990e+01 2.735562133999999901e+01 0.000000000000000000e+00 0.000000000000000000e+00 0.000000000000000000e+00
3.604394530999999802e+01 2.187017631999999878e+01 2.681108856000000173e+01 0.000000000000000000e+00 0.000000000000000000e+00 0.000000000000000000e+00
3.693215941999999785e+01 2.154156876000000054e+01 2.584859467000000066e+01 0.000000000000000000e+00 0.000000000000000000e+00 0.000000000000000000e+00
3.511489487000000054e+01 2.182076453999999899e+01 2.802917099000000078e+01 0.000000000000000000e+00 0.000000000000000000e+00 0.000000000000000000e+00
3.562317276000000277e+01 2.117201041999999944e+01 2.788974762000000140e+01 0.000000000000000000e+00 0.000000000000000000e+00 0.000000000000000000e+00
3.545444107000000145e+01 2.128831290999999837e+01 2.800907134999999926e+01 0.000000000000000000e+00 0.000000000000000000e+00 0.000000000000000000e+00
3.503372954999999678e+01 2.198010444999999891e+01 2.801033211000000023e+01 0.000000000000000000e+00 0.000000000000000000e+00 0.000000000000000000e+00
3.513972472999999752e+01 2.174127959999999860e+01 2.805759238999999994e+01 0.000000000000000000e+00 0.000000000000000000e+00 0.000000000000000000e+00
3.557572556000000219e+01 2.194975471000000056e+01 2.737397194000000056e+01 0.000000000000000000e+00 0.000000000000000000e+00 0.000000000000000000e+00
3.555021286000000202e+01 2.114010048000000097e+01 2.800194739999999882e+01 0.000000000000000000e+00 0.000000000000000000e+00 0.000000000000000000e+00
3.632178497000000306e+01 1.971605110000000138e+01 2.811416626000000107e+01 0.000000000000000000e+00 0.000000000000000000e+00 0.000000000000000000e+00
3.981451034999999905e+01 2.217952346999999946e+01 2.630055808999999911e+01 0.000000000000000000e+00 0.000000000000000000e+00 0.000000000000000000e+00
4.114831923999999930e+01 2.299964714000000043e+01 2.704157829000000035e+01 0.000000000000000000e+00 0.000000000000000000e+00 0.000000000000000000e+00
4.221271132999999764e+01 2.333288764999999998e+01 2.758648300000000120e+01 0.000000000000000000e+00 0.000000000000000000e+00 0.000000000000000000e+00
4.296076584000000054e+01 2.399779510000000116e+01 2.803170585999999886e+01 0.000000000000000000e+00 0.000000000000000000e+00 0.000000000000000000e+00
4.444160843000000227e+01 2.475037384000000174e+01 2.883157921000000101e+01 0.000000000000000000e+00 0.000000000000000000e+00 0.000000000000000000e+00
3.842350387999999839e+01 2.006461716000000095e+01 2.534566307000000052e+01 0.000000000000000000e+00 0.000000000000000000e+00 0.000000000000000000e+00
4.249814986999999888e+01 2.339778519000000045e+01 2.772907066000000142e+01 0.000000000000000000e+00 0.000000000000000000e+00 0.000000000000000000e+00
3.840654754999999909e+01 2.007860373999999837e+01 2.533977318000000167e+01 0.000000000000000000e+00 0.000000000000000000e+00 0.000000000000000000e+00
4.070845795000000322e+01 2.227021979999999957e+01 2.673085402999999971e+01 0.000000000000000000e+00 0.000000000000000000e+00 0.000000000000000000e+00
3.908632659999999959e+01 2.110042191000000145e+01 2.580472946000000078e+01 0.000000000000000000e+00 0.000000000000000000e+00 0.000000000000000000e+00
4.003432845999999756e+01 2.239708137999999948e+01 2.643459511000000006e+01 0.000000000000000000e+00 0.000000000000000000e+00 0.000000000000000000e+00
4.194554138000000165e+01 2.270921707000000112e+01 2.737163925000000120e+01 0.000000000000000000e+00 0.000000000000000000e+00 0.000000000000000000e+00
4.501433182000000244e+01 2.499795913999999897e+01 2.913464928000000143e+01 0.000000000000000000e+00 0.000000000000000000e+00 0.000000000000000000e+00
4.016962051000000145e+01 2.234812737000000027e+01 2.649065398999999843e+01 0.000000000000000000e+00 0.000000000000000000e+00 0.000000000000000000e+00
3.873653412000000174e+01 2.104916190999999870e+01 2.563408088999999990e+01 0.000000000000000000e+00 0.000000000000000000e+00 0.000000000000000000e+00
4.181297302000000116e+01 2.334609413000000089e+01 2.740184212000000130e+01 0.000000000000000000e+00 0.000000000000000000e+00 0.000000000000000000e+00
4.049380112000000054e+01 2.195352364000000023e+01 2.658489609000000087e+01 0.000000000000000000e+00 0.000000000000000000e+00 0.000000000000000000e+00
4.286578369000000066e+01 2.327776336999999884e+01 2.788328742999999932e+01 0.000000000000000000e+00 0.000000000000000000e+00 0.000000000000000000e+00
3.879351806999999752e+01 2.166551017999999829e+01 2.574977493000000095e+01 0.000000000000000000e+00 0.000000000000000000e+00 0.000000000000000000e+00
4.080140304999999756e+01 2.246192741000000126e+01 2.680194472999999888e+01 0.000000000000000000e+00 0.000000000000000000e+00 0.000000000000000000e+00
3.878262710999999996e+01 2.172169304000000167e+01 2.575281525000000116e+01 0.000000000000000000e+00 0.000000000000000000e+00 0.000000000000000000e+00
4.324775695999999670e+01 2.404188918999999913e+01 2.817201041999999944e+01 0.000000000000000000e+00 0.000000000000000000e+00 0.000000000000000000e+00
4.277847289999999703e+01 2.351042366000000072e+01 2.787617682999999857e+01 0.000000000000000000e+00 0.000000000000000000e+00 0.000000000000000000e+00
4.318066788000000145e+01 2.365779114000000050e+01 2.808517455999999868e+01 0.000000000000000000e+00 0.000000000000000000e+00 0.000000000000000000e+00
4.107832335999999884e+01 2.294192504999999827e+01 2.700056839000000153e+01 0.000000000000000000e+00 0.000000000000000000e+00 0.000000000000000000e+00
3.862571334999999806e+01 2.160136795000000021e+01 2.566219139000000027e+01 0.000000000000000000e+00 0.000000000000000000e+00 0.000000000000000000e+00
3.896154785000000231e+01 2.178301811000000043e+01 2.584518050999999872e+01 0.000000000000000000e+00 0.000000000000000000e+00 0.000000000000000000e+00
4.230500030999999694e+01 2.308108521000000124e+01 2.759315108999999921e+01 0.000000000000000000e+00 0.000000000000000000e+00 0.000000000000000000e+00
4.589670181000000326e+01 2.388839530999999994e+01 2.937983321999999831e+01 0.000000000000000000e+00 0.000000000000000000e+00 0.000000000000000000e+00
4.234911345999999810e+01 2.214966010999999924e+01 2.747657776000000140e+01 0.000000000000000000e+00 0.000000000000000000e+00 0.000000000000000000e+00
4.138684463999999963e+01 2.191893195999999833e+01 2.699599837999999963e+01 0.000000000000000000e+00 0.000000000000000000e+00 0.000000000000000000e+00
4.382391357000000198e+01 2.227243995999999981e+01 2.817894744999999901e+01 0.000000000000000000e+00 0.000000000000000000e+00 0.000000000000000000e+00
4.485781478999999905e+01 2.423101425000000120e+01 2.894860840000000124e+01 0.000000000000000000e+00 0.000000000000000000e+00 0.000000000000000000e+00
4.491860198999999909e+01 2.301985167999999859e+01 2.879746627999999831e+01 0.000000000000000000e+00 0.000000000000000000e+00 0.000000000000000000e+00
4.426727294999999884e+01 2.257856178000000114e+01 2.842995833999999888e+01 0.000000000000000000e+00 0.000000000000000000e+00 0.000000000000000000e+00
4.425061416999999864e+01 2.340450858999999895e+01 2.854453086999999911e+01 0.000000000000000000e+00 0.000000000000000000e+00 0.000000000000000000e+00
4.640986632999999983e+01 2.375072288999999870e+01 2.959751701000000068e+01 0.000000000000000000e+00 0.000000000000000000e+00 0.000000000000000000e+00
4.606802368000000314e+01 2.446853255999999988e+01 2.954521560999999963e+01 0.000000000000000000e+00 0.000000000000000000e+00 0.000000000000000000e+00
4.148429489000000103e+01 2.128109359999999839e+01 2.694676207999999917e+01 0.000000000000000000e+00 0.000000000000000000e+00 0.000000000000000000e+00
4.532341765999999694e+01 2.403693008000000120e+01 2.913586807000000078e+01 0.000000000000000000e+00 0.000000000000000000e+00 0.000000000000000000e+00
4.609377288999999678e+01 2.393949890000000025e+01 2.947882462000000103e+01 0.000000000000000000e+00 0.000000000000000000e+00 0.000000000000000000e+00
4.189600753999999938e+01 2.158107757999999876e+01 2.718218231000000173e+01 0.000000000000000000e+00 0.000000000000000000e+00 0.000000000000000000e+00
4.460501479999999930e+01 2.408976746000000091e+01 2.881041527000000002e+01 0.000000000000000000e+00 0.000000000000000000e+00 0.000000000000000000e+00
3.870996857000000091e+01 1.987374495999999979e+01 2.545130729999999986e+01 0.000000000000000000e+00 0.000000000000000000e+00 0.000000000000000000e+00
4.255470657000000045e+01 2.172572899000000035e+01 2.750918387999999837e+01 0.000000000000000000e+00 0.000000000000000000e+00 0.000000000000000000e+00
4.227087783999999715e+01 2.136129379000000128e+01 2.732354735999999917e+01 0.000000000000000000e+00 0.000000000000000000e+00 0.000000000000000000e+00
4.151344299000000149e+01 2.176120377000000161e+01 2.703137206999999975e+01 0.000000000000000000e+00 0.000000000000000000e+00 0.000000000000000000e+00
4.566538238999999777e+01 2.412026786999999928e+01 2.930685425000000066e+01 0.000000000000000000e+00 0.000000000000000000e+00 0.000000000000000000e+00
4.047170639000000136e+01 2.114127540999999866e+01 2.645629883000000149e+01 0.000000000000000000e+00 0.000000000000000000e+00 0.000000000000000000e+00
4.474790955000000281e+01 2.311660004000000157e+01 2.873260306999999969e+01 0.000000000000000000e+00 0.000000000000000000e+00 0.000000000000000000e+00
4.250042342999999789e+01 2.175444603000000043e+01 2.748825263999999891e+01 0.000000000000000000e+00 0.000000000000000000e+00 0.000000000000000000e+00
4.535005951000000124e+01 2.456120110000000167e+01 2.922585868999999903e+01 0.000000000000000000e+00 0.000000000000000000e+00 0.000000000000000000e+00
4.605477523999999789e+01 2.357444381999999905e+01 2.940668106000000037e+01 0.000000000000000000e+00 0.000000000000000000e+00 0.000000000000000000e+00
4.456496048000000343e+01 2.446184730999999957e+01 2.884692764000000054e+01 0.000000000000000000e+00 0.000000000000000000e+00 0.000000000000000000e+00
4.279319000000000273e+01 2.311069870000000037e+01 2.782489586000000159e+01 0.000000000000000000e+00 0.000000000000000000e+00 0.000000000000000000e+00
4.314105605999999682e+01 2.250102043000000052e+01 2.789600181999999862e+01 0.000000000000000000e+00 0.000000000000000000e+00 0.000000000000000000e+00
4.468479918999999967e+01 2.300700188000000068e+01 2.868709755000000072e+01 0.000000000000000000e+00 0.000000000000000000e+00 0.000000000000000000e+00
3.971227264000000190e+01 2.040386008999999845e+01 2.599478912000000008e+01 0.000000000000000000e+00 0.000000000000000000e+00 0.000000000000000000e+00
4.507950210999999996e+01 2.270599174000000176e+01 2.882563590999999903e+01 0.000000000000000000e+00 0.000000000000000000e+00 0.000000000000000000e+00
4.288548660000000012e+01 2.320838737000000052e+01 2.788218116999999907e+01 0.000000000000000000e+00 0.000000000000000000e+00 0.000000000000000000e+00
4.523788452000000149e+01 2.271724701000000124e+01 2.890077971999999917e+01 0.000000000000000000e+00 0.000000000000000000e+00 0.000000000000000000e+00
3.907840346999999781e+01 2.019910812000000178e+01 2.567040825000000126e+01 0.000000000000000000e+00 0.000000000000000000e+00 0.000000000000000000e+00
4.152542876999999777e+01 2.195831298999999959e+01 2.706612014999999971e+01 0.000000000000000000e+00 0.000000000000000000e+00 0.000000000000000000e+00
4.225495528999999806e+01 2.141715239999999909e+01 2.732443237000000025e+01 0.000000000000000000e+00 0.000000000000000000e+00 0.000000000000000000e+00
4.418248748999999975e+01 2.321000670999999826e+01 2.848412513999999973e+01 0.000000000000000000e+00 0.000000000000000000e+00 0.000000000000000000e+00
4.461407851999999963e+01 2.430556679000000031e+01 2.884657288000000008e+01 0.000000000000000000e+00 0.000000000000000000e+00 0.000000000000000000e+00
4.027142715000000095e+01 2.116475867999999849e+01 2.636686133999999981e+01 0.000000000000000000e+00 0.000000000000000000e+00 0.000000000000000000e+00
4.400429153000000326e+01 2.338326453999999899e+01 2.842711067000000114e+01 0.000000000000000000e+00 0.000000000000000000e+00 0.000000000000000000e+00
4.302470779000000078e+01 2.220941544000000079e+01 2.779884528999999915e+01 0.000000000000000000e+00 0.000000000000000000e+00 0.000000000000000000e+00
4.311080550999999872e+01 2.343240738000000079e+01 2.801988410999999957e+01 0.000000000000000000e+00 0.000000000000000000e+00 0.000000000000000000e+00
3.917535019000000318e+01 2.006666183000000103e+01 2.569577025999999975e+01 0.000000000000000000e+00 0.000000000000000000e+00 0.000000000000000000e+00
4.544573975000000132e+01 2.285165595999999866e+01 2.901710891999999831e+01 0.000000000000000000e+00 0.000000000000000000e+00 0.000000000000000000e+00
4.406165313999999711e+01 2.207494735999999946e+01 2.825999640999999940e+01 0.000000000000000000e+00 0.000000000000000000e+00 0.000000000000000000e+00
4.564088439999999736e+01 2.390640830999999977e+01 2.926382445999999860e+01 0.000000000000000000e+00 0.000000000000000000e+00 0.000000000000000000e+00
4.595235061999999715e+01 2.465471840000000014e+01 2.951912307999999996e+01 0.000000000000000000e+00 0.000000000000000000e+00 0.000000000000000000e+00
3.654143523999999843e+01 2.228042221000000112e+01 2.581145287000000010e+01 0.000000000000000000e+00 0.000000000000000000e+00 0.000000000000000000e+00
3.656186294999999831e+01 2.207851790999999864e+01 2.593556213000000099e+01 0.000000000000000000e+00 0.000000000000000000e+00 0.000000000000000000e+00
3.657922744999999765e+01 2.202540588000000099e+01 2.595209502999999884e+01 0.000000000000000000e+00 0.000000000000000000e+00 0.000000000000000000e+00
3.709329223999999670e+01 2.169472885000000062e+01 2.550943755999999851e+01 0.000000000000000000e+00 0.000000000000000000e+00 0.000000000000000000e+00
3.791642760999999950e+01 2.178194046000000128e+01 2.535725594000000171e+01 0.000000000000000000e+00 0.000000000000000000e+00 0.000000000000000000e+00
3.761438751000000025e+01 2.188999748000000167e+01 2.523193741000000045e+01 0.000000000000000000e+00 0.000000000000000000e+00 0.000000000000000000e+00
3.782957457999999917e+01 2.193115234000000058e+01 2.533829498000000058e+01 0.000000000000000000e+00 0.000000000000000000e+00 0.000000000000000000e+00
3.874970245000000091e+01 2.273619460999999831e+01 2.588400840999999986e+01 0.000000000000000000e+00 0.000000000000000000e+00 0.000000000000000000e+00
4.200804901000000058e+01 2.462868500000000083e+01 2.767794990999999882e+01 0.000000000000000000e+00 0.000000000000000000e+00 0.000000000000000000e+00
3.931189727999999661e+01 2.250205421000000072e+01 2.611249352000000101e+01 0.000000000000000000e+00 0.000000000000000000e+00 0.000000000000000000e+00
3.881792068000000029e+01 2.208373260000000116e+01 2.582152938999999847e+01 0.000000000000000000e+00 0.000000000000000000e+00 0.000000000000000000e+00
3.788580321999999967e+01 2.238383293000000052e+01 2.542996215999999876e+01 0.000000000000000000e+00 0.000000000000000000e+00 0.000000000000000000e+00
3.865787887999999839e+01 2.217083359000000087e+01 2.575944137999999839e+01 0.000000000000000000e+00 0.000000000000000000e+00 0.000000000000000000e+00
3.840979384999999979e+01 2.213252639999999971e+01 2.563814354000000151e+01 0.000000000000000000e+00 0.000000000000000000e+00 0.000000000000000000e+00
4.260873794999999831e+01 2.530638885000000116e+01 2.805619812000000124e+01 0.000000000000000000e+00 0.000000000000000000e+00 0.000000000000000000e+00
3.976501846000000029e+01 2.301837540000000004e+01 2.639855576000000070e+01 0.000000000000000000e+00 0.000000000000000000e+00 0.000000000000000000e+00
4.195627593999999760e+01 2.465307235999999946e+01 2.765731621000000118e+01 0.000000000000000000e+00 0.000000000000000000e+00 0.000000000000000000e+00
3.975287628000000240e+01 2.351987838999999880e+01 2.646537780999999967e+01 0.000000000000000000e+00 0.000000000000000000e+00 0.000000000000000000e+00
3.785459517999999690e+01 2.172892570000000134e+01 2.532074164999999866e+01 0.000000000000000000e+00 0.000000000000000000e+00 0.000000000000000000e+00
3.950996399000000281e+01 2.324905204999999953e+01 2.631288527999999971e+01 0.000000000000000000e+00 0.000000000000000000e+00 0.000000000000000000e+00
4.063719558999999748e+01 2.321182251000000107e+01 2.683356857000000062e+01 0.000000000000000000e+00 0.000000000000000000e+00 0.000000000000000000e+00
4.263742065000000281e+01 2.399400139000000109e+01 2.788020514999999833e+01 0.000000000000000000e+00 0.000000000000000000e+00 0.000000000000000000e+00
4.317294311999999934e+01 2.524074172999999988e+01 2.831002617000000043e+01 0.000000000000000000e+00 0.000000000000000000e+00 0.000000000000000000e+00
4.277475738999999777e+01 2.485064888000000138e+01 2.806786918999999969e+01 0.000000000000000000e+00 0.000000000000000000e+00 0.000000000000000000e+00
4.349238585999999884e+01 2.462960814999999926e+01 2.837102508999999984e+01 0.000000000000000000e+00 0.000000000000000000e+00 0.000000000000000000e+00
4.500020981000000120e+01 2.623379135000000062e+01 2.930632973000000163e+01 0.000000000000000000e+00 0.000000000000000000e+00 0.000000000000000000e+00
4.308676146999999901e+01 2.497275542999999942e+01 2.823114394999999988e+01 0.000000000000000000e+00 0.000000000000000000e+00 0.000000000000000000e+00
4.452980803999999893e+01 2.524868202000000039e+01 2.894464110999999917e+01 0.000000000000000000e+00 0.000000000000000000e+00 0.000000000000000000e+00
4.467330550999999872e+01 2.525812721000000138e+01 2.901299666999999971e+01 0.000000000000000000e+00 0.000000000000000000e+00 0.000000000000000000e+00
4.114125823999999909e+01 2.358524703999999872e+01 2.712275314000000037e+01 0.000000000000000000e+00 0.000000000000000000e+00 0.000000000000000000e+00
4.244902039000000116e+01 2.456502914000000004e+01 2.787460327000000149e+01 0.000000000000000000e+00 0.000000000000000000e+00 0.000000000000000000e+00
4.366906356999999872e+01 2.460936545999999936e+01 2.845058823000000103e+01 0.000000000000000000e+00 0.000000000000000000e+00 0.000000000000000000e+00
3.991774368000000095e+01 2.279996300000000176e+01 2.643828583000000165e+01 0.000000000000000000e+00 0.000000000000000000e+00 0.000000000000000000e+00
4.067560959000000054e+01 2.329297255999999905e+01 2.686320496000000091e+01 0.000000000000000000e+00 0.000000000000000000e+00 0.000000000000000000e+00
4.169369125000000054e+01 2.375082207000000167e+01 2.740454101999999992e+01 0.000000000000000000e+00 0.000000000000000000e+00 0.000000000000000000e+00
4.339240265000000107e+01 2.501205635000000171e+01 2.837950324999999907e+01 0.000000000000000000e+00 0.000000000000000000e+00 0.000000000000000000e+00
4.320115661999999901e+01 2.476277542000000054e+01 2.825426673999999849e+01 0.000000000000000000e+00 0.000000000000000000e+00 0.000000000000000000e+00
3.863048171999999880e+01 2.172686768000000157e+01 2.568254662000000010e+01 0.000000000000000000e+00 0.000000000000000000e+00 0.000000000000000000e+00
4.487316895000000017e+01 2.570412063999999930e+01 2.917062569000000138e+01 0.000000000000000000e+00 0.000000000000000000e+00 0.000000000000000000e+00
3.967047881999999959e+01 2.249277877999999831e+01 2.627854346999999890e+01 0.000000000000000000e+00 0.000000000000000000e+00 0.000000000000000000e+00
4.190447234999999893e+01 2.366872024999999979e+01 2.749110793999999913e+01 0.000000000000000000e+00 0.000000000000000000e+00 0.000000000000000000e+00
4.516113280999999802e+01 2.620852852000000155e+01 2.937781333999999944e+01 0.000000000000000000e+00 0.000000000000000000e+00 0.000000000000000000e+00
3.991855240000000293e+01 2.247362517999999909e+01 2.639159966000000068e+01 0.000000000000000000e+00 0.000000000000000000e+00 0.000000000000000000e+00
4.410400391000000297e+01 2.575283813000000066e+01 2.881855773999999926e+01 0.000000000000000000e+00 0.000000000000000000e+00 0.000000000000000000e+00
3.934440613000000297e+01 2.228688049000000149e+01 2.609661864999999992e+01 0.000000000000000000e+00 0.000000000000000000e+00 0.000000000000000000e+00
4.074078369000000066e+01 2.296685791000000165e+01 2.684660149000000118e+01 0.000000000000000000e+00 0.000000000000000000e+00 0.000000000000000000e+00
3.983235931000000107e+01 2.233840178999999893e+01 2.633185767999999882e+01 0.000000000000000000e+00 0.000000000000000000e+00 0.000000000000000000e+00
4.106220626999999723e+01 2.230016518000000048e+01 1.778085517999999965e+01 0.000000000000000000e+00 0.000000000000000000e+00 0.000000000000000000e+00
4.144908141999999884e+01 2.232485962000000157e+01 1.678906250000000000e+01 0.000000000000000000e+00 0.000000000000000000e+00 0.000000000000000000e+00
4.149816512999999674e+01 2.272229958000000138e+01 1.613758469000000062e+01 0.000000000000000000e+00 0.000000000000000000e+00 0.000000000000000000e+00
4.109870528999999806e+01 2.224801064000000039e+01 1.775992584000000107e+01 0.000000000000000000e+00 0.000000000000000000e+00 0.000000000000000000e+00
4.174062728999999905e+01 2.206848525999999922e+01 1.814609528000000083e+01 0.000000000000000000e+00 0.000000000000000000e+00 0.000000000000000000e+00
4.461490249999999946e+01 2.424435043000000078e+01 1.980220412999999979e+01 0.000000000000000000e+00 0.000000000000000000e+00 0.000000000000000000e+00
4.794943236999999669e+01 2.656432152000000002e+01 2.169414902000000112e+01 0.000000000000000000e+00 0.000000000000000000e+00 0.000000000000000000e+00
4.504283141999999884e+01 2.448539543000000052e+01 2.003685570000000027e+01 0.000000000000000000e+00 0.000000000000000000e+00 0.000000000000000000e+00
4.364120101999999690e+01 2.338302039999999948e+01 1.922332572999999911e+01 0.000000000000000000e+00 0.000000000000000000e+00 0.000000000000000000e+00
4.540129088999999851e+01 2.478260802999999868e+01 2.024711037000000147e+01 0.000000000000000000e+00 0.000000000000000000e+00 0.000000000000000000e+00
4.344181060999999744e+01 2.322427367999999959e+01 1.910731888000000112e+01 0.000000000000000000e+00 0.000000000000000000e+00 0.000000000000000000e+00
4.771594238000000132e+01 2.619367598999999913e+01 2.153176308000000105e+01 0.000000000000000000e+00 0.000000000000000000e+00 0.000000000000000000e+00
4.743875884999999926e+01 2.636415481999999955e+01 2.142668723999999969e+01 0.000000000000000000e+00 0.000000000000000000e+00 0.000000000000000000e+00
4.637526320999999996e+01 2.499107551999999899e+01 2.073329925999999901e+01 0.000000000000000000e+00 0.000000000000000000e+00 0.000000000000000000e+00
4.518414688000000012e+01 2.435793685999999880e+01 2.008483123999999975e+01 0.000000000000000000e+00 0.000000000000000000e+00 0.000000000000000000e+00
4.769301604999999711e+01 2.598906326000000178e+01 2.149225998000000004e+01 0.000000000000000000e+00 0.000000000000000000e+00 0.000000000000000000e+00
4.654467009999999760e+01 2.507573890999999833e+01 2.082477760000000089e+01 0.000000000000000000e+00 0.000000000000000000e+00 0.000000000000000000e+00
4.346488190000000174e+01 2.321774291999999917e+01 1.911722754999999907e+01 0.000000000000000000e+00 0.000000000000000000e+00 0.000000000000000000e+00
4.524557494999999818e+01 2.424472426999999897e+01 2.009790611000000027e+01 0.000000000000000000e+00 0.000000000000000000e+00 0.000000000000000000e+00
4.760720062000000041e+01 2.606224059999999909e+01 2.146212386999999921e+01 0.000000000000000000e+00 0.000000000000000000e+00 0.000000000000000000e+00
4.398579406999999719e+01 2.306152725000000103e+01 1.934034729000000041e+01 0.000000000000000000e+00 0.000000000000000000e+00 0.000000000000000000e+00
4.208192444000000165e+01 2.211964035000000095e+01 1.831363297000000046e+01 0.000000000000000000e+00 0.000000000000000000e+00 0.000000000000000000e+00
4.665044403000000273e+01 2.505433654999999860e+01 2.087152481000000037e+01 0.000000000000000000e+00 0.000000000000000000e+00 0.000000000000000000e+00
4.438875961000000103e+01 2.286990356000000091e+01 1.950306892000000047e+01 0.000000000000000000e+00 0.000000000000000000e+00 0.000000000000000000e+00
4.339739226999999744e+01 2.294665145999999822e+01 1.904764175000000037e+01 0.000000000000000000e+00 0.000000000000000000e+00 0.000000000000000000e+00
4.912548447000000351e+01 2.433945465000000041e+01 2.193547820999999942e+01 0.000000000000000000e+00 0.000000000000000000e+00 0.000000000000000000e+00
4.784254456000000033e+01 2.505616378999999938e+01 2.143230628999999965e+01 0.000000000000000000e+00 0.000000000000000000e+00 0.000000000000000000e+00
4.221244811999999769e+01 2.209498214999999988e+01 1.837156105000000039e+01 0.000000000000000000e+00 0.000000000000000000e+00 0.000000000000000000e+00
4.581048583999999835e+01 2.421833610999999919e+01 2.035984612000000027e+01 0.000000000000000000e+00 0.000000000000000000e+00 0.000000000000000000e+00
4.340882873999999703e+01 2.256644821000000078e+01 1.899993133999999984e+01 0.000000000000000000e+00 0.000000000000000000e+00 0.000000000000000000e+00
4.642674255000000016e+01 2.406106757999999957e+01 2.062765120999999979e+01 0.000000000000000000e+00 0.000000000000000000e+00 0.000000000000000000e+00
4.503757095000000277e+01 2.304078864999999965e+01 1.983200073000000074e+01 0.000000000000000000e+00 0.000000000000000000e+00 0.000000000000000000e+00
4.561370087000000240e+01 2.326665497000000116e+01 2.013443565000000035e+01 0.000000000000000000e+00 0.000000000000000000e+00 0.000000000000000000e+00
4.428099441999999897e+01 2.299285507000000095e+01 1.946956253000000103e+01 0.000000000000000000e+00 0.000000000000000000e+00 0.000000000000000000e+00
4.835724640000000107e+01 2.572783279000000078e+01 2.176810645999999849e+01 0.000000000000000000e+00 0.000000000000000000e+00 0.000000000000000000e+00
4.604475784000000260e+01 2.372434807000000134e+01 2.040102577000000039e+01 0.000000000000000000e+00 0.000000000000000000e+00 0.000000000000000000e+00
4.908413696000000215e+01 2.538098145000000017e+01 2.206146431000000163e+01 0.000000000000000000e+00 0.000000000000000000e+00 0.000000000000000000e+00
4.444147490999999661e+01 2.303208732999999953e+01 1.955049895999999876e+01 0.000000000000000000e+00 0.000000000000000000e+00 0.000000000000000000e+00
4.528015136999999868e+01 2.366279411000000010e+01 2.003291321000000025e+01 0.000000000000000000e+00 0.000000000000000000e+00 0.000000000000000000e+00
4.725368499999999727e+01 2.525604819999999862e+01 2.118333434999999909e+01 0.000000000000000000e+00 0.000000000000000000e+00 0.000000000000000000e+00
4.716117858999999868e+01 2.455231857000000062e+01 2.104157638999999946e+01 0.000000000000000000e+00 0.000000000000000000e+00 0.000000000000000000e+00
4.902026749000000194e+01 2.625920486000000054e+01 2.215405463999999824e+01 0.000000000000000000e+00 0.000000000000000000e+00 0.000000000000000000e+00
4.494024276999999756e+01 2.387940598000000136e+01 1.990333176000000037e+01 0.000000000000000000e+00 0.000000000000000000e+00 0.000000000000000000e+00
4.733974838000000318e+01 2.453894233999999841e+01 2.112367439000000147e+01 0.000000000000000000e+00 0.000000000000000000e+00 0.000000000000000000e+00
4.922332764000000083e+01 2.475200272000000012e+01 2.203908729999999849e+01 0.000000000000000000e+00 0.000000000000000000e+00 0.000000000000000000e+00
4.742816161999999736e+01 2.436565017999999938e+01 2.114105033999999961e+01 0.000000000000000000e+00 0.000000000000000000e+00 0.000000000000000000e+00
4.323960495000000037e+01 2.250861168000000134e+01 1.891228676000000064e+01 0.000000000000000000e+00 0.000000000000000000e+00 0.000000000000000000e+00
4.538146972999999917e+01 2.370739937000000097e+01 2.008678055000000029e+01 0.000000000000000000e+00 0.000000000000000000e+00 0.000000000000000000e+00
4.619536209000000326e+01 2.338738060000000019e+01 2.042479323999999963e+01 0.000000000000000000e+00 0.000000000000000000e+00 0.000000000000000000e+00
4.822547531000000021e+01 2.589405440999999897e+01 2.172935676999999899e+01 0.000000000000000000e+00 0.000000000000000000e+00 0.000000000000000000e+00
4.886916733000000335e+01 2.538872527999999917e+01 2.196146393000000074e+01 0.000000000000000000e+00 0.000000000000000000e+00 0.000000000000000000e+00
4.859117126000000297e+01 2.543229674999999901e+01 2.183683586000000076e+01 0.000000000000000000e+00 0.000000000000000000e+00 0.000000000000000000e+00
4.834243011000000223e+01 2.520894240999999880e+01 2.168868828000000093e+01 0.000000000000000000e+00 0.000000000000000000e+00 0.000000000000000000e+00
4.632498169000000132e+01 2.348084641000000161e+01 2.049879074000000045e+01 0.000000000000000000e+00 0.000000000000000000e+00 0.000000000000000000e+00
4.666516113000000132e+01 2.448387145999999959e+01 2.079879189000000039e+01 0.000000000000000000e+00 0.000000000000000000e+00 0.000000000000000000e+00
4.761914062999999686e+01 2.501437758999999872e+01 2.132143020999999905e+01 0.000000000000000000e+00 0.000000000000000000e+00 0.000000000000000000e+00
4.495875930999999781e+01 2.357997131000000124e+01 1.987022780999999938e+01 0.000000000000000000e+00 0.000000000000000000e+00 0.000000000000000000e+00
4.670601272999999765e+01 2.473968886999999839e+01 2.085371971000000002e+01 0.000000000000000000e+00 0.000000000000000000e+00 0.000000000000000000e+00
4.664846802000000281e+01 2.394400406000000103e+01 2.071556281999999882e+01 0.000000000000000000e+00 0.000000000000000000e+00 0.000000000000000000e+00
4.746210479999999876e+01 2.447405243000000041e+01 2.117214775000000060e+01 0.000000000000000000e+00 0.000000000000000000e+00 0.000000000000000000e+00
4.425503159000000153e+01 2.448880386000000087e+01 1.966889000000000109e+01 0.000000000000000000e+00 0.000000000000000000e+00 0.000000000000000000e+00
4.728286743000000314e+01 2.642376708999999835e+01 2.136234282999999934e+01 0.000000000000000000e+00 0.000000000000000000e+00 0.000000000000000000e+00
4.354191588999999851e+01 2.348427200000000070e+01 1.919145393000000155e+01 0.000000000000000000e+00 0.000000000000000000e+00 0.000000000000000000e+00
4.388302231000000120e+01 2.416594505000000126e+01 1.944863700999999878e+01 0.000000000000000000e+00 0.000000000000000000e+00 0.000000000000000000e+00
4.100293349999999748e+01 2.238080025000000006e+01 1.784575080999999841e+01 0.000000000000000000e+00 0.000000000000000000e+00 0.000000000000000000e+00
4.259788513000000165e+01 2.293088150000000169e+01 1.867060661000000010e+01 0.000000000000000000e+00 0.000000000000000000e+00 0.000000000000000000e+00
4.289313506999999959e+01 2.357802390999999886e+01 1.890139389000000136e+01 0.000000000000000000e+00 0.000000000000000000e+00 0.000000000000000000e+00
4.568016052000000116e+01 2.552654075999999961e+01 2.048414421000000019e+01 0.000000000000000000e+00 0.000000000000000000e+00 0.000000000000000000e+00
4.246940993999999847e+01 2.341821480000000122e+01 1.868029976000000048e+01 0.000000000000000000e+00 0.000000000000000000e+00 0.000000000000000000e+00
4.267707442999999756e+01 2.367297553999999948e+01 1.881392479000000151e+01 0.000000000000000000e+00 0.000000000000000000e+00 0.000000000000000000e+00
4.516709900000000033e+01 2.491226959000000107e+01 2.015617560999999824e+01 0.000000000000000000e+00 0.000000000000000000e+00 0.000000000000000000e+00
4.514811706999999785e+01 2.472282790999999946e+01 2.012016868999999986e+01 0.000000000000000000e+00 0.000000000000000000e+00 0.000000000000000000e+00
4.376372528000000273e+01 2.373730278000000027e+01 1.933144568999999890e+01 0.000000000000000000e+00 0.000000000000000000e+00 0.000000000000000000e+00
4.132785796999999661e+01 2.223316001999999969e+01 1.797659874000000002e+01 0.000000000000000000e+00 0.000000000000000000e+00 0.000000000000000000e+00
4.498062133999999901e+01 2.486402892999999992e+01 2.006203842000000037e+01 0.000000000000000000e+00 0.000000000000000000e+00 0.000000000000000000e+00
4.739215851000000157e+01 2.659637833000000029e+01 2.143818474000000052e+01 0.000000000000000000e+00 0.000000000000000000e+00 0.000000000000000000e+00
4.473170471000000248e+01 2.476024818000000138e+01 1.993073844999999977e+01 0.000000000000000000e+00 0.000000000000000000e+00 0.000000000000000000e+00
4.219564056000000107e+01 2.303519821000000078e+01 1.849738693000000112e+01 0.000000000000000000e+00 0.000000000000000000e+00 0.000000000000000000e+00
4.243082047000000046e+01 2.263472557000000052e+01 1.855004883000000149e+01 0.000000000000000000e+00 0.000000000000000000e+00 0.000000000000000000e+00
3.629406738000000132e+01 2.279728698999999992e+01 2.570414543000000052e+01 0.000000000000000000e+00 0.000000000000000000e+00 0.000000000000000000e+00
3.685779953000000120e+01 2.239337920999999909e+01 2.527027512000000087e+01 0.000000000000000000e+00 0.000000000000000000e+00 0.000000000000000000e+00
3.686343383999999901e+01 2.242380714000000097e+01 2.523519135000000091e+01 0.000000000000000000e+00 0.000000000000000000e+00 0.000000000000000000e+00
3.675293732000000091e+01 2.256317139000000083e+01 2.526654243000000122e+01 0.000000000000000000e+00 0.000000000000000000e+00 0.000000000000000000e+00
3.671419144000000045e+01 2.248927116000000126e+01 2.538704871999999924e+01 0.000000000000000000e+00 0.000000000000000000e+00 0.000000000000000000e+00
4.378012465999999847e+01 2.724755478000000153e+01 2.888286971999999864e+01 0.000000000000000000e+00 0.000000000000000000e+00 0.000000000000000000e+00
4.050555801000000145e+01 2.503955459999999889e+01 2.703440475000000021e+01 0.000000000000000000e+00 0.000000000000000000e+00 0.000000000000000000e+00
3.925134277000000083e+01 2.421254538999999895e+01 2.632904625000000109e+01 0.000000000000000000e+00 0.000000000000000000e+00 0.000000000000000000e+00
3.976636887000000087e+01 2.402600479000000178e+01 2.654461479000000068e+01 0.000000000000000000e+00 0.000000000000000000e+00 0.000000000000000000e+00
4.150313567999999975e+01 2.564756583999999862e+01 2.758842849999999913e+01 0.000000000000000000e+00 0.000000000000000000e+00 0.000000000000000000e+00
4.053881453999999707e+01 2.485368919000000076e+01 2.702385521000000068e+01 0.000000000000000000e+00 0.000000000000000000e+00 0.000000000000000000e+00
4.285389328000000120e+01 2.671991919999999965e+01 2.837366675999999899e+01 0.000000000000000000e+00 0.000000000000000000e+00 0.000000000000000000e+00
3.921272659000000260e+01 2.435704231000000064e+01 2.633125877000000159e+01 0.000000000000000000e+00 0.000000000000000000e+00 0.000000000000000000e+00
3.821064757999999983e+01 2.301087761000000143e+01 2.567119217000000120e+01 0.000000000000000000e+00 0.000000000000000000e+00 0.000000000000000000e+00
4.125409697999999992e+01 2.533160399999999868e+01 2.742700767999999911e+01 0.000000000000000000e+00 0.000000000000000000e+00 0.000000000000000000e+00
3.712429809999999719e+01 2.271319388999999944e+01 2.511917877000000132e+01 0.000000000000000000e+00 0.000000000000000000e+00 0.000000000000000000e+00
3.753045273000000037e+01 2.229110336000000103e+01 2.525046349000000134e+01 0.000000000000000000e+00 0.000000000000000000e+00 0.000000000000000000e+00
4.259761046999999934e+01 2.635237121999999843e+01 2.820157813999999874e+01 0.000000000000000000e+00 0.000000000000000000e+00 0.000000000000000000e+00
4.193840407999999798e+01 2.584806823999999992e+01 2.782104301000000035e+01 0.000000000000000000e+00 0.000000000000000000e+00 0.000000000000000000e+00
4.101803589000000017e+01 2.552613831000000033e+01 2.734355164000000116e+01 0.000000000000000000e+00 0.000000000000000000e+00 0.000000000000000000e+00
3.691393661000000037e+01 2.288004302999999950e+01 2.504389571999999831e+01 0.000000000000000000e+00 0.000000000000000000e+00 0.000000000000000000e+00
3.736923981000000339e+01 2.215319252000000105e+01 2.515534591999999847e+01 0.000000000000000000e+00 0.000000000000000000e+00 0.000000000000000000e+00
3.859897232000000145e+01 2.336195946000000134e+01 2.590296173000000124e+01 0.000000000000000000e+00 0.000000000000000000e+00 0.000000000000000000e+00
4.096075438999999818e+01 2.445276641999999967e+01 2.716378212000000048e+01 0.000000000000000000e+00 0.000000000000000000e+00 0.000000000000000000e+00
4.032313537999999653e+01 2.410405159000000097e+01 2.681583785999999847e+01 0.000000000000000000e+00 0.000000000000000000e+00 0.000000000000000000e+00
4.477442551000000037e+01 2.700461006000000097e+01 2.931208801000000008e+01 0.000000000000000000e+00 0.000000000000000000e+00 0.000000000000000000e+00
4.040294647000000339e+01 2.436620522000000122e+01 2.689089775000000060e+01 0.000000000000000000e+00 0.000000000000000000e+00 0.000000000000000000e+00
3.824696732000000310e+01 2.278285027000000085e+01 2.565610503999999992e+01 0.000000000000000000e+00 0.000000000000000000e+00 0.000000000000000000e+00
3.909765625000000000e+01 2.326075935000000072e+01 2.612214661000000149e+01 0.000000000000000000e+00 0.000000000000000000e+00 0.000000000000000000e+00
4.447394562000000207e+01 2.759287452999999957e+01 2.925664710999999940e+01 0.000000000000000000e+00 0.000000000000000000e+00 0.000000000000000000e+00
4.469719314999999682e+01 2.720622825999999961e+01 2.930510901999999973e+01 0.000000000000000000e+00 0.000000000000000000e+00 0.000000000000000000e+00
4.301033019999999851e+01 2.597928428999999895e+01 2.834070777999999891e+01 0.000000000000000000e+00 0.000000000000000000e+00 0.000000000000000000e+00
4.329553604000000178e+01 2.593445969000000062e+01 2.846738625000000056e+01 0.000000000000000000e+00 0.000000000000000000e+00 0.000000000000000000e+00
4.222681808000000103e+01 2.581916999999999973e+01 2.795185280000000105e+01 0.000000000000000000e+00 0.000000000000000000e+00 0.000000000000000000e+00
3.829586029000000025e+01 2.275642394999999851e+01 2.567511939999999981e+01 0.000000000000000000e+00 0.000000000000000000e+00 0.000000000000000000e+00
4.376125335999999777e+01 2.680075263999999891e+01 2.880971527000000165e+01 0.000000000000000000e+00 0.000000000000000000e+00 0.000000000000000000e+00
4.120301056000000273e+01 2.513576697999999965e+01 2.737536620999999926e+01 0.000000000000000000e+00 0.000000000000000000e+00 0.000000000000000000e+00
4.255218124000000302e+01 2.615903472999999835e+01 2.815275192000000004e+01 0.000000000000000000e+00 0.000000000000000000e+00 0.000000000000000000e+00
3.948538208000000083e+01 2.368771934999999829e+01 2.636471747999999948e+01 0.000000000000000000e+00 0.000000000000000000e+00 0.000000000000000000e+00
4.004167174999999901e+01 2.400650406000000103e+01 2.667037772999999845e+01 0.000000000000000000e+00 0.000000000000000000e+00 0.000000000000000000e+00
4.416016387999999893e+01 2.652779388000000083e+01 2.895657539000000114e+01 0.000000000000000000e+00 0.000000000000000000e+00 0.000000000000000000e+00
3.988150405999999748e+01 2.380202674999999957e+01 2.656612206000000143e+01 0.000000000000000000e+00 0.000000000000000000e+00 0.000000000000000000e+00
4.136950683999999967e+01 2.483733368000000041e+01 2.741005515999999886e+01 0.000000000000000000e+00 0.000000000000000000e+00 0.000000000000000000e+00
4.083805084000000107e+01 2.285373878000000047e+01 1.758124541999999835e+01 0.000000000000000000e+00 0.000000000000000000e+00 0.000000000000000000e+00
4.276496886999999703e+01 2.393849373000000114e+01 1.889332581000000033e+01 0.000000000000000000e+00 0.000000000000000000e+00 0.000000000000000000e+00
4.488565444999999698e+01 2.512867736999999835e+01 2.005555916000000138e+01 0.000000000000000000e+00 0.000000000000000000e+00 0.000000000000000000e+00
4.390391921999999880e+01 2.463430023000000091e+01 1.952577591000000012e+01 0.000000000000000000e+00 0.000000000000000000e+00 0.000000000000000000e+00
4.383865355999999736e+01 2.456127357000000089e+01 1.948470116000000019e+01 0.000000000000000000e+00 0.000000000000000000e+00 0.000000000000000000e+00
3.556109237999999806e+01 2.295988463999999851e+01 2.659168816000000035e+01 0.000000000000000000e+00 0.000000000000000000e+00 0.000000000000000000e+00
3.552553177000000062e+01 2.288828278000000083e+01 2.670564841999999928e+01 0.000000000000000000e+00 0.000000000000000000e+00 0.000000000000000000e+00
3.616680526999999756e+01 2.294108200000000153e+01 2.575516129000000021e+01 0.000000000000000000e+00 0.000000000000000000e+00 0.000000000000000000e+00
3.608868026999999756e+01 2.352691078000000147e+01 2.534266089999999849e+01 0.000000000000000000e+00 0.000000000000000000e+00 0.000000000000000000e+00
3.581626511000000335e+01 2.296602439999999845e+01 2.622673225000000130e+01 0.000000000000000000e+00 0.000000000000000000e+00 0.000000000000000000e+00
3.595369720000000058e+01 2.301575279000000052e+01 2.598876952999999901e+01 0.000000000000000000e+00 0.000000000000000000e+00 0.000000000000000000e+00
3.677040862999999860e+01 2.384152603000000070e+01 2.511187171999999990e+01 0.000000000000000000e+00 0.000000000000000000e+00 0.000000000000000000e+00
3.702340697999999719e+01 2.319721984999999975e+01 2.513995170999999829e+01 0.000000000000000000e+00 0.000000000000000000e+00 0.000000000000000000e+00
3.964486312999999740e+01 2.514767074999999963e+01 2.664544678000000033e+01 0.000000000000000000e+00 0.000000000000000000e+00 0.000000000000000000e+00
3.961466598999999889e+01 2.516711043999999831e+01 2.663400458999999998e+01 0.000000000000000000e+00 0.000000000000000000e+00 0.000000000000000000e+00
3.651640319999999917e+01 2.425851249999999837e+01 2.505131340000000151e+01 0.000000000000000000e+00 0.000000000000000000e+00 0.000000000000000000e+00
3.749368285999999983e+01 2.392905998000000167e+01 2.546380614999999992e+01 0.000000000000000000e+00 0.000000000000000000e+00 0.000000000000000000e+00
3.837921524000000062e+01 2.393878746000000035e+01 2.588097000000000136e+01 0.000000000000000000e+00 0.000000000000000000e+00 0.000000000000000000e+00
4.079322051999999843e+01 2.618588447999999858e+01 2.733082389999999862e+01 0.000000000000000000e+00 0.000000000000000000e+00 0.000000000000000000e+00
3.769922256000000260e+01 2.398931693999999837e+01 2.556879806999999971e+01 0.000000000000000000e+00 0.000000000000000000e+00 0.000000000000000000e+00
4.028376006999999959e+01 2.596694182999999967e+01 2.706078147999999928e+01 0.000000000000000000e+00 0.000000000000000000e+00 0.000000000000000000e+00
3.705589676000000310e+01 2.367560386999999977e+01 2.522256087999999963e+01 0.000000000000000000e+00 0.000000000000000000e+00 0.000000000000000000e+00
4.102859115999999773e+01 2.617745590000000178e+01 2.744015120999999979e+01 0.000000000000000000e+00 0.000000000000000000e+00 0.000000000000000000e+00
3.684231566999999785e+01 2.368471335999999994e+01 2.512355614000000159e+01 0.000000000000000000e+00 0.000000000000000000e+00 0.000000000000000000e+00
3.906732178000000033e+01 2.525309753000000157e+01 2.638911056999999971e+01 0.000000000000000000e+00 0.000000000000000000e+00 0.000000000000000000e+00
3.840239334000000326e+01 2.515199089000000043e+01 2.606266211999999882e+01 0.000000000000000000e+00 0.000000000000000000e+00 0.000000000000000000e+00
3.896479796999999934e+01 2.523109244999999845e+01 2.633787154999999913e+01 0.000000000000000000e+00 0.000000000000000000e+00 0.000000000000000000e+00
3.792636870999999843e+01 2.429487419000000159e+01 2.571847342999999952e+01 0.000000000000000000e+00 0.000000000000000000e+00 0.000000000000000000e+00
3.812472533999999769e+01 2.484444236999999944e+01 2.588898468000000008e+01 0.000000000000000000e+00 0.000000000000000000e+00 0.000000000000000000e+00
3.966933440999999760e+01 2.538862037999999899e+01 2.669086074999999880e+01 0.000000000000000000e+00 0.000000000000000000e+00 0.000000000000000000e+00
3.679652405000000215e+01 2.330214691000000116e+01 2.504819489000000132e+01 0.000000000000000000e+00 0.000000000000000000e+00 0.000000000000000000e+00
3.961929321000000215e+01 2.485893821999999886e+01 2.659278869999999984e+01 0.000000000000000000e+00 0.000000000000000000e+00 0.000000000000000000e+00
3.679933928999999893e+01 2.328495597999999944e+01 2.504709624999999917e+01 0.000000000000000000e+00 0.000000000000000000e+00 0.000000000000000000e+00
3.985751723999999996e+01 2.590319633000000010e+01 2.685166930999999835e+01 0.000000000000000000e+00 0.000000000000000000e+00 0.000000000000000000e+00
4.015846252000000050e+01 2.522638129999999990e+01 2.689768600000000021e+01 0.000000000000000000e+00 0.000000000000000000e+00 0.000000000000000000e+00
3.789058304000000277e+01 2.487396812000000068e+01 2.578320121999999870e+01 0.000000000000000000e+00 0.000000000000000000e+00 0.000000000000000000e+00
3.912771988000000079e+01 2.470430564999999845e+01 2.634020233000000033e+01 0.000000000000000000e+00 0.000000000000000000e+00 0.000000000000000000e+00
3.683937835999999777e+01 2.361825752000000023e+01 2.511282157999999853e+01 0.000000000000000000e+00 0.000000000000000000e+00 0.000000000000000000e+00
4.074394225999999719e+01 2.550149345000000167e+01 2.721133804000000112e+01 0.000000000000000000e+00 0.000000000000000000e+00 0.000000000000000000e+00
