2.167149925000000010e+01 -3.412507248000000004e+01 3.324874877999999967e+01 0.000000000000000000e+00 0.000000000000000000e+00 0.000000000000000000e+00
2.294123839999999959e+01 -3.557291412000000008e+01 3.524215317000000169e+01 0.000000000000000000e+00 0.000000000000000000e+00 0.000000000000000000e+00
2.160129166000000112e+01 -3.387404251000000244e+01 3.276440047999999905e+01 0.000000000000000000e+00 0.000000000000000000e+00 0.000000000000000000e+00
2.120879744999999872e+01 -3.354268265000000326e+01 3.240245818999999727e+01 0.000000000000000000e+00 0.000000000000000000e+00 0.000000000000000000e+00
2.204247093000000035e+01 -3.439107132000000178e+01 3.348757934999999719e+01 0.000000000000000000e+00 0.000000000000000000e+00 0.000000000000000000e+00
2.424155806999999996e+01 -3.735723114000000322e+01 3.794354630000000128e+01 0.000000000000000000e+00 0.000000000000000000e+00 0.000000000000000000e+00
2.210992813000000012e+01 -3.455226898000000091e+01 3.377790450999999905e+01 0.000000000000000000e+00 0.000000000000000000e+00 0.000000000000000000e+00
2.109158516000000105e+01 -3.345713042999999942e+01 3.232369614000000269e+01 0.000000000000000000e+00 0.000000000000000000e+00 0.000000000000000000e+00
2.229002953000000176e+01 -3.456552124000000248e+01 3.364027405000000215e+01 0.000000000000000000e+00 0.000000000000000000e+00 0.000000000000000000e+00
2.334271812000000068e+01 -3.610678100999999884e+01 3.603891372999999732e+01 0.000000000000000000e+00 0.000000000000000000e+00 0.000000000000000000e+00
2.233653831000000167e+01 -3.492724228000000153e+01 3.438876723999999996e+01 0.000000000000000000e+00 0.000000000000000000e+00 0.000000000000000000e+00
2.170825005000000019e+01 -3.392965317000000169e+01 3.278713608000000335e+01 0.000000000000000000e+00 0.000000000000000000e+00 0.000000000000000000e+00
2.311755180000000109e+01 -3.586123276000000004e+01 3.570993423000000178e+01 0.000000000000000000e+00 0.000000000000000000e+00 0.000000000000000000e+00
2.239402580000000142e+01 -3.472941971000000194e+01 3.390270232999999678e+01 0.000000000000000000e+00 0.000000000000000000e+00 0.000000000000000000e+00
2.473733329999999953e+01 -3.720539474000000268e+01 3.986242294000000186e+01 0.000000000000000000e+00 0.000000000000000000e+00 0.000000000000000000e+00
2.479425240000000130e+01 -3.739365004999999798e+01 3.966184997999999950e+01 0.000000000000000000e+00 0.000000000000000000e+00 0.000000000000000000e+00
2.466579437000000041e+01 -3.738167191000000145e+01 3.975333023000000310e+01 0.000000000000000000e+00 0.000000000000000000e+00 0.000000000000000000e+00
2.480923843000000062e+01 -3.807770537999999760e+01 3.905401610999999917e+01 0.000000000000000000e+00 0.000000000000000000e+00 0.000000000000000000e+00
2.284674453999999955e+01 -3.389063262999999893e+01 3.193596648999999843e+01 0.000000000000000000e+00 0.000000000000000000e+00 0.000000000000000000e+00
2.237858582000000141e+01 -3.328620911000000149e+01 3.102754592999999872e+01 0.000000000000000000e+00 0.000000000000000000e+00 0.000000000000000000e+00
2.246704292000000081e+01 -3.342441559000000240e+01 3.124638557000000105e+01 0.000000000000000000e+00 0.000000000000000000e+00 0.000000000000000000e+00
2.356721878000000103e+01 -3.501815796000000347e+01 3.372204589999999769e+01 0.000000000000000000e+00 0.000000000000000000e+00 0.000000000000000000e+00
2.425379944000000165e+01 -3.576579665999999946e+01 3.482836532999999690e+01 0.000000000000000000e+00 0.000000000000000000e+00 0.000000000000000000e+00
2.425481415000000140e+01 -3.559570312999999686e+01 3.453557967999999789e+01 0.000000000000000000e+00 0.000000000000000000e+00 0.000000000000000000e+00
2.439036179000000004e+01 -3.575206757000000124e+01 3.477270888999999698e+01 0.000000000000000000e+00 0.000000000000000000e+00 0.000000000000000000e+00
2.440830230999999984e+01 -3.596517181000000107e+01 3.513503264999999942e+01 0.000000000000000000e+00 0.000000000000000000e+00 0.000000000000000000e+00
2.504572487000000081e+01 -3.669415283000000017e+01 3.623926163000000145e+01 0.000000000000000000e+00 0.000000000000000000e+00 0.000000000000000000e+00
2.389957619000000122e+01 -3.533187866000000099e+01 3.416518021000000260e+01 0.000000000000000000e+00 0.000000000000000000e+00 0.000000000000000000e+00
2.491512107999999870e+01 -3.634602355999999901e+01 3.567113875999999806e+01 0.000000000000000000e+00 0.000000000000000000e+00 0.000000000000000000e+00
2.396047019999999961e+01 -3.528546142999999802e+01 3.407104874000000194e+01 0.000000000000000000e+00 0.000000000000000000e+00 0.000000000000000000e+00
2.523478126999999915e+01 -3.723104857999999950e+01 3.711833954000000091e+01 0.000000000000000000e+00 0.000000000000000000e+00 0.000000000000000000e+00
2.590222548999999930e+01 -3.791625977000000347e+01 3.814023590000000041e+01 0.000000000000000000e+00 0.000000000000000000e+00 0.000000000000000000e+00
2.574571990999999826e+01 -3.782066344999999785e+01 3.801254271999999901e+01 0.000000000000000000e+00 0.000000000000000000e+00 0.000000000000000000e+00
2.597302437000000097e+01 -3.791670608999999814e+01 3.843868636999999921e+01 0.000000000000000000e+00 0.000000000000000000e+00 0.000000000000000000e+00
2.611533546000000072e+01 -3.777243041999999917e+01 3.847226333999999781e+01 0.000000000000000000e+00 0.000000000000000000e+00 0.000000000000000000e+00
2.065069388999999944e+01 -3.399283980999999955e+01 3.412226104999999876e+01 0.000000000000000000e+00 0.000000000000000000e+00 0.000000000000000000e+00
2.199711990000000128e+01 -3.559826660000000231e+01 3.629640579000000145e+01 0.000000000000000000e+00 0.000000000000000000e+00 0.000000000000000000e+00
2.352285957000000138e+01 -3.751012421000000074e+01 3.898623276000000004e+01 0.000000000000000000e+00 0.000000000000000000e+00 0.000000000000000000e+00
2.337821197999999967e+01 -3.778915023999999789e+01 3.985492324999999880e+01 0.000000000000000000e+00 0.000000000000000000e+00 0.000000000000000000e+00
2.285679625999999942e+01 -3.683637619000000285e+01 3.820473862000000054e+01 0.000000000000000000e+00 0.000000000000000000e+00 0.000000000000000000e+00
2.183967399999999870e+01 -3.538002776999999810e+01 3.596769333000000302e+01 0.000000000000000000e+00 0.000000000000000000e+00 0.000000000000000000e+00
2.250088309999999936e+01 -3.648355483999999649e+01 3.780472182999999831e+01 0.000000000000000000e+00 0.000000000000000000e+00 0.000000000000000000e+00
2.235865783999999934e+01 -3.622576904000000297e+01 3.735972977000000128e+01 0.000000000000000000e+00 0.000000000000000000e+00 0.000000000000000000e+00
2.247594833000000136e+01 -3.624592590000000314e+01 3.725690842000000202e+01 0.000000000000000000e+00 0.000000000000000000e+00 0.000000000000000000e+00
2.362636374999999944e+01 -3.764238358000000062e+01 3.917496872000000252e+01 0.000000000000000000e+00 0.000000000000000000e+00 0.000000000000000000e+00
2.145916938999999957e+01 -3.513970184000000074e+01 3.587419127999999802e+01 0.000000000000000000e+00 0.000000000000000000e+00 0.000000000000000000e+00
2.259905433999999858e+01 -3.646118163999999950e+01 3.762284470000000169e+01 0.000000000000000000e+00 0.000000000000000000e+00 0.000000000000000000e+00
2.359802627999999913e+01 -3.760040283000000017e+01 3.910920715000000314e+01 0.000000000000000000e+00 0.000000000000000000e+00 0.000000000000000000e+00
2.320537948999999855e+01 -3.742943573000000157e+01 3.920075989000000050e+01 0.000000000000000000e+00 0.000000000000000000e+00 0.000000000000000000e+00
2.249843024999999841e+01 -3.623518372000000198e+01 3.720153427000000335e+01 0.000000000000000000e+00 0.000000000000000000e+00 0.000000000000000000e+00
2.247290038999999950e+01 -3.642921066000000252e+01 3.770831299000000314e+01 0.000000000000000000e+00 0.000000000000000000e+00 0.000000000000000000e+00
2.087898253999999909e+01 -3.413562774999999760e+01 3.417507934999999719e+01 0.000000000000000000e+00 0.000000000000000000e+00 0.000000000000000000e+00
2.397891235000000165e+01 -3.752129364000000322e+01 4.005456161000000037e+01 0.000000000000000000e+00 0.000000000000000000e+00 0.000000000000000000e+00
2.403488730999999845e+01 -3.767253493999999847e+01 3.989193725999999884e+01 0.000000000000000000e+00 0.000000000000000000e+00 0.000000000000000000e+00
2.354741858999999948e+01 -3.783055877999999694e+01 4.005182648000000256e+01 0.000000000000000000e+00 0.000000000000000000e+00 0.000000000000000000e+00
2.302801132000000095e+01 -3.373845290999999946e+01 3.162742615000000157e+01 0.000000000000000000e+00 0.000000000000000000e+00 0.000000000000000000e+00
2.269648551999999952e+01 -3.303449248999999810e+01 3.049236488000000023e+01 0.000000000000000000e+00 0.000000000000000000e+00 0.000000000000000000e+00
2.434904670999999965e+01 -3.534261702999999954e+01 3.407608032000000264e+01 0.000000000000000000e+00 0.000000000000000000e+00 0.000000000000000000e+00
2.375770377999999994e+01 -3.455629349000000161e+01 3.286210632000000231e+01 0.000000000000000000e+00 0.000000000000000000e+00 0.000000000000000000e+00
2.253145981000000120e+01 -3.300232315000000227e+01 3.047704123999999837e+01 0.000000000000000000e+00 0.000000000000000000e+00 0.000000000000000000e+00
2.379545592999999926e+01 -3.483245850000000132e+01 3.332988739000000322e+01 0.000000000000000000e+00 0.000000000000000000e+00 0.000000000000000000e+00
2.387597084000000081e+01 -3.497127151000000111e+01 3.355002593999999760e+01 0.000000000000000000e+00 0.000000000000000000e+00 0.000000000000000000e+00
2.251176453000000066e+01 -3.302565383999999682e+01 3.052213477999999824e+01 0.000000000000000000e+00 0.000000000000000000e+00 0.000000000000000000e+00
2.356344414000000143e+01 -3.422777176000000310e+01 3.234203720000000004e+01 0.000000000000000000e+00 0.000000000000000000e+00 0.000000000000000000e+00
2.399041176000000064e+01 -3.476702499000000302e+01 3.316934203999999653e+01 0.000000000000000000e+00 0.000000000000000000e+00 0.000000000000000000e+00
2.268377303999999839e+01 -3.283343505999999934e+01 3.014820098999999942e+01 0.000000000000000000e+00 0.000000000000000000e+00 0.000000000000000000e+00
2.547749329000000174e+01 -3.679940414000000004e+01 3.632910155999999802e+01 0.000000000000000000e+00 0.000000000000000000e+00 0.000000000000000000e+00
2.619264412000000064e+01 -3.757795334000000054e+01 3.755355071999999694e+01 0.000000000000000000e+00 0.000000000000000000e+00 0.000000000000000000e+00
2.456060791000000165e+01 -3.544046783000000289e+01 3.420879744999999872e+01 0.000000000000000000e+00 0.000000000000000000e+00 0.000000000000000000e+00
2.470840644999999824e+01 -3.560948943999999727e+01 3.447424697999999665e+01 0.000000000000000000e+00 0.000000000000000000e+00 0.000000000000000000e+00
2.517161369000000093e+01 -3.627923583999999835e+01 3.551980591000000231e+01 0.000000000000000000e+00 0.000000000000000000e+00 0.000000000000000000e+00
2.523080444000000000e+01 -3.634724045000000103e+01 3.562659072999999665e+01 0.000000000000000000e+00 0.000000000000000000e+00 0.000000000000000000e+00
2.628463745000000173e+01 -3.782590102999999715e+01 3.831451416000000165e+01 0.000000000000000000e+00 0.000000000000000000e+00 0.000000000000000000e+00
2.630796431999999996e+01 -3.780192566000000198e+01 3.832039642000000157e+01 0.000000000000000000e+00 0.000000000000000000e+00 0.000000000000000000e+00
2.517508315999999979e+01 -3.567773818999999946e+01 3.462688445999999942e+01 0.000000000000000000e+00 0.000000000000000000e+00 0.000000000000000000e+00
2.628715515000000025e+01 -3.742899323000000322e+01 3.733996963999999963e+01 0.000000000000000000e+00 0.000000000000000000e+00 0.000000000000000000e+00
2.602221297999999905e+01 -3.695739746000000281e+01 3.661931992000000236e+01 0.000000000000000000e+00 0.000000000000000000e+00 0.000000000000000000e+00
2.374389457999999919e+01 -3.388977813999999711e+01 3.180032921000000101e+01 0.000000000000000000e+00 0.000000000000000000e+00 0.000000000000000000e+00
2.383882712999999853e+01 -3.405500411999999955e+01 3.205754851999999744e+01 0.000000000000000000e+00 0.000000000000000000e+00 0.000000000000000000e+00
2.301875113999999911e+01 -3.294945526000000058e+01 3.032813072000000076e+01 0.000000000000000000e+00 0.000000000000000000e+00 0.000000000000000000e+00
2.279604339999999851e+01 -3.286893082000000277e+01 3.019479752000000161e+01 0.000000000000000000e+00 0.000000000000000000e+00 0.000000000000000000e+00
2.404648590000000041e+01 -3.430350494000000339e+01 3.244732666000000165e+01 0.000000000000000000e+00 0.000000000000000000e+00 0.000000000000000000e+00
2.375516319000000109e+01 -3.417758560000000045e+01 3.224140548999999822e+01 0.000000000000000000e+00 0.000000000000000000e+00 0.000000000000000000e+00
2.391227149999999924e+01 -3.411610412999999653e+01 3.215439223999999996e+01 0.000000000000000000e+00 0.000000000000000000e+00 0.000000000000000000e+00
2.634394454999999979e+01 -3.757158279000000078e+01 3.849994659000000041e+01 0.000000000000000000e+00 0.000000000000000000e+00 0.000000000000000000e+00
2.141754723000000027e+01 -3.534527588000000264e+01 3.642329787999999979e+01 0.000000000000000000e+00 0.000000000000000000e+00 0.000000000000000000e+00
1.970466614000000050e+01 -3.276956557999999831e+01 3.235660553000000306e+01 0.000000000000000000e+00 0.000000000000000000e+00 0.000000000000000000e+00
2.157149506000000017e+01 -3.539419173999999657e+01 3.634955977999999988e+01 0.000000000000000000e+00 0.000000000000000000e+00 0.000000000000000000e+00
2.008267783999999878e+01 -3.329664611999999835e+01 3.315462112000000161e+01 0.000000000000000000e+00 0.000000000000000000e+00 0.000000000000000000e+00
2.234015464999999878e+01 -3.653748321999999860e+01 3.814400100999999665e+01 0.000000000000000000e+00 0.000000000000000000e+00 0.000000000000000000e+00
2.071986580000000089e+01 -3.432556152000000083e+01 3.483707428000000306e+01 0.000000000000000000e+00 0.000000000000000000e+00 0.000000000000000000e+00
1.995892525000000006e+01 -3.316349791999999752e+01 3.298800658999999769e+01 0.000000000000000000e+00 0.000000000000000000e+00 0.000000000000000000e+00
2.118317223000000027e+01 -3.575249862999999806e+01 3.782095718000000062e+01 0.000000000000000000e+00 0.000000000000000000e+00 0.000000000000000000e+00
2.268435477999999961e+01 -3.746121979000000124e+01 3.996942901999999975e+01 0.000000000000000000e+00 0.000000000000000000e+00 0.000000000000000000e+00
2.204344559000000103e+01 -3.676852416999999917e+01 3.914002227999999661e+01 0.000000000000000000e+00 0.000000000000000000e+00 0.000000000000000000e+00
2.185724830999999924e+01 -3.635435486000000083e+01 3.839103317000000004e+01 0.000000000000000000e+00 0.000000000000000000e+00 0.000000000000000000e+00
2.184773253999999909e+01 -3.634088134999999653e+01 3.837110519000000153e+01 0.000000000000000000e+00 0.000000000000000000e+00 0.000000000000000000e+00
2.138045501999999942e+01 -3.600896835000000351e+01 3.817944717000000310e+01 0.000000000000000000e+00 0.000000000000000000e+00 0.000000000000000000e+00
2.009043502999999831e+01 -3.442253876000000190e+01 3.605149841000000066e+01 0.000000000000000000e+00 0.000000000000000000e+00 0.000000000000000000e+00
2.239713860000000167e+01 -3.727330399000000227e+01 3.989003754000000157e+01 0.000000000000000000e+00 0.000000000000000000e+00 0.000000000000000000e+00
2.215153313000000068e+01 -3.668120193000000029e+01 3.879283524000000227e+01 0.000000000000000000e+00 0.000000000000000000e+00 0.000000000000000000e+00
2.288637161000000120e+01 -3.756792068000000029e+01 3.996450806000000000e+01 0.000000000000000000e+00 0.000000000000000000e+00 0.000000000000000000e+00
2.014668273999999926e+01 -3.372939301000000256e+01 3.415370940999999760e+01 0.000000000000000000e+00 0.000000000000000000e+00 0.000000000000000000e+00
1.957258223999999913e+01 -3.278719711000000103e+01 3.256474304000000330e+01 0.000000000000000000e+00 0.000000000000000000e+00 0.000000000000000000e+00
2.108504486000000000e+01 -3.535526276000000223e+01 3.697899246000000062e+01 0.000000000000000000e+00 0.000000000000000000e+00 0.000000000000000000e+00
2.033881949999999961e+01 -3.421522903000000326e+01 3.513850784000000260e+01 0.000000000000000000e+00 0.000000000000000000e+00 0.000000000000000000e+00
2.036902809000000047e+01 -3.439770508000000149e+01 3.557519913000000145e+01 0.000000000000000000e+00 0.000000000000000000e+00 0.000000000000000000e+00
2.107120132000000012e+01 -3.526411818999999781e+01 3.675888823999999744e+01 0.000000000000000000e+00 0.000000000000000000e+00 0.000000000000000000e+00
2.107749556999999996e+01 -3.535102844000000033e+01 3.697976684999999719e+01 0.000000000000000000e+00 0.000000000000000000e+00 0.000000000000000000e+00
2.138202858000000006e+01 -3.546755600000000186e+01 3.680440140000000326e+01 0.000000000000000000e+00 0.000000000000000000e+00 0.000000000000000000e+00
1.935934448000000074e+01 -3.271761702999999954e+01 3.271945190000000281e+01 0.000000000000000000e+00 0.000000000000000000e+00 0.000000000000000000e+00
1.949101830000000035e+01 -3.275728989000000269e+01 3.261516953000000285e+01 0.000000000000000000e+00 0.000000000000000000e+00 0.000000000000000000e+00
2.003943634000000174e+01 -3.392672347999999971e+01 3.484876251000000025e+01 0.000000000000000000e+00 0.000000000000000000e+00 0.000000000000000000e+00
2.278718566999999950e+01 -3.730510712000000240e+01 3.944872284000000207e+01 0.000000000000000000e+00 0.000000000000000000e+00 0.000000000000000000e+00
1.925722312999999986e+01 -3.267288589000000343e+01 3.276323699999999661e+01 0.000000000000000000e+00 0.000000000000000000e+00 0.000000000000000000e+00
2.223336791999999917e+01 -3.660552597000000219e+01 3.847201156999999938e+01 0.000000000000000000e+00 0.000000000000000000e+00 0.000000000000000000e+00
1.948359108000000006e+01 -3.276339339999999822e+01 3.264320754999999963e+01 0.000000000000000000e+00 0.000000000000000000e+00 0.000000000000000000e+00
1.930818176000000008e+01 -3.319157028000000054e+01 3.406011580999999921e+01 0.000000000000000000e+00 0.000000000000000000e+00 0.000000000000000000e+00
2.021809195999999886e+01 -3.427686691000000252e+01 3.549451446999999860e+01 0.000000000000000000e+00 0.000000000000000000e+00 0.000000000000000000e+00
1.947113609000000167e+01 -3.351273345999999975e+01 3.465388106999999707e+01 0.000000000000000000e+00 0.000000000000000000e+00 0.000000000000000000e+00
1.963505553999999975e+01 -3.348386765000000054e+01 3.431615448000000157e+01 0.000000000000000000e+00 0.000000000000000000e+00 0.000000000000000000e+00
1.911313248000000087e+01 -3.260367584000000107e+01 3.280881119000000012e+01 0.000000000000000000e+00 0.000000000000000000e+00 0.000000000000000000e+00
1.946009444999999971e+01 -3.309832001000000190e+01 3.357045746000000008e+01 0.000000000000000000e+00 0.000000000000000000e+00 0.000000000000000000e+00
1.955908394000000072e+01 -3.292291259999999653e+01 3.294679260000000198e+01 0.000000000000000000e+00 0.000000000000000000e+00 0.000000000000000000e+00
1.940150261000000143e+01 -3.301501846000000029e+01 3.344244765999999913e+01 0.000000000000000000e+00 0.000000000000000000e+00 0.000000000000000000e+00
2.023634910999999903e+01 -3.389728164999999649e+01 3.445697402999999781e+01 0.000000000000000000e+00 0.000000000000000000e+00 0.000000000000000000e+00
2.066656494000000066e+01 -3.433192444000000165e+01 3.492662047999999686e+01 0.000000000000000000e+00 0.000000000000000000e+00 0.000000000000000000e+00
1.989034270999999876e+01 -3.396242523000000091e+01 3.518104552999999868e+01 0.000000000000000000e+00 0.000000000000000000e+00 0.000000000000000000e+00
2.407633209000000107e+01 -3.723175429999999864e+01 4.024230193999999727e+01 0.000000000000000000e+00 0.000000000000000000e+00 0.000000000000000000e+00
2.385748099999999994e+01 -3.716644669000000079e+01 4.043011855999999682e+01 0.000000000000000000e+00 0.000000000000000000e+00 0.000000000000000000e+00
2.501758385000000118e+01 -3.534083557000000297e+01 3.411913299999999793e+01 0.000000000000000000e+00 0.000000000000000000e+00 0.000000000000000000e+00
2.575096703000000176e+01 -3.643811798000000124e+01 3.583053970000000277e+01 0.000000000000000000e+00 0.000000000000000000e+00 0.000000000000000000e+00
2.357172393999999827e+01 -3.340815352999999988e+01 3.106330489999999855e+01 0.000000000000000000e+00 0.000000000000000000e+00 0.000000000000000000e+00
2.654910088000000101e+01 -3.756164932000000078e+01 3.837587357000000310e+01 0.000000000000000000e+00 0.000000000000000000e+00 0.000000000000000000e+00
2.646807288999999841e+01 -3.728471375000000165e+01 3.719506836000000050e+01 0.000000000000000000e+00 0.000000000000000000e+00 0.000000000000000000e+00
2.354498291000000165e+01 -3.309178543000000161e+01 3.062284470000000169e+01 0.000000000000000000e+00 0.000000000000000000e+00 0.000000000000000000e+00
2.369758033999999824e+01 -3.343784714000000236e+01 3.113817214999999905e+01 0.000000000000000000e+00 0.000000000000000000e+00 0.000000000000000000e+00
2.393956946999999857e+01 -3.356545257999999876e+01 3.138497733999999895e+01 0.000000000000000000e+00 0.000000000000000000e+00 0.000000000000000000e+00
2.602049637000000004e+01 -3.664080811000000182e+01 3.618621062999999793e+01 0.000000000000000000e+00 0.000000000000000000e+00 0.000000000000000000e+00
2.670158958000000027e+01 -3.743559264999999669e+01 3.749338149999999814e+01 0.000000000000000000e+00 0.000000000000000000e+00 0.000000000000000000e+00
2.656041335999999831e+01 -3.720273208999999781e+01 3.713790894000000264e+01 0.000000000000000000e+00 0.000000000000000000e+00 0.000000000000000000e+00
2.692889595000000114e+01 -3.773587035999999983e+01 3.797377776999999810e+01 0.000000000000000000e+00 0.000000000000000000e+00 0.000000000000000000e+00
2.648738098000000107e+01 -3.729857634999999760e+01 3.864944076999999822e+01 0.000000000000000000e+00 0.000000000000000000e+00 0.000000000000000000e+00
2.123051643000000155e+01 -3.595845795000000322e+01 3.828139113999999665e+01 0.000000000000000000e+00 0.000000000000000000e+00 0.000000000000000000e+00
2.258086395000000124e+01 -3.760162353999999851e+01 4.046117019999999798e+01 0.000000000000000000e+00 0.000000000000000000e+00 0.000000000000000000e+00
2.137004852000000099e+01 -3.612453842000000037e+01 3.849662018000000074e+01 0.000000000000000000e+00 0.000000000000000000e+00 0.000000000000000000e+00
2.084683228000000099e+01 -3.548605727999999715e+01 3.764715958000000029e+01 0.000000000000000000e+00 0.000000000000000000e+00 0.000000000000000000e+00
2.166114998000000114e+01 -3.643273162999999926e+01 3.884237671000000347e+01 0.000000000000000000e+00 0.000000000000000000e+00 0.000000000000000000e+00
2.361909865999999880e+01 -3.639433289000000116e+01 4.119104384999999979e+01 0.000000000000000000e+00 0.000000000000000000e+00 0.000000000000000000e+00
2.310539435999999824e+01 -3.756806564000000037e+01 4.054180526999999756e+01 0.000000000000000000e+00 0.000000000000000000e+00 0.000000000000000000e+00
2.497808265999999833e+01 -3.614941788000000145e+01 4.060153197999999719e+01 0.000000000000000000e+00 0.000000000000000000e+00 0.000000000000000000e+00
2.452820206000000169e+01 -3.540904617000000343e+01 4.145927429000000330e+01 0.000000000000000000e+00 0.000000000000000000e+00 0.000000000000000000e+00
2.448298644999999851e+01 -3.629082869999999872e+01 4.077420807000000025e+01 0.000000000000000000e+00 0.000000000000000000e+00 0.000000000000000000e+00
2.416549300999999872e+01 -3.620993804999999810e+01 4.102333449999999715e+01 0.000000000000000000e+00 0.000000000000000000e+00 0.000000000000000000e+00
2.473529053000000033e+01 -3.623279190000000227e+01 4.067489624000000248e+01 0.000000000000000000e+00 0.000000000000000000e+00 0.000000000000000000e+00
2.298533630000000016e+01 -3.736199187999999793e+01 4.077756119000000012e+01 0.000000000000000000e+00 0.000000000000000000e+00 0.000000000000000000e+00
2.422191047999999824e+01 -3.552732467999999955e+01 4.154125977000000347e+01 0.000000000000000000e+00 0.000000000000000000e+00 0.000000000000000000e+00
2.369056129000000155e+01 -3.710909270999999876e+01 4.057311630000000235e+01 0.000000000000000000e+00 0.000000000000000000e+00 0.000000000000000000e+00
2.405228423999999876e+01 -3.585126876999999723e+01 4.137820434999999719e+01 0.000000000000000000e+00 0.000000000000000000e+00 0.000000000000000000e+00
2.384886550999999955e+01 -3.537046813999999983e+01 4.188383483999999868e+01 0.000000000000000000e+00 0.000000000000000000e+00 0.000000000000000000e+00
2.475747871000000089e+01 -3.580889511000000169e+01 4.100396347000000219e+01 0.000000000000000000e+00 0.000000000000000000e+00 0.000000000000000000e+00
2.463397597999999888e+01 -3.670304107999999843e+01 4.035426331000000033e+01 0.000000000000000000e+00 0.000000000000000000e+00 0.000000000000000000e+00
2.407354735999999917e+01 -3.538318634000000174e+01 4.174345016000000186e+01 0.000000000000000000e+00 0.000000000000000000e+00 0.000000000000000000e+00
2.388080977999999988e+01 -3.680429840000000041e+01 4.070878600999999719e+01 0.000000000000000000e+00 0.000000000000000000e+00 0.000000000000000000e+00
2.299300957000000167e+01 -3.690948868000000260e+01 4.113790894000000264e+01 0.000000000000000000e+00 0.000000000000000000e+00 0.000000000000000000e+00
2.280204009999999926e+01 -3.720182419000000351e+01 4.101253127999999748e+01 0.000000000000000000e+00 0.000000000000000000e+00 0.000000000000000000e+00
2.389642715000000095e+01 -3.324831772000000285e+01 3.097419547999999878e+01 0.000000000000000000e+00 0.000000000000000000e+00 0.000000000000000000e+00
2.513553618999999983e+01 -3.500160979999999711e+01 3.373837280000000050e+01 0.000000000000000000e+00 0.000000000000000000e+00 0.000000000000000000e+00
2.371028519000000045e+01 -3.297940444999999698e+01 3.055218505999999934e+01 0.000000000000000000e+00 0.000000000000000000e+00 0.000000000000000000e+00
2.407566452000000012e+01 -3.343193435999999963e+01 3.128834914999999839e+01 0.000000000000000000e+00 0.000000000000000000e+00 0.000000000000000000e+00
2.419908333000000056e+01 -3.347373581000000087e+01 3.141769027999999864e+01 0.000000000000000000e+00 0.000000000000000000e+00 0.000000000000000000e+00
2.453043556000000081e+01 -3.399577713000000045e+01 3.221772766000000132e+01 0.000000000000000000e+00 0.000000000000000000e+00 0.000000000000000000e+00
2.505768203999999955e+01 -3.474164581000000140e+01 3.339794922000000099e+01 0.000000000000000000e+00 0.000000000000000000e+00 0.000000000000000000e+00
2.517243195000000000e+01 -3.474596024000000227e+01 3.348045349000000215e+01 0.000000000000000000e+00 0.000000000000000000e+00 0.000000000000000000e+00
2.589367104000000097e+01 -3.598225403000000000e+01 3.533244324000000347e+01 0.000000000000000000e+00 0.000000000000000000e+00 0.000000000000000000e+00
2.652551842000000093e+01 -3.680570983999999868e+01 3.666798400999999785e+01 0.000000000000000000e+00 0.000000000000000000e+00 0.000000000000000000e+00
2.687452507000000068e+01 -3.749987029999999777e+01 3.767016982999999897e+01 0.000000000000000000e+00 0.000000000000000000e+00 0.000000000000000000e+00
2.665814018000000019e+01 -3.730966186999999934e+01 3.853071975999999665e+01 0.000000000000000000e+00 0.000000000000000000e+00 0.000000000000000000e+00
2.084526062000000124e+01 -3.615902327999999954e+01 3.946478652999999781e+01 0.000000000000000000e+00 0.000000000000000000e+00 0.000000000000000000e+00
1.967703819000000109e+01 -3.411305999999999727e+01 3.589493179000000112e+01 0.000000000000000000e+00 0.000000000000000000e+00 0.000000000000000000e+00
1.959750556999999915e+01 -3.413840485000000058e+01 3.609590529999999831e+01 0.000000000000000000e+00 0.000000000000000000e+00 0.000000000000000000e+00
2.098873520000000070e+01 -3.591653441999999785e+01 3.857152939000000202e+01 0.000000000000000000e+00 0.000000000000000000e+00 0.000000000000000000e+00
2.082325935000000072e+01 -3.581723404000000244e+01 3.857966614000000050e+01 0.000000000000000000e+00 0.000000000000000000e+00 0.000000000000000000e+00
1.965689277999999973e+01 -3.414617919999999884e+01 3.601784514999999942e+01 0.000000000000000000e+00 0.000000000000000000e+00 0.000000000000000000e+00
2.039243317000000033e+01 -3.519196700999999905e+01 3.761176300000000339e+01 0.000000000000000000e+00 0.000000000000000000e+00 0.000000000000000000e+00
2.023141289000000143e+01 -3.475957489000000322e+01 3.671410370000000256e+01 0.000000000000000000e+00 0.000000000000000000e+00 0.000000000000000000e+00
2.154508017999999936e+01 -3.701683806999999859e+01 4.061130141999999665e+01 0.000000000000000000e+00 0.000000000000000000e+00 0.000000000000000000e+00
2.125875092000000066e+01 -3.636212539999999649e+01 3.932301331000000033e+01 0.000000000000000000e+00 0.000000000000000000e+00 0.000000000000000000e+00
2.033111571999999967e+01 -3.542211151000000058e+01 3.833472443000000141e+01 0.000000000000000000e+00 0.000000000000000000e+00 0.000000000000000000e+00
2.183415413000000171e+01 -3.716557693000000029e+01 4.053038406000000293e+01 0.000000000000000000e+00 0.000000000000000000e+00 0.000000000000000000e+00
2.190155791999999835e+01 -3.705950165000000140e+01 4.013188934000000074e+01 0.000000000000000000e+00 0.000000000000000000e+00 0.000000000000000000e+00
2.140488051999999897e+01 -3.629621886999999703e+01 3.890156936999999715e+01 0.000000000000000000e+00 0.000000000000000000e+00 0.000000000000000000e+00
1.902365302999999841e+01 -3.332555770999999822e+01 3.486061096000000248e+01 0.000000000000000000e+00 0.000000000000000000e+00 0.000000000000000000e+00
2.088348579000000171e+01 -3.605931091000000066e+01 3.913212585000000132e+01 0.000000000000000000e+00 0.000000000000000000e+00 0.000000000000000000e+00
2.111948586000000105e+01 -3.656382751000000297e+01 4.009925078999999926e+01 0.000000000000000000e+00 0.000000000000000000e+00 0.000000000000000000e+00
2.124098968999999926e+01 -3.682903290000000140e+01 4.061189269999999851e+01 0.000000000000000000e+00 0.000000000000000000e+00 0.000000000000000000e+00
2.148413848999999942e+01 -3.632339858999999649e+01 3.884269713999999851e+01 0.000000000000000000e+00 0.000000000000000000e+00 0.000000000000000000e+00
2.176221848000000136e+01 -3.685099029999999942e+01 3.980189896000000260e+01 0.000000000000000000e+00 0.000000000000000000e+00 0.000000000000000000e+00
2.148488044999999858e+01 -3.652550887999999674e+01 3.938656234999999839e+01 0.000000000000000000e+00 0.000000000000000000e+00 0.000000000000000000e+00
2.066437721000000138e+01 -3.578263855000000149e+01 3.875130844000000252e+01 0.000000000000000000e+00 0.000000000000000000e+00 0.000000000000000000e+00
2.161359786999999955e+01 -3.672441483000000062e+01 3.970836639000000190e+01 0.000000000000000000e+00 0.000000000000000000e+00 0.000000000000000000e+00
2.128472136999999975e+01 -3.626458359000000087e+01 3.901662445000000190e+01 0.000000000000000000e+00 0.000000000000000000e+00 0.000000000000000000e+00
2.235566710999999884e+01 -3.754245377000000161e+01 4.099151229999999657e+01 0.000000000000000000e+00 0.000000000000000000e+00 0.000000000000000000e+00
2.163340569000000002e+01 -3.667271042000000136e+01 4.208016967999999736e+01 0.000000000000000000e+00 0.000000000000000000e+00 0.000000000000000000e+00
2.310042572000000050e+01 -3.566975403000000000e+01 4.206592559999999992e+01 0.000000000000000000e+00 0.000000000000000000e+00 0.000000000000000000e+00
2.202885245999999952e+01 -3.671077728000000207e+01 4.182977676000000145e+01 0.000000000000000000e+00 0.000000000000000000e+00 0.000000000000000000e+00
2.301227570000000000e+01 -3.629339217999999789e+01 4.161890792999999888e+01 0.000000000000000000e+00 0.000000000000000000e+00 0.000000000000000000e+00
2.253834914999999839e+01 -3.723041534000000041e+01 4.113566588999999851e+01 0.000000000000000000e+00 0.000000000000000000e+00 0.000000000000000000e+00
2.298994446000000025e+01 -3.618328857000000198e+01 4.171873474000000215e+01 0.000000000000000000e+00 0.000000000000000000e+00 0.000000000000000000e+00
2.219125748000000087e+01 -3.687085342000000310e+01 4.161294556000000000e+01 0.000000000000000000e+00 0.000000000000000000e+00 0.000000000000000000e+00
2.260587692000000004e+01 -3.707920456000000087e+01 4.121858978000000207e+01 0.000000000000000000e+00 0.000000000000000000e+00 0.000000000000000000e+00
2.252989197000000132e+01 -3.586782836999999802e+01 4.222328567999999649e+01 0.000000000000000000e+00 0.000000000000000000e+00 0.000000000000000000e+00
2.268409537999999870e+01 -3.625919342000000256e+01 4.182715988000000351e+01 0.000000000000000000e+00 0.000000000000000000e+00 0.000000000000000000e+00
2.287630462999999992e+01 -3.685089110999999917e+01 4.125084305000000029e+01 0.000000000000000000e+00 0.000000000000000000e+00 0.000000000000000000e+00
2.307635498000000140e+01 -3.624737929999999864e+01 4.162012099999999748e+01 0.000000000000000000e+00 0.000000000000000000e+00 0.000000000000000000e+00
2.274320601999999880e+01 -3.557373427999999649e+01 4.233933257999999711e+01 0.000000000000000000e+00 0.000000000000000000e+00 0.000000000000000000e+00
2.208117866999999990e+01 -3.705308533000000182e+01 4.152885056000000219e+01 0.000000000000000000e+00 0.000000000000000000e+00 0.000000000000000000e+00
2.695982933000000159e+01 -3.730915069999999645e+01 3.752429962000000074e+01 0.000000000000000000e+00 0.000000000000000000e+00 0.000000000000000000e+00
2.675558853000000070e+01 -3.698596191000000033e+01 3.703189086999999802e+01 0.000000000000000000e+00 0.000000000000000000e+00 0.000000000000000000e+00
2.379151535000000095e+01 -3.241578292999999888e+01 3.001866722000000109e+01 0.000000000000000000e+00 0.000000000000000000e+00 0.000000000000000000e+00
2.608114242999999988e+01 -3.591899871999999760e+01 3.540971375000000165e+01 0.000000000000000000e+00 0.000000000000000000e+00 0.000000000000000000e+00
2.429624366999999907e+01 -3.317589568999999727e+01 3.119552039999999948e+01 0.000000000000000000e+00 0.000000000000000000e+00 0.000000000000000000e+00
2.578711128000000130e+01 -3.539883422999999851e+01 3.465339661000000149e+01 0.000000000000000000e+00 0.000000000000000000e+00 0.000000000000000000e+00
2.622280121000000008e+01 -3.604730605999999682e+01 3.566298676000000256e+01 0.000000000000000000e+00 0.000000000000000000e+00 0.000000000000000000e+00
2.559687233000000006e+01 -3.504251479999999930e+01 3.414703369000000066e+01 0.000000000000000000e+00 0.000000000000000000e+00 0.000000000000000000e+00
2.404868697999999938e+01 -3.250581740999999880e+01 3.037670707999999919e+01 0.000000000000000000e+00 0.000000000000000000e+00 0.000000000000000000e+00
2.471873473999999860e+01 -3.354529190000000227e+01 3.196043968000000035e+01 0.000000000000000000e+00 0.000000000000000000e+00 0.000000000000000000e+00
2.390328407000000155e+01 -3.252645874000000248e+01 3.022949408999999932e+01 0.000000000000000000e+00 0.000000000000000000e+00 0.000000000000000000e+00
2.390492821000000134e+01 -3.228369521999999847e+01 3.003772163000000006e+01 0.000000000000000000e+00 0.000000000000000000e+00 0.000000000000000000e+00
2.732137871000000118e+01 -3.742665862999999860e+01 3.799190520999999876e+01 0.000000000000000000e+00 0.000000000000000000e+00 0.000000000000000000e+00
2.618475533000000155e+01 -3.564421844000000306e+01 3.529252625000000165e+01 0.000000000000000000e+00 0.000000000000000000e+00 0.000000000000000000e+00
1.904373169000000132e+01 -3.398421478000000207e+01 3.670764541999999864e+01 0.000000000000000000e+00 0.000000000000000000e+00 0.000000000000000000e+00
2.109293175000000176e+01 -3.687159728999999686e+01 4.101612853999999686e+01 0.000000000000000000e+00 0.000000000000000000e+00 0.000000000000000000e+00
2.037375450000000043e+01 -3.592535019000000318e+01 3.969867706000000140e+01 0.000000000000000000e+00 0.000000000000000000e+00 0.000000000000000000e+00
2.067916106999999926e+01 -3.621120833999999888e+01 3.992170715000000314e+01 0.000000000000000000e+00 0.000000000000000000e+00 0.000000000000000000e+00
1.928057098000000025e+01 -3.431629181000000273e+01 3.720086288000000252e+01 0.000000000000000000e+00 0.000000000000000000e+00 0.000000000000000000e+00
2.094242476999999880e+01 -3.667001723999999996e+01 4.073011397999999872e+01 0.000000000000000000e+00 0.000000000000000000e+00 0.000000000000000000e+00
1.822359657000000155e+01 -3.285131836000000050e+01 3.504914093000000008e+01 0.000000000000000000e+00 0.000000000000000000e+00 0.000000000000000000e+00
2.125304030999999938e+01 -3.700414276000000058e+01 4.108281707999999810e+01 0.000000000000000000e+00 0.000000000000000000e+00 0.000000000000000000e+00
1.953231239000000130e+01 -3.476107406999999938e+01 3.799143981999999653e+01 0.000000000000000000e+00 0.000000000000000000e+00 0.000000000000000000e+00
1.934568024000000008e+01 -3.407205962999999826e+01 3.637130736999999669e+01 0.000000000000000000e+00 0.000000000000000000e+00 0.000000000000000000e+00
1.839780806999999996e+01 -3.289402771000000314e+01 3.483204650999999785e+01 0.000000000000000000e+00 0.000000000000000000e+00 0.000000000000000000e+00
1.909565926000000147e+01 -3.351832962000000293e+01 3.526727294999999884e+01 0.000000000000000000e+00 0.000000000000000000e+00 0.000000000000000000e+00
1.819860076999999876e+01 -3.265402602999999715e+01 3.453030777000000029e+01 0.000000000000000000e+00 0.000000000000000000e+00 0.000000000000000000e+00
1.794085503000000159e+01 -3.240528869999999984e+01 3.431739426000000037e+01 0.000000000000000000e+00 0.000000000000000000e+00 0.000000000000000000e+00
1.921646880999999851e+01 -3.416499328999999818e+01 3.688971329000000310e+01 0.000000000000000000e+00 0.000000000000000000e+00 0.000000000000000000e+00
1.946099471999999864e+01 -3.407490921000000128e+01 3.615507507000000231e+01 0.000000000000000000e+00 0.000000000000000000e+00 0.000000000000000000e+00
1.897554969999999841e+01 -3.374185562000000260e+01 3.614308928999999893e+01 0.000000000000000000e+00 0.000000000000000000e+00 0.000000000000000000e+00
1.834690665999999837e+01 -3.266607284999999905e+01 3.427630234000000087e+01 0.000000000000000000e+00 0.000000000000000000e+00 0.000000000000000000e+00
1.798759270000000043e+01 -3.223041534000000041e+01 3.372412491000000045e+01 0.000000000000000000e+00 0.000000000000000000e+00 0.000000000000000000e+00
1.952575493000000151e+01 -3.458844756999999959e+01 3.750418471999999781e+01 0.000000000000000000e+00 0.000000000000000000e+00 0.000000000000000000e+00
2.040091705000000033e+01 -3.557983397999999653e+01 3.864880752999999913e+01 0.000000000000000000e+00 0.000000000000000000e+00 0.000000000000000000e+00
1.846346855000000176e+01 -3.253832245000000256e+01 3.368249893000000128e+01 0.000000000000000000e+00 0.000000000000000000e+00 0.000000000000000000e+00
1.832221222000000083e+01 -3.274926375999999806e+01 3.456331635000000091e+01 0.000000000000000000e+00 0.000000000000000000e+00 0.000000000000000000e+00
1.961687468999999950e+01 -3.447335815000000281e+01 3.699627303999999839e+01 0.000000000000000000e+00 0.000000000000000000e+00 0.000000000000000000e+00
1.890505981000000091e+01 -3.360977935999999744e+01 3.590087508999999955e+01 0.000000000000000000e+00 0.000000000000000000e+00 0.000000000000000000e+00
1.873623466000000093e+01 -3.338501357999999897e+01 3.558379364000000322e+01 0.000000000000000000e+00 0.000000000000000000e+00 0.000000000000000000e+00
2.124058150999999839e+01 -3.709888077000000095e+01 4.197824097000000165e+01 0.000000000000000000e+00 0.000000000000000000e+00 0.000000000000000000e+00
2.721050835000000134e+01 -3.694169617000000017e+01 3.751795958999999669e+01 0.000000000000000000e+00 0.000000000000000000e+00 0.000000000000000000e+00
2.673328208999999944e+01 -3.631941222999999752e+01 3.646398162999999926e+01 0.000000000000000000e+00 0.000000000000000000e+00 0.000000000000000000e+00
2.399405478999999985e+01 -3.240430068999999946e+01 3.023573112000000052e+01 0.000000000000000000e+00 0.000000000000000000e+00 0.000000000000000000e+00
2.467864417999999915e+01 -3.318701172000000099e+01 3.166740035999999847e+01 0.000000000000000000e+00 0.000000000000000000e+00 0.000000000000000000e+00
2.635348700999999849e+01 -3.576655578999999818e+01 3.559383010999999897e+01 0.000000000000000000e+00 0.000000000000000000e+00 0.000000000000000000e+00
2.533749579999999924e+01 -3.398712920999999909e+01 3.310161209000000326e+01 0.000000000000000000e+00 0.000000000000000000e+00 0.000000000000000000e+00
2.400653076000000041e+01 -3.208945465000000041e+01 3.006454276999999919e+01 0.000000000000000000e+00 0.000000000000000000e+00 0.000000000000000000e+00
2.657281684999999882e+01 -3.592512131000000153e+01 3.600647735999999810e+01 0.000000000000000000e+00 0.000000000000000000e+00 0.000000000000000000e+00
2.655234146000000095e+01 -3.681883239999999802e+01 3.904340363000000025e+01 0.000000000000000000e+00 0.000000000000000000e+00 0.000000000000000000e+00
2.179178238000000079e+01 -3.501376342999999736e+01 2.821390342999999845e+01 0.000000000000000000e+00 0.000000000000000000e+00 0.000000000000000000e+00
2.228314208999999835e+01 -3.533078002999999967e+01 2.741468048000000124e+01 0.000000000000000000e+00 0.000000000000000000e+00 0.000000000000000000e+00
2.162473679000000004e+01 -3.522202682000000351e+01 2.807039642000000157e+01 0.000000000000000000e+00 0.000000000000000000e+00 0.000000000000000000e+00
2.233684348999999969e+01 -3.533318329000000091e+01 2.736969566000000142e+01 0.000000000000000000e+00 0.000000000000000000e+00 0.000000000000000000e+00
2.141545295999999965e+01 -3.524768828999999926e+01 2.819968795999999855e+01 0.000000000000000000e+00 0.000000000000000000e+00 0.000000000000000000e+00
2.279491425000000149e+01 -3.471990204000000091e+01 2.781865310999999963e+01 0.000000000000000000e+00 0.000000000000000000e+00 0.000000000000000000e+00
2.130905342000000147e+01 -3.514773940999999979e+01 2.841388129999999990e+01 0.000000000000000000e+00 0.000000000000000000e+00 0.000000000000000000e+00
2.293063735999999864e+01 -3.488098906999999826e+01 2.750130081000000004e+01 0.000000000000000000e+00 0.000000000000000000e+00 0.000000000000000000e+00
2.179047011999999839e+01 -3.558163070999999888e+01 2.746884727000000126e+01 0.000000000000000000e+00 0.000000000000000000e+00 0.000000000000000000e+00
2.275056839000000153e+01 -3.472606659000000207e+01 2.784509849999999886e+01 0.000000000000000000e+00 0.000000000000000000e+00 0.000000000000000000e+00
2.080558586000000076e+01 -3.552372742000000017e+01 2.831204414000000114e+01 0.000000000000000000e+00 0.000000000000000000e+00 0.000000000000000000e+00
1.973919296000000045e+01 -3.714379120000000256e+01 2.701416968999999924e+01 0.000000000000000000e+00 0.000000000000000000e+00 0.000000000000000000e+00
2.029807281000000074e+01 -3.656621169999999665e+01 2.733769798000000151e+01 0.000000000000000000e+00 0.000000000000000000e+00 0.000000000000000000e+00
2.001371573999999853e+01 -3.665395737000000054e+01 2.744389915000000002e+01 0.000000000000000000e+00 0.000000000000000000e+00 0.000000000000000000e+00
2.101418877000000052e+01 -3.549245070999999996e+01 2.819065475000000021e+01 0.000000000000000000e+00 0.000000000000000000e+00 0.000000000000000000e+00
1.999192619000000093e+01 -3.692703247000000033e+01 2.710209273999999979e+01 0.000000000000000000e+00 0.000000000000000000e+00 0.000000000000000000e+00
2.056174659999999932e+01 -3.605017089999999769e+01 2.781030846000000167e+01 0.000000000000000000e+00 0.000000000000000000e+00 0.000000000000000000e+00
2.083631897000000066e+01 -3.499885558999999802e+01 2.897271156000000047e+01 0.000000000000000000e+00 0.000000000000000000e+00 0.000000000000000000e+00
1.996605492000000126e+01 -3.473196793000000326e+01 2.988566780000000023e+01 0.000000000000000000e+00 0.000000000000000000e+00 0.000000000000000000e+00
1.905241776000000087e+01 -3.508813095000000004e+01 3.005129051000000118e+01 0.000000000000000000e+00 0.000000000000000000e+00 0.000000000000000000e+00
1.995223998999999893e+01 -3.560388946999999860e+01 2.880854988000000105e+01 0.000000000000000000e+00 0.000000000000000000e+00 0.000000000000000000e+00
2.036580466999999928e+01 -3.560890960999999777e+01 2.852646255000000153e+01 0.000000000000000000e+00 0.000000000000000000e+00 0.000000000000000000e+00
1.993140602000000072e+01 -3.493555450000000207e+01 2.965512847999999835e+01 0.000000000000000000e+00 0.000000000000000000e+00 0.000000000000000000e+00
1.985665321000000105e+01 -3.533956528000000219e+01 2.920162391999999940e+01 0.000000000000000000e+00 0.000000000000000000e+00 0.000000000000000000e+00
1.965054892999999936e+01 -3.671940993999999847e+01 2.761993216999999845e+01 0.000000000000000000e+00 0.000000000000000000e+00 0.000000000000000000e+00
2.029889487999999886e+01 -3.521221541999999971e+01 2.906533240999999990e+01 0.000000000000000000e+00 0.000000000000000000e+00 0.000000000000000000e+00
1.965323830000000171e+01 -3.562267684999999773e+01 2.898456572999999992e+01 0.000000000000000000e+00 0.000000000000000000e+00 0.000000000000000000e+00
2.041336822999999967e+01 -3.495523834000000107e+01 2.930915260000000089e+01 0.000000000000000000e+00 0.000000000000000000e+00 0.000000000000000000e+00
1.939432525999999868e+01 -3.616733169999999831e+01 2.847866439999999955e+01 0.000000000000000000e+00 0.000000000000000000e+00 0.000000000000000000e+00
1.934331131000000070e+01 -3.514506149000000335e+01 2.978634453000000093e+01 0.000000000000000000e+00 0.000000000000000000e+00 0.000000000000000000e+00
1.936590003999999965e+01 -3.536915206999999839e+01 2.949208259999999981e+01 0.000000000000000000e+00 0.000000000000000000e+00 0.000000000000000000e+00
1.977464867000000126e+01 -3.640827941999999950e+01 2.792480086999999855e+01 0.000000000000000000e+00 0.000000000000000000e+00 0.000000000000000000e+00
1.971953772999999899e+01 -3.691119384999999653e+01 2.733497237999999996e+01 0.000000000000000000e+00 0.000000000000000000e+00 0.000000000000000000e+00
1.975617408999999824e+01 -3.611434555000000302e+01 2.830333710000000025e+01 0.000000000000000000e+00 0.000000000000000000e+00 0.000000000000000000e+00
1.849036025999999922e+01 -3.633063125999999698e+01 2.887812423999999822e+01 0.000000000000000000e+00 0.000000000000000000e+00 0.000000000000000000e+00
1.859352111999999835e+01 -3.661384200999999905e+01 2.845647049000000095e+01 0.000000000000000000e+00 0.000000000000000000e+00 0.000000000000000000e+00
1.796579552000000035e+01 -3.653639984000000140e+01 2.897162627999999884e+01 0.000000000000000000e+00 0.000000000000000000e+00 0.000000000000000000e+00
1.918925095000000169e+01 -3.624747085999999996e+01 2.851559638999999891e+01 0.000000000000000000e+00 0.000000000000000000e+00 0.000000000000000000e+00
1.794553184999999829e+01 -3.672471619000000231e+01 2.875051689000000010e+01 0.000000000000000000e+00 0.000000000000000000e+00 0.000000000000000000e+00
1.886135482999999979e+01 -3.664978027000000083e+01 2.823305510999999868e+01 0.000000000000000000e+00 0.000000000000000000e+00 0.000000000000000000e+00
1.815371894999999824e+01 -3.608844375999999698e+01 2.940439415000000167e+01 0.000000000000000000e+00 0.000000000000000000e+00 0.000000000000000000e+00
1.797700118999999930e+01 -3.649396515000000107e+01 2.901702308999999858e+01 0.000000000000000000e+00 0.000000000000000000e+00 0.000000000000000000e+00
1.874253653999999969e+01 -3.580224608999999703e+01 2.936824799000000041e+01 0.000000000000000000e+00 0.000000000000000000e+00 0.000000000000000000e+00
1.919455909999999932e+01 -3.711535262999999674e+01 2.743075561999999934e+01 0.000000000000000000e+00 0.000000000000000000e+00 0.000000000000000000e+00
1.854453278000000083e+01 -3.618489455999999649e+01 2.902357291999999944e+01 0.000000000000000000e+00 0.000000000000000000e+00 0.000000000000000000e+00
1.921173858999999950e+01 -3.610271071999999748e+01 2.868095969999999895e+01 0.000000000000000000e+00 0.000000000000000000e+00 0.000000000000000000e+00
1.934642219999999924e+01 -3.696752930000000248e+01 2.751363944999999944e+01 0.000000000000000000e+00 0.000000000000000000e+00 0.000000000000000000e+00
1.872302245999999926e+01 -3.545538711999999748e+01 2.981341743000000122e+01 0.000000000000000000e+00 0.000000000000000000e+00 0.000000000000000000e+00
1.906987761999999975e+01 -3.647002410999999711e+01 2.831793594000000169e+01 0.000000000000000000e+00 0.000000000000000000e+00 0.000000000000000000e+00
1.810476875000000163e+01 -3.643616104000000178e+01 2.900382422999999932e+01 0.000000000000000000e+00 0.000000000000000000e+00 0.000000000000000000e+00
