4.018581957429999818e+01 1.591947431770000065e+01 2.504273719449999902e+01 8.007548434183567876e-01 3.296106600912587781e-01 5.001484714524754294e-01
4.003741845729999937e+01 1.630615216070000173e+01 2.503252377500000136e+01 7.988141058627915569e-01 3.338892721637647387e-01 5.004138069723698123e-01
3.988662735199999787e+01 1.669096057439999825e+01 2.502089831259999997e+01 7.967248355066429699e-01 3.386330499338909839e-01 5.005568838597505010e-01
3.973344654870000170e+01 1.707389978579999834e+01 2.500786097880000014e+01 7.945258474274173865e-01 3.432884104283159821e-01 5.008809689290906197e-01
3.957787633760000290e+01 1.745497002189999947e+01 2.499341194499999830e+01 7.921500655928661594e-01 3.485789731690717153e-01 5.009899929595537094e-01
3.941991700900000239e+01 1.783417150980000088e+01 2.497755138280000153e+01 7.896418379611978011e-01 3.544430911260510464e-01 5.008351653930375180e-01
3.925956885299999755e+01 1.821150447650000004e+01 2.496027946370000095e+01 7.864784210633192219e-01 3.617275351041075448e-01 5.006045181071131500e-01
3.909683215999999817e+01 1.858696914889999974e+01 2.494159635899999827e+01 7.832545295656102580e-01 3.690133983968995612e-01 5.003413372074366761e-01
3.893170722010000162e+01 1.896056575420000101e+01 2.492150224039999884e+01 7.799702361119735805e-01 3.762991800647816354e-01 5.000453558048559843e-01
3.876419432349999994e+01 1.933229451929999954e+01 2.489999727920000083e+01 7.766256490856623396e-01 3.835833642625914863e-01 4.997163233708357688e-01
3.859429376069999762e+01 1.970215567130000167e+01 2.487708164689999890e+01 7.732209130544411835e-01 3.908644215809263800e-01 4.993540062495385734e-01
3.842200582169999734e+01 2.007014943720000133e+01 2.485275551510000014e+01 7.696947664936097944e-01 3.984776933309033264e-01 4.987840157322908086e-01
3.824733079680000003e+01 2.043627604399999953e+01 2.482701905509999918e+01 7.661678940512332003e-01 4.057476707906098601e-01 4.983528727448988671e-01
3.807026897619999772e+01 2.080053571870000084e+01 2.479987243849999956e+01 7.625815323126282630e-01 4.130097977961393330e-01 4.978878523323462257e-01
3.789082065030000024e+01 2.116292868829999918e+01 2.477131583679999949e+01 7.589359754644651179e-01 4.202625046027499423e-01 4.973887939739134456e-01
3.770898610910000315e+01 2.152345517999999913e+01 2.474134942139999893e+01 7.554086861618259929e-01 4.272876634580405897e-01 4.967725531144332463e-01
3.752476564309999674e+01 2.188211542060000170e+01 2.470997336379999965e+01 7.516477149945959280e-01 4.345173206312650249e-01 4.962060163025323045e-01
3.733815954229999790e+01 2.223890963719999903e+01 2.467718783549999984e+01 7.480137708981580147e-01 4.416740920282701266e-01 4.953780323931625817e-01
3.714916809700000044e+01 2.259383805690000102e+01 2.464299300800000125e+01 7.441379396478193797e-01 4.488743999658825201e-01 4.947428623355443200e-01
3.695779159759999999e+01 2.294690090670000160e+01 2.460738905259999854e+01 7.402049098400614868e-01 4.560574481835373284e-01 4.940731680682393656e-01
3.676403033420000099e+01 2.329809841349999999e+01 2.457037614100000056e+01 7.362151996302161994e-01 4.632216535424206194e-01 4.933689081436591906e-01
3.656788459700000260e+01 2.364743080439999900e+01 2.453195444460000019e+01 7.321693644468473261e-01 4.703654363854142262e-01 4.926300620338334713e-01
3.636935467629999863e+01 2.399489830650000144e+01 2.449212413489999918e+01 7.281412853258224516e-01 4.772431609198006242e-01 4.919849936322617800e-01
3.616844086230000244e+01 2.434050114669999942e+01 2.445088538330000105e+01 7.241914043848199922e-01 4.842005278178653782e-01 4.910159454397004519e-01
3.596514344540000252e+01 2.468423955209999932e+01 2.440823836130000046e+01 7.199839389374846910e-01 4.912751041000911756e-01 4.901753765373255689e-01
3.575946271560000156e+01 2.502611374969999858e+01 2.436418324039999916e+01 7.159236700755119420e-01 4.981861557661347861e-01 4.891460444780985073e-01
3.555139896330000226e+01 2.536612396649999823e+01 2.431872019209999891e+01 7.116110551627373715e-01 5.052068529070844471e-01 4.882373827820798429e-01
3.534095247860000200e+01 2.570427042960000108e+01 2.427184938790000146e+01 7.072463353301192690e-01 5.121979348939627030e-01 4.872944660597700595e-01
3.512812355190000346e+01 2.604055336589999925e+01 2.422357099919999968e+01 7.028165492866031983e-01 5.193668835568949760e-01 4.861141206684601590e-01
3.491291247329999692e+01 2.637497300249999910e+01 2.417388519749999887e+01 6.984068437868596879e-01 5.264339877506658549e-01 4.848661022309240787e-01
3.469531953319999928e+01 2.670752956640000164e+01 2.412279215430000079e+01 6.938886730708270223e-01 5.333261766875316834e-01 4.838199031084465251e-01
3.447534502170000081e+01 2.703822328460000080e+01 2.407029204110000009e+01 6.893218191595424926e-01 5.401827525933248220e-01 4.827401199727219261e-01
3.425298922900000065e+01 2.736705438419999936e+01 2.401638502930000030e+01 6.847072138281434794e-01 5.470022822550298924e-01 4.816269661672712421e-01
3.402825244550000150e+01 2.769402309219999836e+01 2.396107129039999961e+01 6.800458186631666013e-01 5.537833553593570768e-01 4.804806758296066294e-01
3.380113496140000251e+01 2.801912963550000057e+01 2.390435099600000157e+01 6.753386240630955273e-01 5.605245859493296345e-01 4.793015036434766230e-01
3.357163706680000104e+01 2.834237424129999994e+01 2.384622431740000081e+01 6.705866481858087091e-01 5.672246138429423157e-01 4.780897245555979502e-01
3.333975905199999801e+01 2.866375713649999923e+01 2.378669142609999909e+01 6.656040926210531339e-01 5.739288108046656234e-01 4.770502195937518231e-01
3.310550120740000324e+01 2.898327854809999948e+01 2.372575249369999995e+01 6.607652522441941345e-01 5.805417230792393468e-01 4.757736743356595910e-01
3.286886382299999809e+01 2.930093870330000172e+01 2.366340769159999979e+01 6.556661080081529480e-01 5.872362123095817843e-01 4.746109836084040356e-01
3.262984718919999949e+01 2.961673782900000162e+01 2.359965719130000039e+01 6.507444071145838116e-01 5.937563719651153260e-01 4.732706280342278138e-01
3.238845159619999947e+01 2.993067615209999843e+01 2.353450116420000171e+01 6.458104127296495633e-01 6.000348269327592243e-01 4.721092217673082403e-01
3.214467733419999718e+01 3.024275389989999852e+01 2.346793978190000018e+01 6.408124538337971465e-01 6.064597192577922957e-01 4.707079858354508706e-01
3.189852469339999885e+01 3.055297129919999932e+01 2.339997321579999934e+01 6.358059963159764516e-01 6.126373727590861407e-01 4.694956704246514012e-01
3.164999396420000011e+01 3.086132857710000010e+01 2.333060163740000093e+01 6.309518148065074161e-01 6.187860091823402797e-01 4.679782924800756638e-01
3.139908543669999830e+01 3.116782596059999833e+01 2.325982521819999960e+01 6.258486137546257488e-01 6.250608743835617265e-01 4.664894596625636658e-01
3.114579940120000145e+01 3.147246367669999856e+01 2.318764412959999888e+01 6.207120532297537574e-01 6.312826859953384329e-01 4.649717382140707844e-01
3.089013614790000162e+01 3.177524195250000005e+01 2.311405854319999875e+01 6.155433751040818580e-01 6.374504441000518051e-01 4.634255977847172026e-01
3.063209596700000148e+01 3.207616101499999672e+01 2.303906863039999919e+01 6.103438336533589803e-01 6.435631871280421690e-01 4.618515225642516042e-01
3.037167914890000020e+01 3.237522109119999669e+01 2.296267456260000017e+01 6.050647041902265100e-01 6.494822179387863548e-01 4.605101001330031418e-01
3.010888598360000046e+01 3.267242240819999921e+01 2.288487651140000168e+01 5.998079402684481920e-01 6.554829544494206184e-01 4.588818270722655468e-01
2.984371676159999964e+01 3.296776519280000173e+01 2.280567464829999835e+01 5.945241261938687405e-01 6.614260456722318438e-01 4.572271311720372822e-01
2.957617177290000043e+01 3.326124967230000351e+01 2.272506914459999905e+01 5.893342143342957806e-01 6.670987000484998042e-01 4.557022143994697294e-01
2.930625130789999844e+01 3.355287607350000201e+01 2.264306017199999843e+01 5.840010798836964279e-01 6.729260710967743808e-01 4.539969620305130960e-01
2.903395565679999990e+01 3.384264462360000181e+01 2.255964790179999824e+01 5.786447392149175473e-01 6.786935347920802775e-01 4.522669030675705582e-01
2.875928510980000041e+01 3.413055554950000214e+01 2.247483250559999846e+01 5.730028496474843802e-01 6.847396944902259808e-01 4.503324162052895763e-01
2.848223995720000090e+01 3.441660907819999693e+01 2.238861415470000082e+01 5.675561090506039408e-01 6.902493776299597483e-01 4.488160645083819067e-01
2.820282048920000051e+01 3.470080543689999786e+01 2.230099302080000001e+01 5.621373617388657484e-01 6.958305791195531498e-01 4.470138607464145819e-01
2.792102699599999838e+01 3.498314485240000238e+01 2.221196927529999954e+01 5.567006749840740509e-01 7.013493756265039014e-01 4.451891865045574659e-01
2.763685976789999899e+01 3.526362755190000087e+01 2.212154308970000116e+01 5.512473466419440804e-01 7.068052526954842207e-01 4.433426412858219035e-01
2.735031909510000148e+01 3.554225376229999966e+01 2.202971463529999951e+01 5.468426078799917267e-01 7.111596750213080576e-01 4.418315050226694907e-01
2.706140526780000144e+01 3.581902371070000157e+01 2.193648408379999992e+01 5.428196032907824931e-01 7.150911146540445129e-01 4.404447479833011880e-01
2.677011857640000159e+01 3.609393762399999872e+01 2.184185160659999880e+01 5.388308269926121996e-01 7.189446914884495277e-01 4.390670455215647805e-01
2.647645931090000104e+01 3.636699572940000280e+01 2.174581737509999968e+01 5.347869736352512948e-01 7.228624130062748510e-01 4.375760787483645164e-01
2.618042776180000075e+01 3.663819825379999884e+01 2.164838156089999899e+01 5.311614882937975013e-01 7.262817105385441785e-01 4.363282597892604309e-01
2.588202421920000162e+01 3.690754542429999674e+01 2.154954433540000025e+01 5.277494229125949676e-01 7.297398729036017606e-01 4.346955998282692191e-01
2.558124897329999925e+01 3.717503746789999752e+01 2.144930587010000167e+01 5.243796201831046888e-01 7.328628527584412078e-01 4.335182268179531562e-01
2.527810231429999988e+01 3.744067461160000221e+01 2.134766633650000145e+01 5.208588431904964677e-01 7.360955956508985487e-01 4.322838645307114369e-01
2.497258453270000089e+01 3.770445708239999760e+01 2.124462590610000134e+01 5.171575193597657272e-01 7.394616410368863857e-01 4.309809527168085852e-01
4.056285217149999767e+01 1.428134057860000006e+01 2.542174285389999966e+01 8.042846926454115808e-01 3.119248027378465071e-01 5.057954632193050193e-01
4.042401313319999900e+01 1.467549780150000061e+01 2.541717886169999829e+01 8.024324299690243079e-01 3.162304117923866453e-01 5.060637528924832873e-01
4.028278294569999929e+01 1.506778468709999963e+01 2.541120214069999861e+01 8.006526203356484350e-01 3.204700490040409133e-01 5.062156943843288959e-01
4.013916189919999766e+01 1.545820146219999991e+01 2.540381286250000059e+01 7.989286528154564415e-01 3.246218835386962542e-01 5.062940256790212645e-01
3.999315028400000216e+01 1.584674835390000069e+01 2.539501119839999888e+01 7.968417747085022595e-01 3.291119558687184976e-01 5.066838329606255797e-01
3.984474839020000303e+01 1.623342558939999947e+01 2.538479731989999877e+01 7.950960953747620019e-01 3.332938917036767923e-01 5.066925901104388785e-01
3.969395650820000299e+01 1.661823339549999901e+01 2.537317139860000026e+01 7.930838937215168860e-01 3.376506316251925433e-01 5.069615256433431805e-01
3.954077492809999939e+01 1.700117199929999856e+01 2.536013360589999976e+01 7.908393300241848278e-01 3.425517986917660518e-01 5.071798687841763131e-01
3.938520394030000205e+01 1.738224162790000094e+01 2.534568411320000081e+01 7.886952161371942882e-01 3.473953002176939919e-01 5.072241727569405390e-01
3.922724383490000122e+01 1.776144250819999826e+01 2.532982309209999983e+01 7.863116794551038291e-01 3.530335313593558344e-01 5.070318219682438121e-01
3.906689490210000315e+01 1.813877486719999865e+01 2.531255071400000034e+01 7.832458750968596117e-01 3.603717052447061309e-01 5.066143831384747331e-01
3.890415743230000345e+01 1.851423893209999960e+01 2.529386715040000055e+01 7.801202502017273721e-01 3.677421045426244040e-01 5.061404348318317981e-01
3.873903171559999947e+01 1.888783492980000034e+01 2.527377257279999867e+01 7.769371163840922412e-01 3.751536560326798608e-01 5.055971237557480569e-01
3.857151804240000104e+01 1.925956308740000011e+01 2.525226715270000000e+01 7.735894896848098945e-01 3.824323594929068260e-01 5.052769457059003155e-01
3.840161670269999661e+01 1.962942363180000171e+01 2.522935106150000095e+01 7.699658514321737757e-01 3.898655708044527768e-01 5.051310961816208867e-01
3.822932798690000311e+01 1.999741678999999905e+01 2.520502447080000152e+01 7.664968287218533183e-01 3.971363116403267002e-01 5.047428667510409639e-01
3.805465218530000016e+01 2.036354278920000027e+01 2.517928755189999990e+01 7.629155744437970954e-01 4.046457671981316118e-01 5.042039561127288350e-01
3.787758958799999931e+01 2.072780185639999928e+01 2.515214047639999961e+01 7.593260484290296208e-01 4.119023996695836409e-01 5.037463303326321640e-01
3.769814048530000150e+01 2.109019421840000064e+01 2.512358341570000064e+01 7.558536621639466713e-01 4.189350270577958391e-01 5.031686441914225982e-01
3.751630516729999698e+01 2.145072010250000005e+01 2.509361654139999942e+01 7.523323559000043570e-01 4.261186213386042865e-01 5.024131236486923946e-01
3.733208392449999735e+01 2.180937973549999853e+01 2.506224002489999947e+01 7.485699057184828087e-01 4.333434035439648890e-01 5.018531566679184097e-01
3.714547704699999997e+01 2.216617334460000066e+01 2.502945403760000076e+01 7.447496080200970425e-01 4.405541659944260391e-01 5.012584644461056671e-01
3.695648482499999687e+01 2.252110115669999857e+01 2.499525875120000151e+01 7.408719075980286783e-01 4.477493268578273677e-01 5.006289612381812359e-01
3.676510754880000320e+01 2.287416339889999861e+01 2.495965433690000168e+01 7.369372866818572065e-01 4.549273044452648018e-01 4.999645819137066294e-01
3.657134550859999678e+01 2.322536029819999825e+01 2.492264096639999948e+01 7.329462647866489267e-01 4.620865188612165442e-01 4.992652822117936151e-01
3.637519899459999806e+01 2.357469208150000028e+01 2.488421881109999845e+01 7.288993984932212733e-01 4.692253936583611895e-01 4.985310389758859095e-01
3.617666829720000266e+01 2.392215897599999863e+01 2.484438804239999854e+01 7.250309174266031942e-01 4.761945103026682391e-01 4.975630182531052270e-01
3.597575370639999903e+01 2.426776120870000142e+01 2.480314883189999975e+01 7.209461059316898401e-01 4.830271490154662284e-01 4.969119496006543790e-01
3.577245551269999879e+01 2.461149900650000077e+01 2.476050135099999849e+01 7.169377549401863003e-01 4.899663571220242431e-01 4.959165498648923087e-01
3.556677400619999929e+01 2.495337259649999950e+01 2.471644577120000008e+01 7.126782491058163416e-01 4.970106994191556549e-01 4.950455311527915958e-01
3.535870947709999967e+01 2.529338220569999862e+01 2.467098226399999916e+01 7.083661498865704287e-01 5.040270538057589622e-01 4.941397846022554385e-01
3.514826221570000087e+01 2.563152806120000093e+01 2.462411100079999926e+01 7.040022252187669860e-01 5.110138982727480128e-01 4.931994146986733996e-01
3.493543251220000201e+01 2.596781038989999857e+01 2.457583215320000036e+01 6.995872768481937731e-01 5.179697257486989281e-01 4.922245476202362080e-01
3.472022065689999692e+01 2.630222941890000143e+01 2.452614589259999889e+01 6.951134046001623545e-01 5.250973165764367678e-01 4.910093307355741232e-01
3.450262693989999718e+01 2.663478537530000168e+01 2.447505239039999836e+01 6.905976769357463629e-01 5.319859502318882161e-01 4.899650981109018311e-01
3.428265165170000017e+01 2.696547848590000029e+01 2.442255181830000055e+01 6.860335395244793188e-01 5.388391125229495815e-01 4.888868923002487321e-01
3.406029508230000147e+01 2.729430897789999833e+01 2.436864434760000009e+01 6.814830701173572036e-01 5.457917049517437835e-01 4.875369113711184865e-01
3.383555752200000200e+01 2.762127707830000034e+01 2.431333014979999874e+01 6.768241935472205650e-01 5.525693051563626002e-01 4.863909682839198112e-01
3.360843926100000090e+01 2.794638301410000025e+01 2.425660939639999825e+01 6.719347985053403249e-01 5.593494898466379039e-01 4.854191742874333637e-01
3.337894058970000088e+01 2.826962701220000085e+01 2.419848225879999859e+01 6.671854080736536741e-01 5.660456021440755103e-01 4.842065752826401615e-01
3.314706179819999932e+01 2.859100929990000139e+01 2.413894890870000154e+01 6.623925714866906178e-01 5.726992949867936167e-01 4.829612808092166865e-01
3.291280317679999712e+01 2.891053010390000111e+01 2.407800951729999994e+01 6.573406111304906929e-01 5.794304878876286313e-01 4.818336130500835979e-01
3.267616501559999875e+01 2.922818965149999926e+01 2.401566425629999912e+01 6.524632369891197881e-01 5.859942665037927156e-01 4.805230941405018719e-01
3.243714760510000161e+01 2.954398816959999863e+01 2.395191329709999906e+01 6.475457279889046402e-01 5.925117836055725506e-01 4.791808807244534729e-01
3.219575123530000127e+01 2.985792588520000024e+01 2.388675681109999971e+01 6.425892215046676847e-01 5.989818302700382624e-01 4.778073454985600210e-01
3.195197619649999865e+01 3.017000302530000155e+01 2.382019496990000107e+01 6.376162122624542405e-01 6.052136837458422791e-01 4.766151097760839561e-01
3.170582277899999823e+01 3.048021981710000006e+01 2.375222794480000132e+01 6.325862422412287245e-01 6.115864055994497672e-01 4.751807178464493853e-01
3.145729127299999917e+01 3.078857648740000030e+01 2.368285590749999869e+01 6.277759561926973264e-01 6.175070829975507491e-01 4.739012041282448795e-01
3.120638196870000058e+01 3.109507326330000154e+01 2.361207902940000025e+01 6.226783021586760336e-01 6.237801406019921613e-01 4.724087935372787150e-01
3.095309515650000165e+01 3.139971037189999947e+01 2.353989748189999887e+01 6.175475237011416318e-01 6.300002915695888106e-01 4.708871293556671223e-01
3.069743112640000149e+01 3.170248804010000043e+01 2.346631143649999984e+01 6.123848588199962695e-01 6.361665365631625768e-01 4.693366834642735408e-01
3.043939016879999926e+01 3.200340649500000012e+01 2.339132106470000139e+01 6.071915577899094085e-01 6.422779144572122734e-01 4.677579424757606907e-01
3.017897257379999942e+01 3.230246596370000134e+01 2.331492653809999993e+01 6.019688817569088801e-01 6.483335029646595249e-01 4.661514070877729177e-01
2.991617863189999937e+01 3.259966667300000154e+01 2.323712802789999898e+01 5.967181013260953737e-01 6.543324191900525832e-01 4.645175914286489016e-01
2.965100863300000000e+01 3.289500885009999820e+01 2.315792570589999855e+01 5.914404951519209863e-01 6.602738201155990971e-01 4.628570223777577208e-01
2.938346286759999870e+01 3.318849272199999945e+01 2.307731974329999858e+01 5.861998834724722052e-01 6.658119879331051427e-01 4.615886624922959092e-01
2.911354162579999993e+01 3.348011851559999741e+01 2.299531031169999906e+01 5.808740513147309104e-01 6.716386668330461829e-01 4.598769810763957966e-01
2.884124519799999931e+01 3.376988645809999667e+01 2.291189758260000175e+01 5.755252154896852712e-01 6.774055860611971625e-01 4.581401513823440408e-01
2.856657387419999949e+01 3.405779677639999647e+01 2.282708172750000131e+01 5.699327983359858685e-01 6.832653067047684825e-01 4.564264738537314736e-01
2.828952794479999966e+01 3.434384969759999962e+01 2.274086291769999946e+01 5.645098100919301309e-01 6.891112951088914640e-01 4.543724213278345081e-01
2.801010769999999894e+01 3.462804544870000001e+01 2.265324132490000153e+01 5.590985242975203828e-01 6.946913789752507951e-01 4.525624024439056647e-01
2.772831343009999827e+01 3.491038425659999689e+01 2.256421712050000039e+01 5.536694941408228932e-01 7.002091886007774102e-01 4.507296123585470271e-01
2.744414542519999856e+01 3.519086634850000195e+01 2.247379047589999956e+01 5.480250361391276748e-01 7.056700575443310974e-01 4.491083718325545315e-01
2.715760397560000072e+01 3.546949195130000021e+01 2.238196156260000080e+01 5.434931800676459090e-01 7.100038962468595560e-01 4.477830172463397873e-01
2.686868937159999859e+01 3.574626129210000158e+01 2.228873055220000055e+01 5.393701214932699051e-01 7.139063522194107891e-01 4.465619691611789621e-01
2.657740190339999842e+01 3.602117459789999998e+01 2.219409761600000053e+01 5.352928726655896696e-01 7.177232072156469744e-01 4.453481091208385534e-01
2.628374186119999933e+01 3.629423209570000353e+01 2.209806292560000074e+01 5.316047498331597509e-01 7.214006573816889034e-01 4.438214522576512944e-01
2.598770953529999872e+01 3.656543401260000081e+01 2.200062665249999938e+01 5.279053888013472973e-01 7.247468621408760248e-01 4.427842434995313270e-01
2.568930521589999927e+01 3.683478057549999818e+01 2.190178896809999998e+01 5.244569912537503376e-01 7.280910372159498101e-01 4.413935951629407439e-01
2.538852919320000012e+01 3.710227201149999843e+01 2.180155004390000073e+01 5.210518011565973273e-01 7.310433339347708337e-01 4.405458709612438684e-01
2.508538175760000044e+01 3.736790854760000258e+01 2.169991005130000161e+01 5.175896100862600324e-01 7.342456810576469817e-01 4.392997557237494077e-01
2.477986319909999935e+01 3.763169041079999744e+01 2.159686916189999906e+01 5.139679502010316980e-01 7.375702634085889997e-01 4.379806533415992464e-01
4.036768651060000224e+01 1.420666197419999932e+01 2.577254196250000007e+01 8.008936430946079765e-01 3.125715104353383733e-01 5.107528005941992522e-01
4.022884669559999793e+01 1.460081858949999933e+01 2.576797751140000159e+01 7.991881833535853241e-01 3.168379402266323641e-01 5.107954259984527345e-01
4.008761573129999789e+01 1.499310486739999959e+01 2.576200033150000124e+01 7.975224033713225191e-01 3.210052350707193192e-01 5.107970782786659392e-01
3.994399390800000305e+01 1.538352103499999934e+01 2.575461059430000077e+01 7.958869628643359118e-01 3.250774371697831011e-01 5.107725542604155677e-01
3.979798151600000011e+01 1.577206731919999960e+01 2.574580847129999839e+01 7.940944089347798940e-01 3.293972834009876172e-01 5.107949680513426127e-01
3.964957884550000244e+01 1.615874394700000138e+01 2.573559413390000117e+01 7.923605336417250955e-01 3.335112529153609340e-01 5.108179997864473743e-01
3.949878618670000208e+01 1.654355114559999862e+01 2.572396775369999844e+01 7.903511625802870366e-01 3.377994977832906032e-01 5.111130394593209614e-01
3.934560382989999994e+01 1.692648914180000119e+01 2.571092950199999905e+01 7.879848965045430642e-01 3.423980763058063204e-01 5.117063222423654523e-01
3.919003206530000227e+01 1.730755816279999948e+01 2.569647955039999943e+01 7.856828257575996233e-01 3.467466030967805701e-01 5.123175680673043297e-01
3.903207118310000112e+01 1.768675843549999982e+01 2.568061807040000133e+01 7.832631194976998890e-01 3.518013291951621047e-01 5.125765410270440858e-01
3.887172147359999741e+01 1.806409018700000146e+01 2.566334523340000118e+01 7.801651723477145417e-01 3.591130959095353292e-01 5.122305029983372782e-01
3.870898322699999738e+01 1.843955364429999833e+01 2.564466121090000073e+01 7.770098519520548530e-01 3.664491325091139284e-01 5.118307564544786192e-01
3.854385673360000197e+01 1.881314903439999853e+01 2.562456617440000173e+01 7.737999340327135211e-01 3.738177310855718694e-01 5.113648071748811974e-01
3.837634228350000143e+01 1.918487658440000132e+01 2.560306029530000060e+01 7.702761429130339232e-01 3.813986736281155809e-01 5.110867983168158046e-01
3.820644016709999846e+01 1.955473652119999883e+01 2.558014374520000089e+01 7.669542395750998942e-01 3.888733363052269687e-01 5.104495300307583250e-01
3.803415067459999932e+01 1.992272907190000097e+01 2.555581669549999901e+01 7.634817401336387865e-01 3.961385831112571032e-01 5.100684811406369645e-01
3.785947409620000315e+01 2.028885446350000166e+01 2.553007931770000027e+01 7.600870341693657384e-01 4.035929148059455573e-01 5.092940796887964749e-01
3.768241072210000198e+01 2.065311292310000013e+01 2.550293178329999932e+01 7.564954734312894225e-01 4.108445424774860855e-01 5.088431591310179636e-01
3.750296084259999674e+01 2.101550467759999918e+01 2.547437426369999969e+01 7.530187625930235829e-01 4.178754964706931641e-01 5.082743478007160087e-01
3.732112474790000078e+01 2.137602995399999983e+01 2.544440693050000135e+01 7.493120582473794533e-01 4.251074545980421671e-01 5.077549521277456845e-01
3.713690272830000083e+01 2.173468897949999956e+01 2.541302995499999895e+01 7.455473564485224358e-01 4.323270310656381898e-01 5.072006284524799291e-01
3.695029507400000313e+01 2.209148198100000116e+01 2.538024350890000136e+01 7.417250663355872131e-01 4.395326487532215665e-01 5.066112677876855042e-01
3.676130207530000149e+01 2.244640918549999853e+01 2.534604776349999966e+01 7.378456343843814436e-01 4.467227290471042500e-01 5.059867816184699940e-01
3.656992402230000039e+01 2.279947082010000159e+01 2.531044289029999916e+01 7.339095443177013900e-01 4.538956934658044395e-01 5.053271021947866037e-01
3.637616120530000074e+01 2.315066711180000070e+01 2.527342906080000162e+01 7.299173169497465974e-01 4.610499653002894660e-01 5.046321827960292827e-01
3.618001391460000349e+01 2.349999828760000042e+01 2.523500644659999992e+01 7.261530694831331845e-01 4.680284303728961537e-01 5.036378739162761242e-01
3.598148244040000066e+01 2.384746457449999824e+01 2.519517521899999934e+01 7.220519542768850663e-01 4.751414603104563983e-01 5.028733120965738213e-01
3.578056707289999849e+01 2.419306619960000049e+01 2.515393554950000166e+01 7.181561337129278577e-01 4.818144300994016693e-01 5.021022032997746187e-01
3.557726810239999793e+01 2.453680338979999931e+01 2.511128760969999973e+01 7.139500771436446680e-01 4.888807589731514192e-01 5.012692797812559053e-01
3.537158581909999810e+01 2.487867637220000105e+01 2.506723157100000066e+01 7.096909552217263162e-01 4.959207287153582500e-01 5.004012179310733943e-01
3.516352051319999816e+01 2.521868537390000142e+01 2.502176760480000084e+01 7.053795013345917075e-01 5.029328068962287679e-01 4.994980989397689863e-01
3.495307247510000082e+01 2.555683062179999965e+01 2.497489588279999850e+01 7.010164831357276194e-01 5.099154743274646462e-01 4.985600258879694380e-01
3.474024199480000163e+01 2.589311234290000030e+01 2.492661657620000071e+01 6.966027018883235167e-01 5.168672266880344202e-01 4.975871237257928903e-01
3.452502936270000333e+01 2.622753076440000086e+01 2.487692985669999857e+01 6.921389917418323545e-01 5.237865761376814255e-01 4.965795392165934796e-01
3.430743486899999795e+01 2.656008611309999878e+01 2.482583589560000092e+01 6.876238226734135983e-01 5.308722671202475984e-01 4.953262707495034722e-01
3.408745880400000061e+01 2.689077861619999865e+01 2.477333486450000066e+01 6.828748912551736439e-01 5.377578819193533644e-01 4.944677373973407342e-01
3.386510145780000158e+01 2.721960850059999970e+01 2.471942693489999954e+01 6.782650144670475667e-01 5.445698994392104142e-01 4.933560527395848827e-01
3.364036312079999647e+01 2.754657599340000118e+01 2.466411227820000107e+01 6.736088949925277403e-01 5.513437094569575425e-01 4.922104942290314589e-01
3.341324408309999683e+01 2.787168132160000056e+01 2.460739106589999992e+01 6.689774372981348582e-01 5.582116176073772529e-01 4.907840445187429124e-01
3.318374463499999649e+01 2.819492471219999885e+01 2.454926346939999959e+01 6.642311105409345329e-01 5.649045432500828801e-01 4.895711274217180997e-01
3.295186506670000171e+01 2.851630639220000063e+01 2.448972966030000009e+01 6.592253729315097344e-01 5.716704845866358298e-01 4.884821027794090664e-01
3.271760566849999918e+01 2.883582658870000159e+01 2.442878981009999961e+01 6.543928523227325877e-01 5.782763722493573511e-01 4.872026602216382729e-01
3.248096673060000228e+01 2.915348552869999921e+01 2.436644409009999990e+01 6.495193227910298628e-01 5.848373678531982867e-01 4.858908339160401546e-01
3.224194854329999771e+01 2.946928343920000160e+01 2.430269267190000093e+01 6.446058974463402258e-01 5.913522320555196776e-01 4.845469787547467821e-01
3.200055139669999704e+01 2.978322054730000090e+01 2.423753572700000092e+01 6.396537108543381978e-01 5.978197574065585718e-01 4.831714683677402755e-01
3.175677558119999944e+01 3.009529707980000168e+01 2.417097342690000161e+01 6.346639177525766895e-01 6.042387694410935595e-01 4.817646946459064883e-01
3.151062138689999870e+01 3.040551326399999965e+01 2.410300594290000120e+01 6.299265985885178498e-01 6.102264201482812123e-01 4.804333424562804433e-01
3.126208910420000109e+01 3.071386932669999936e+01 2.403363344670000146e+01 6.248672340195644548e-01 6.165480264658588228e-01 4.789670875016293072e-01
3.101117902309999863e+01 3.102036549509999830e+01 2.396285610960000056e+01 6.197700223812819820e-01 6.225667200453668393e-01 4.778030958977337872e-01
3.075789143409999937e+01 3.132500199609999925e+01 2.389067410319999851e+01 6.146448970730917782e-01 6.287852805666633849e-01 4.762779875710305144e-01
3.050222662730000067e+01 3.162777905669999967e+01 2.381708759889999882e+01 6.094880967447592335e-01 6.349500793400540966e-01 4.747237688093045027e-01
3.024418489290000167e+01 3.192869690410000061e+01 2.374209676819999970e+01 6.043008677952174112e-01 6.410601556359619702e-01 4.731409283056617343e-01
2.998376652119999974e+01 3.222775576509999951e+01 2.366570178259999935e+01 5.990844673853413793e-01 6.471145874283577015e-01 4.715299690105054786e-01
2.972097180240000114e+01 3.252495586690000096e+01 2.358790281359999952e+01 5.938401620340643117e-01 6.531124919503539239e-01 4.698914074695927923e-01
2.945580102679999968e+01 3.282029743639999708e+01 2.350870003249999840e+01 5.885692262127765195e-01 6.590530261788771771e-01 4.682257731476963669e-01
2.918825448469999984e+01 3.311378070069999779e+01 2.342809361109999955e+01 5.832729409486711036e-01 6.649353872455089354e-01 4.665336077344836574e-01
2.891833246610000074e+01 3.340540588670000233e+01 2.334608372059999937e+01 5.780687076164077176e-01 6.705519254053275979e-01 4.649695523471445435e-01
2.864603526149999979e+01 3.369517322160000106e+01 2.326267053249999961e+01 5.724427066706568867e-01 6.763372320366579649e-01 4.635485909163831186e-01
2.837136316100000144e+01 3.398308293240000211e+01 2.317785421840000026e+01 5.670790721402536594e-01 6.820414746508564052e-01 4.617799831051948023e-01
2.809431645480000128e+01 3.426913524599999761e+01 2.309163494979999953e+01 5.616952464056489402e-01 6.876847615069180408e-01 4.599870856409671860e-01
2.781489543320000024e+01 3.455333038940000279e+01 2.300401289799999915e+01 5.560262368743338346e-01 6.933166016866262327e-01 4.584178374944363199e-01
2.753310038649999925e+01 3.483566858980000092e+01 2.291498823470000090e+01 5.503925876968206454e-01 6.990858544561560084e-01 4.564503998329978440e-01
2.724893160490000099e+01 3.511615007409999833e+01 2.282456113119999941e+01 5.448094110764468700e-01 7.045395866165822252e-01 4.547600207721326226e-01
2.696238937849999928e+01 3.539477506939999785e+01 2.273273175899999998e+01 5.403847365646514689e-01 7.088521305304387177e-01 4.533354095263351091e-01
2.667347399779999861e+01 3.567154380259999868e+01 2.263950028960000083e+01 5.364216886841925991e-01 7.127157499564321652e-01 4.519823355765570927e-01
2.638218575280000167e+01 3.594645650079999655e+01 2.254486689450000014e+01 5.329659232800998403e-01 7.162870346953963407e-01 4.504222558327539150e-01
2.608852493379999871e+01 3.621951339099999956e+01 2.244883174519999969e+01 5.298632180023922222e-01 7.196059466477320310e-01 4.487897634275663239e-01
2.579249183119999955e+01 3.649071470030000341e+01 2.235139501320000122e+01 5.265532099666239141e-01 7.229609150838266496e-01 4.472909929061846257e-01
2.549408673499999978e+01 3.676006065560000025e+01 2.225255686979999936e+01 5.232103562165033583e-01 7.262320150477188374e-01 4.459125289420892702e-01
2.519330993559999854e+01 3.702755148399999996e+01 2.215231748669999945e+01 5.198958185405150312e-01 7.291116467118295974e-01 4.450893668615914511e-01
2.489016172310000030e+01 3.729318741259999825e+01 2.205067703519999966e+01 5.164578715018042221e-01 7.320066478515954156e-01 4.443394360901317675e-01
2.458464238790000067e+01 3.755696866819999968e+01 2.194763568690000000e+01 5.129099398282570554e-01 7.351857008488916767e-01 4.431990285331160462e-01
4.017001771519999664e+01 1.413002543840000058e+01 2.612186217969999902e+01 7.976758526769324176e-01 3.132214732298813642e-01 5.153693265647764088e-01
4.003117712339999912e+01 1.452418144610000006e+01 2.611729726969999987e+01 7.960878646487856702e-01 3.173968887981427622e-01 5.152701492811279094e-01
3.988994538240000054e+01 1.491646711649999979e+01 2.611131963089999886e+01 7.945120290295683008e-01 3.214682426782693447e-01 5.151784202358088427e-01
3.974632278240000005e+01 1.530688267640000078e+01 2.610392943469999949e+01 7.932042540274388820e-01 3.253326359513176724e-01 5.147676052139854574e-01
3.960030961359999679e+01 1.569542835300000050e+01 2.609512685279999999e+01 7.914199998016023807e-01 3.295774883414230860e-01 5.148136197621335786e-01
3.945190616629999880e+01 1.608210437330000175e+01 2.608491205649999856e+01 7.896898587797640534e-01 3.336231908369521881e-01 5.148645389577408693e-01
3.930111273079999989e+01 1.646691096420000022e+01 2.607328521730000048e+01 7.874500323443797134e-01 3.381348761829917060e-01 5.153515810294446720e-01
3.914792959719999743e+01 1.684984835290000049e+01 2.606024650670000042e+01 7.852455002761085101e-01 3.424123106849146780e-01 5.158907963780139383e-01
3.899235705579999944e+01 1.723091676629999824e+01 2.604579609620000014e+01 7.829086040329815699e-01 3.467172064297234235e-01 5.165668364274818014e-01
3.883439539679999797e+01 1.761011643149999983e+01 2.602993415719999959e+01 7.802978370863045132e-01 3.512645659664807019e-01 5.174441903575833779e-01
3.867404491060000282e+01 1.798744757540000094e+01 2.601266086129999877e+01 7.771924834481827027e-01 3.580136717037226135e-01 5.174920816252797096e-01
3.851130588720000247e+01 1.836291042510000082e+01 2.599397637990000121e+01 7.740115686948311202e-01 3.653225238043685263e-01 5.171513754480143721e-01
3.834617861699999963e+01 1.873650520760000049e+01 2.597388088450000154e+01 7.707792303704251724e-01 3.726575740326434905e-01 5.167453052962162063e-01
3.817866339020000055e+01 1.910823214999999919e+01 2.595237454649999975e+01 7.674974438725544745e-01 3.800310819431835241e-01 5.162596734262600018e-01
3.800876049699999726e+01 1.947809147930000151e+01 2.592945753740000114e+01 7.643569957354192645e-01 3.874144576984379640e-01 5.154303260738055670e-01
3.783647022769999779e+01 1.984608342239999956e+01 2.590513002879999860e+01 7.609755579855324026e-01 3.949229328465013733e-01 5.147349582654408007e-01
3.766179287250000129e+01 2.021220820639999971e+01 2.587939219209999919e+01 7.574437382046177447e-01 4.021772972607843277e-01 5.143271381354722616e-01
3.748472872170000159e+01 2.057646605840000120e+01 2.585224419869999934e+01 7.539739392309250388e-01 4.094627042505134540e-01 5.136765449078417589e-01
3.730527806540000313e+01 2.093885720529999972e+01 2.582368622019999904e+01 7.503249963116963572e-01 4.167005680937195256e-01 5.131988274150905971e-01
3.712344119400000153e+01 2.129938187420000162e+01 2.579371842810000004e+01 7.466179143957988318e-01 4.239277257425524414e-01 5.126860376975511668e-01
3.693921839760000125e+01 2.165804029210000081e+01 2.576234099370000052e+01 7.428530659513045142e-01 4.311426064823505877e-01 5.121380431898726604e-01
3.675260996659999790e+01 2.201483268599999832e+01 2.572955408860000048e+01 7.390308606410791459e-01 4.383436364431367305e-01 5.115547315878459234e-01
3.656361619110000305e+01 2.236975928300000049e+01 2.569535788430000167e+01 7.351517452891090931e-01 4.455292402033915189e-01 5.109360111816014793e-01
3.637223736130000162e+01 2.272282030999999947e+01 2.565975255220000051e+01 7.312162037881407839e-01 4.526978424088424213e-01 5.102818111554039415e-01
3.617847376760000344e+01 2.307401599410000159e+01 2.562273826379999875e+01 7.272247569439292958e-01 4.598478694104798370e-01 5.095920818522252649e-01
3.598232570009999876e+01 2.342334656230000078e+01 2.558431519060000170e+01 7.231779622508375249e-01 4.669777509089839129e-01 5.088667950168422882e-01
3.578379344910000270e+01 2.377081224160000161e+01 2.554448350410000046e+01 7.192795389391215544e-01 4.739639891895651158e-01 5.079321626113458832e-01
3.558287730490000200e+01 2.411641325909999978e+01 2.550324337569999855e+01 7.151667971052423356e-01 4.807200111675778986e-01 5.073901094633919140e-01
3.537957755760000111e+01 2.446014984179999985e+01 2.546059497699999952e+01 7.109609962870465649e-01 4.877816971475351093e-01 5.065604383352497742e-01
3.517389449750000097e+01 2.480202221660000106e+01 2.541653847930000154e+01 7.067023938897639690e-01 4.948171201115686979e-01 5.056953075864659697e-01
3.496582841490000249e+01 2.514203061070000089e+01 2.537107405429999929e+01 7.023917231601397582e-01 5.018247506002336822e-01 5.047947968443641242e-01
3.475537959999999771e+01 2.548017525099999858e+01 2.532420187330000161e+01 6.980297514088781297e-01 5.088030723297751745e-01 5.038590077946818457e-01
3.454254834289999820e+01 2.581645636460000048e+01 2.527592210779999959e+01 6.936172793530409608e-01 5.157505838107242502e-01 5.028880641671490404e-01
3.432733493410000136e+01 2.615087417839999873e+01 2.522623492929999856e+01 6.889652155426869706e-01 5.226950840512297747e-01 5.021123189893836880e-01
3.410973966360000276e+01 2.648342891960000145e+01 2.517514050930000025e+01 6.844537812267105226e-01 5.295759295328651417e-01 5.010712087357047650e-01
3.388976282179999799e+01 2.681412081510000078e+01 2.512263901929999932e+01 6.799005994333925385e-01 5.366216922147244439e-01 4.997722824794497698e-01
3.366740469890000043e+01 2.714295009190000130e+01 2.506873063080000108e+01 6.752931321437072310e-01 5.434299572112104570e-01 4.986612751006072597e-01
3.344266558510000209e+01 2.746991697709999869e+01 2.501341551510000016e+01 6.706396780541034053e-01 5.502001340374569338e-01 4.975160647905281786e-01
3.321554577060000213e+01 2.779502169770000108e+01 2.495669384389999834e+01 6.657209109212337550e-01 5.570421612728324590e-01 4.965075017828978754e-01
3.298604554580000325e+01 2.811826448080000063e+01 2.489856578850000091e+01 6.609775742193132464e-01 5.637309589551894318e-01 4.952939049641279512e-01
3.275416520070000104e+01 2.843964555319999832e+01 2.483903152050000074e+01 6.562704864415234152e-01 5.705092543466850907e-01 4.937896711461222110e-01
3.251990502579999998e+01 2.875916514220000053e+01 2.477809121130000136e+01 6.514416902065223169e-01 5.771120576586686868e-01 4.925092863752388306e-01
3.228326531110000275e+01 2.907682347460000116e+01 2.471574503240000098e+01 6.465721290166006607e-01 5.836700999733596129e-01 4.911961892930652440e-01
3.204424634699999785e+01 2.939262077749999946e+01 2.465199315530000135e+01 6.416629132755580223e-01 5.901821436203201765e-01 4.898507355087338699e-01
3.180284842369999865e+01 2.970655727790000000e+01 2.458683575150000067e+01 6.367151746782154786e-01 5.966469826983030744e-01 4.884732995481948503e-01
3.155907183140000072e+01 3.001863320289999848e+01 2.452027299239999891e+01 6.317300649314873118e-01 6.030634441659429301e-01 4.870642743749224457e-01
3.131291686040000144e+01 3.032884877949999947e+01 2.445230504959999962e+01 6.270336229749408075e-01 6.092259006718718783e-01 4.854612627280019410e-01
3.106438380080000172e+01 3.063720423470000043e+01 2.438293209440000098e+01 6.219877935384316991e-01 6.153576275600748380e-01 4.842170741442618498e-01
3.081347294300000073e+01 3.094369979540000060e+01 2.431215429839999942e+01 6.168997500299316927e-01 6.216255106060180058e-01 4.827177466976071973e-01
3.056018457720000114e+01 3.124833568889999924e+01 2.423997183299999847e+01 6.117790379776896215e-01 6.278407358296518304e-01 4.811885484131701585e-01
3.030451899359999857e+01 3.155111214189999913e+01 2.416638486980000167e+01 6.066268884092504976e-01 6.340023061901017831e-01 4.796299552827607560e-01
3.004647648250000103e+01 3.185202938169999953e+01 2.409139358019999833e+01 6.014445443607947528e-01 6.401092626154083476e-01 4.780424583366985614e-01
2.978605733399999878e+01 3.215108763509999790e+01 2.401499813570000086e+01 5.962332594826613708e-01 6.461606846273837412e-01 4.764265629963886362e-01
2.952326183850000163e+01 3.244828712929999881e+01 2.393719870769999858e+01 5.909942966426294797e-01 6.521556908937726771e-01 4.747827884103947849e-01
2.925809028609999984e+01 3.274362809130000329e+01 2.385799546779999858e+01 5.857289265288505575e-01 6.580934397140113523e-01 4.731116667687885191e-01
2.899054296719999968e+01 3.303711074800000347e+01 2.377738858729999905e+01 5.804384262594197708e-01 6.639731294233360837e-01 4.714137426139269893e-01
2.872062017189999850e+01 3.332873532650000215e+01 2.369537823790000175e+01 5.752402095510537050e-01 6.695834913215592543e-01 4.698474746822541848e-01
2.844832219050000077e+01 3.361850205380000034e+01 2.361196459099999956e+01 5.696753666549669859e-01 6.755052993992308741e-01 4.681480183767570691e-01
2.817364931319999855e+01 3.390641115700000086e+01 2.352714781799999955e+01 5.643174962199055678e-01 6.812064076471391338e-01 4.663728054256344180e-01
2.789660183029999985e+01 3.419246286300000293e+01 2.344092809039999992e+01 5.586290301713596751e-01 6.869180561854760780e-01 4.648410381368813238e-01
2.761718003189999848e+01 3.447665739890000225e+01 2.335330557969999887e+01 5.529466828665393630e-01 6.923969631555112469e-01 4.635044889965107551e-01
2.733538420849999895e+01 3.475899499169999984e+01 2.326428045740000172e+01 5.473807817972696776e-01 6.979234754635866844e-01 4.618193392614022841e-01
2.705121465010000037e+01 3.503947586839999673e+01 2.317385289499999956e+01 5.418459525780718877e-01 7.033731482845309024e-01 4.600751872760246997e-01
2.676467164700000012e+01 3.531810025610000281e+01 2.308202306389999947e+01 5.375794704710320504e-01 7.076415787810635960e-01 4.585321241836046169e-01
2.647575548940000090e+01 3.559486838170000311e+01 2.298879113559999965e+01 5.342860459106967275e-01 7.112519952122147160e-01 4.567920976240243958e-01
2.618446646769999830e+01 3.586978047230000044e+01 2.289415728159999830e+01 5.313421849897322913e-01 7.146530812079878725e-01 4.549136796912864322e-01
2.589080487200000036e+01 3.614283675499999759e+01 2.279812167329999895e+01 5.283377869710611519e-01 7.179304516896025667e-01 4.532494339712789810e-01
2.559477099249999910e+01 3.641403745670000092e+01 2.270068448230000158e+01 5.251192034314396961e-01 7.212704351874020814e-01 4.516843826302895382e-01
2.529636511960000078e+01 3.668338280439999721e+01 2.260184588010000084e+01 5.218852999262134640e-01 7.244764120225517523e-01 4.502995249207532580e-01
2.499558754339999922e+01 3.695087302520000350e+01 2.250160603799999848e+01 5.186669832960527637e-01 7.272871789995208891e-01 4.494862842195423980e-01
2.469243855419999889e+01 3.721650834620000126e+01 2.239996512760000158e+01 5.153332935892736000e-01 7.301038613918615638e-01 4.487537722394374651e-01
2.438691844219999894e+01 3.748028899420000215e+01 2.229692332040000124e+01 5.118779052654509609e-01 7.329038236338067946e-01 4.481439449596522628e-01
3.996984212840000339e+01 1.405142811079999987e+01 2.646970134480000070e+01 7.946482995774930558e-01 3.137717044048923820e-01 5.196935611429563950e-01
3.983100075990000022e+01 1.444558351100000060e+01 2.646513597590000089e+01 7.931496208614031707e-01 3.178355910659979022e-01 5.195134415769627756e-01
3.968976824210000132e+01 1.483786857369999979e+01 2.645915787819999920e+01 7.919515230287836882e-01 3.216108166066908858e-01 5.190175987516870704e-01
3.954614486530000050e+01 1.522828352610000024e+01 2.645176722309999917e+01 7.906527887172302149e-01 3.254183097829039251e-01 5.186242294298493150e-01
3.940013091979999871e+01 1.561682859509999943e+01 2.644296418229999901e+01 7.888678657048868725e-01 3.295924410057460285e-01 5.187063844701454984e-01
3.925172669570000039e+01 1.600350400780000015e+01 2.643274892699999867e+01 7.871334681098012265e-01 3.335741892443919721e-01 5.187958785990720578e-01
3.910093248340000116e+01 1.638830999119999987e+01 2.642112162889999993e+01 7.848155517035604323e-01 3.380584347592278105e-01 5.194045095033126280e-01
3.894774857299999837e+01 1.677124677229999961e+01 2.640808245939999921e+01 7.825780464830244254e-01 3.422854996226175617e-01 5.200117670888885213e-01
3.879217525490000185e+01 1.715231457810000038e+01 2.639363158999999825e+01 7.801924983015408044e-01 3.465563991963666601e-01 5.207670571090772249e-01
3.863421281920000183e+01 1.753151363570000143e+01 2.637776919210000059e+01 7.775042257486082242e-01 3.511134779613664381e-01 5.217341320413400041e-01
3.847386155609999747e+01 1.790884417199999845e+01 2.636049543720000088e+01 7.742525610058379471e-01 3.568908784058343331e-01 5.226489000147354069e-01
3.831112175599999858e+01 1.828430641410000135e+01 2.634181049689999909e+01 7.710465331665461441e-01 3.641746556785102062e-01 5.223639189810960204e-01
3.814599370900000253e+01 1.865790058909999871e+01 2.632171454250000053e+01 7.679882375074955636e-01 3.714358556865827721e-01 5.217561424271942583e-01
3.797847770549999780e+01 1.902962692390000043e+01 2.630020774560000163e+01 7.646895109690464709e-01 3.787749133213336172e-01 5.213247709943742425e-01
3.780857403550000129e+01 1.939948564559999866e+01 2.627729027759999880e+01 7.613460251673647150e-01 3.861642641166668222e-01 5.207968808288769846e-01
3.763628298950000328e+01 1.976747698109999973e+01 2.625296231009999914e+01 7.579570494259165736e-01 3.936264479542853634e-01 5.201531800310856823e-01
3.746160485749999935e+01 2.013360115760000113e+01 2.622722401449999907e+01 7.545198245576197893e-01 4.011905596837534449e-01 5.193707434676844148e-01
3.728453992989999932e+01 2.049785840199999853e+01 2.620007556219999856e+01 7.510512987895804349e-01 4.084706275342970816e-01 5.187231371629976717e-01
3.710508849690000233e+01 2.086024894130000007e+01 2.617151712480000114e+01 7.473999134836214475e-01 4.157029402101464766e-01 5.182513239976475061e-01
3.692325084870000040e+01 2.122077300260000143e+01 2.614154887360000146e+01 7.436906419683513292e-01 4.229246029226536030e-01 5.177441542802946328e-01
3.673902727560000159e+01 2.157943081290000009e+01 2.611017098039999951e+01 7.399238586153915609e-01 4.301340483115870805e-01 5.172014925875555447e-01
3.655241806770000323e+01 2.193622259929999885e+01 2.607738361630000057e+01 7.360999748070754523e-01 4.373297058590385200e-01 5.166232238897798812e-01
3.636342351540000095e+01 2.229114858859999870e+01 2.604318695310000109e+01 7.322194389019579530e-01 4.445100034842580095e-01 5.160092538865235223e-01
3.617204390890000099e+01 2.264420900809999893e+01 2.600758116209999926e+01 7.282827361360838525e-01 4.516733691616197643e-01 5.153595093100840074e-01
3.597827953840000248e+01 2.299540408460000052e+01 2.597056641480000039e+01 7.242903884636870959e-01 4.588182325468065370e-01 5.146739381994642759e-01
3.578213069419999925e+01 2.334473404519999917e+01 2.593214288260000089e+01 7.204511137533062826e-01 4.658244734173991319e-01 5.137681896118360125e-01
3.558359766640000288e+01 2.369219911700000125e+01 2.589231073719999898e+01 7.163504290222605375e-01 4.729283461294563340e-01 5.130115420406060611e-01
3.538268074540000185e+01 2.403779952689999888e+01 2.585107014989999996e+01 7.121958580156934060e-01 4.800090637590886944e-01 5.122190532715601430e-01
3.517938022140000243e+01 2.438153550190000018e+01 2.580842129219999848e+01 7.080034461596380613e-01 4.866811740729778957e-01 5.117348483629234890e-01
3.497369638450000195e+01 2.472340726919999909e+01 2.576436433570000162e+01 7.037455019800713529e-01 4.937119117222040221e-01 5.108726031668011647e-01
3.476562952519999783e+01 2.506341505569999839e+01 2.571889945170000047e+01 6.994357526382749546e-01 5.007149577398850582e-01 5.099746650833499872e-01
3.455517993349999983e+01 2.540155908839999910e+01 2.567202681170000034e+01 6.948815172900275616e-01 5.077129516759141259e-01 5.092810968701270147e-01
3.434234789970000179e+01 2.573783959440000046e+01 2.562374658730000121e+01 6.904699869477267660e-01 5.146555034588707889e-01 5.083118234744323782e-01
3.412713371409999752e+01 2.607225680069999996e+01 2.557405894989999950e+01 6.860090735276175300e-01 5.215658581214257516e-01 5.073072113422403273e-01
3.390953766690000037e+01 2.640481093429999859e+01 2.552296407100000053e+01 6.814996416283831682e-01 5.284425516599565720e-01 5.062674274091701898e-01
3.368956004830000239e+01 2.673550222220000094e+01 2.547046212209999894e+01 6.769425867014775555e-01 5.352841395363834298e-01 5.051926605471482867e-01
