-3.393605770180000292e+01 7.982968012599999774e+00 3.581565346139999662e+01 -6.814628198735107611e-01 1.620072387008735793e-01 7.136960695832373913e-01
-3.412077329790000135e+01 8.256731060399999933e+00 3.557441464850000301e+01 -6.853614709656274950e-01 1.676172066490248802e-01 7.086495086790151055e-01
-3.430346262919999845e+01 8.530265612899999184e+00 3.533044073439999977e+01 -6.890219374595533131e-01 1.731142500059999201e-01 7.037614838454457900e-01
-3.448412564899999921e+01 8.803571664799999752e+00 3.508373165609999944e+01 -6.926735452233109269e-01 1.788330776003564937e-01 6.987289103105398524e-01
-3.466276231049999978e+01 9.076649210899999431e+00 3.483428735060000037e+01 -6.961903905336308540e-01 1.845578590579204925e-01 6.937271342455815226e-01
-3.483937256709999986e+01 9.349498245899999560e+00 3.458210775479999910e+01 -6.990079468795111772e-01 1.889237690053847951e-01 6.897069665474536704e-01
-3.501395637200000266e+01 9.622118764499999699e+00 3.432719280549999752e+01 -7.013002121226783458e-01 1.929950685906295371e-01 6.862440644379990129e-01
-3.518651367849999900e+01 9.894510761499999418e+00 3.406954243989999753e+01 -7.037580618843249924e-01 1.969152463916940266e-01 6.826045532160746054e-01
-3.535704443990000101e+01 1.016667423160000006e+01 3.380915659469999923e+01 -7.061272014988351220e-01 2.007424290974041681e-01 6.790337638611920745e-01
-3.552554860949999949e+01 1.043860916949999940e+01 3.354603520690000096e+01 -7.083129063121136326e-01 2.043356367204049173e-01 6.756772708310927467e-01
-3.569202614049999767e+01 1.071031557000000056e+01 3.328017821350000105e+01 -7.106978233268334000e-01 2.074806151040997915e-01 6.722056220194276843e-01
-3.585647698630000235e+01 1.098179342769999955e+01 3.301158555140000317e+01 -7.126837703482590269e-01 2.107099641637140142e-01 6.690912900974846922e-01
-3.601890110000000078e+01 1.125304273749999950e+01 3.274025715749999677e+01 -7.147419809643473787e-01 2.140815627778533126e-01 6.658175314046281823e-01
-3.617929843510000154e+01 1.152406349409999997e+01 3.246619296890000328e+01 -7.168949651385136956e-01 2.176362282349427191e-01 6.623413629834069560e-01
-2.375752267840000087e+01 -4.863415217700000071e+00 4.368588098429999889e+01 -4.877193296849432480e-01 -8.515174900883479281e-02 8.688377495783696780e-01
-2.403336954639999945e+01 -4.579375592499999925e+00 4.356765336179999792e+01 -4.913596022716391065e-01 -8.137687544493746317e-02 8.671467842287579053e-01
-2.430719225189999833e+01 -4.295564225599999730e+00 4.344669347589999830e+01 -4.947921526131739967e-01 -7.780133456498627975e-02 8.655216219438591763e-01
-2.457899074819999896e+01 -4.011981122099999908e+00 4.332300126359999837e+01 -4.980614780786346008e-01 -7.438116264032590408e-02 8.639457197639208719e-01
-2.484876498859999927e+01 -3.728626287500000025e+00 4.319657666180000177e+01 -5.015729860492559311e-01 -7.037861234426452672e-02 8.622478707367903228e-01
-2.511651492629999893e+01 -3.445499726800000051e+00 4.306741960749999976e+01 -5.053625032163814312e-01 -6.705956895966813658e-02 8.602974802670390053e-01
-2.538224051470000120e+01 -3.162601445499999997e+00 4.293553003760000308e+01 -5.091905949344738280e-01 -6.300453014849698163e-02 8.583445504056302910e-01
-2.564594170710000043e+01 -2.879931448699999841e+00 4.280090788900000121e+01 -5.130775487094033638e-01 -5.887186433269489538e-02 8.563209285077311161e-01
-2.590761845669999985e+01 -2.597489741700000021e+00 4.266355309859999778e+01 -5.170805512457941067e-01 -5.445024215769939113e-02 8.542030640616512516e-01
-2.616727071669999916e+01 -2.315276329900000096e+00 4.252346560350000004e+01 -5.213297538892904814e-01 -4.987844002406390670e-02 8.518963721782699672e-01
-2.642489844059999982e+01 -2.033291218400000044e+00 4.238064534050000276e+01 -5.265890659599082868e-01 -4.390054269449446267e-02 8.489856877254174927e-01
-2.668050158149999973e+01 -1.751534412500000082e+00 4.223509224659999717e+01 -5.318134241270288110e-01 -3.818479623857572169e-02 8.460002383300511131e-01
-2.693408009279999860e+01 -1.470005917599999989e+00 4.208680625870000114e+01 -5.370123460740927612e-01 -3.245403225990181606e-02 8.429498656231412257e-01
-2.718563392769999965e+01 -1.188705738799999967e+00 4.193578731379999880e+01 -5.421845537989276043e-01 -2.670938801925675996e-02 8.398348160284225816e-01
-2.743516303950000079e+01 -9.076338815000000171e-01 4.178203534880000092e+01 -5.473287781609679215e-01 -2.095201649913962932e-02 8.366553780389160977e-01
-2.768266738140000172e+01 -6.267903509000000151e-01 4.162555030059999694e+01 -5.524437603351873838e-01 -1.518308531228995846e-02 8.334118823169714974e-01
-2.792814690690000035e+01 -3.461751523000000108e-01 4.146633210619999943e+01 -5.572990407067048846e-01 -9.505592218438644117e-03 8.302574437751000236e-01
-2.817160156910000168e+01 -6.578829090000000435e-02 4.130438070249999782e+01 -5.623528012980166801e-01 -3.717282482814186773e-03 8.268890546398690589e-01
-2.841303132130000009e+01 2.143702279999999960e-01 4.113969602649999757e+01 -5.670501646146950403e-01 1.819508934702043692e-03 8.236812491478023857e-01
-2.865243611689999881e+01 4.943003990000000014e-01 4.097227801500000055e+01 -5.720388250041762435e-01 7.622350282022247528e-03 8.201911255701439529e-01
-2.888981590899999929e+01 7.740022170999999451e-01 4.080212660509999978e+01 -5.769922644892188091e-01 1.343083140278037400e-02 8.166391733730592462e-01
-2.912517065109999947e+01 1.053475676799999983e+00 4.062924173359999713e+01 -5.819093145027152136e-01 1.924372210620989287e-02 8.130259705904105960e-01
-2.935850029630000080e+01 1.332720772899999906e+00 4.045362333759999984e+01 -5.867888265289968874e-01 2.505978595166339154e-02 8.093521360871173131e-01
-2.958980479790000118e+01 1.611737500200000062e+00 4.027527135390000268e+01 -5.916296734232129317e-01 3.087778155351873430e-02 8.056183290687195520e-01
-2.981908410919999852e+01 1.890525853300000003e+00 4.009418571940000220e+01 -5.964321162719192770e-01 3.641394130133481649e-02 8.018371128591532671e-01
-3.004633818359999964e+01 2.169085826999999966e+00 3.991036637119999853e+01 -6.011933431045327625e-01 4.223203291105542129e-02 7.979868542795646169e-01
-3.027156697419999887e+01 2.447417416099999965e+00 3.972381324620000242e+01 -6.059126809370876110e-01 4.804835547503101545e-02 7.940788239310857533e-01
-3.049477043450000124e+01 2.725520615299999783e+00 3.953452628120000156e+01 -6.105890999617561432e-01 5.386166108708266564e-02 7.901138351356927769e-01
-3.071594851749999933e+01 3.003395419199999861e+00 3.934250541330000317e+01 -6.152215977608258557e-01 5.967070351074772044e-02 7.860927380348637916e-01
-3.093510117670000170e+01 3.281041822700000221e+00 3.914775057930000202e+01 -6.198092003886145340e-01 6.547423952527497981e-02 7.820164186717649679e-01
-3.115222836530000095e+01 3.558459820399999973e+00 3.895026171629999823e+01 -6.241292658838940577e-01 7.127896659030047433e-02 7.780629591421572844e-01
-3.136733003659999852e+01 3.835649407200000027e+00 3.875003876110000078e+01 -6.286254596077398560e-01 7.706793419951067647e-02 7.738802007101470704e-01
-3.158040614389999945e+01 4.112610577599999928e+00 3.854708165070000092e+01 -6.330740455098508024e-01 8.284771577637749240e-02 7.696450538348361681e-01
-3.179145664039999986e+01 4.389343326599999706e+00 3.834139032200000230e+01 -6.374741724000856369e-01 8.861709318822355574e-02 7.653585371038175156e-01
-3.200048147940000121e+01 4.665847648699999795e+00 3.813296471190000148e+01 -6.418250220930776795e-01 9.437485782391892564e-02 7.610216995762574266e-01
-3.220748061430000320e+01 4.942123538699999763e+00 3.792180475749999857e+01 -6.459270668592637099e-01 1.000278295505061948e-01 7.568174532963698464e-01
-3.241245399830000196e+01 5.218170991400000069e+00 3.770791039560000257e+01 -6.501900559473490215e-01 1.054750581647300872e-01 7.524147149360717046e-01
-3.261540158470000250e+01 5.493990001500000275e+00 3.749128156319999761e+01 -6.543913106418088876e-01 1.111917419517658018e-01 7.479360995955652847e-01
-3.281632332670000096e+01 5.769580563699999942e+00 3.727191819720000154e+01 -6.584745704696322033e-01 1.166255023796740065e-01 7.435117566249521692e-01
-3.301521917769999703e+01 6.044942672800000416e+00 3.704982023459999851e+01 -6.625724578991412095e-01 1.223091697431372554e-01 7.389439796291971119e-01
-3.321208909079999927e+01 6.320076323400000362e+00 3.682498761229999928e+01 -6.666169334660875245e-01 1.279743483910942559e-01 7.343326427240891574e-01
-3.340693301959999673e+01 6.594981510300000238e+00 3.659742026709999863e+01 -6.706074238872300475e-01 1.336199282267968302e-01 7.296789690048620658e-01
-3.359975091700000149e+01 6.869658228299999614e+00 3.636711813619999845e+01 -6.745433929296599240e-01 1.392448177581172841e-01 7.249842010571341255e-01
-3.379054273660000263e+01 7.144106472099999827e+00 3.613408115640000062e+01 -6.784243416240114399e-01 1.448479450875945762e-01 7.202495994416988623e-01
-3.397930843150000157e+01 7.418326236400000440e+00 3.589830926460000171e+01 -6.824533936616445917e-01 1.504159642773098826e-01 7.152848405846662372e-01
-3.416604795509999803e+01 7.692317515900000124e+00 3.565980239780000005e+01 -6.862214716561617633e-01 1.559719761543710836e-01 7.104736691057254028e-01
-3.435076126050000056e+01 7.966080305400000228e+00 3.541856049289999930e+01 -6.901123177815154941e-01 1.615892072499261201e-01 7.054317238022153047e-01
-3.453344830120000353e+01 8.239614599599999423e+00 3.517458348680000313e+01 -6.937655979899719494e-01 1.670937812750983853e-01 7.005490441823514214e-01
-3.471410903030000128e+01 8.512920393199999936e+00 3.492787131659999744e+01 -6.974101248345059290e-01 1.728209240406124170e-01 6.955228579939465305e-01
-3.489274340120000062e+01 8.785997680999999560e+00 3.467842391909999833e+01 -7.007480570083692850e-01 1.783781390420776380e-01 6.907484347509449396e-01
-3.506935136719999946e+01 9.058846457699999632e+00 3.442624123129999703e+01 -7.035116077057625983e-01 1.830330326823573217e-01 6.867097835114571724e-01
-3.524393288150000103e+01 9.331466717999999716e+00 3.417132319009999719e+01 -7.060193499620682767e-01 1.870060666661842175e-01 6.830559336607664456e-01
-3.541648789730000146e+01 9.603858456699999380e+00 3.391366973249999717e+01 -7.084712635458663144e-01 1.909332256005039363e-01 6.794210565558818082e-01
-3.558701636810000224e+01 9.876021668399999953e+00 3.365328079529999883e+01 -7.108345525818616784e-01 1.947674273396154399e-01 6.758549312561474842e-01
-3.575551824699999770e+01 1.014795634799999924e+01 3.339015631560000230e+01 -7.130147628297190954e-01 1.983674354399254380e-01 6.725030174979638176e-01
-3.592199348740000175e+01 1.041966249020000035e+01 3.312429623020000236e+01 -7.153912883425802560e-01 2.015184388331285326e-01 6.690333499712866061e-01
-3.608644204250000342e+01 1.069114008969999929e+01 3.285570047609999733e+01 -7.173716603900641697e-01 2.047542290081606764e-01 6.659231236204943283e-01
-3.624886386560000062e+01 1.096238914109999918e+01 3.258436899029999978e+01 -7.194239594152908035e-01 2.081327083483956730e-01 6.626537122319522410e-01
-3.640925890999999837e+01 1.123340963929999958e+01 3.231030170969999915e+01 -7.215706020514434105e-01 2.116948137342614944e-01 6.591821994662274697e-01
-2.398560201320000118e+01 -5.154281202399999984e+00 4.352745051670000009e+01 -4.924442652867220271e-01 -9.109799660635861662e-02 8.655632851505016268e-01
-2.426144659059999853e+01 -4.870241835599999902e+00 4.340921980230000088e+01 -4.960888683563475232e-01 -8.733027952201782851e-02 8.638687730040512935e-01
-2.453526700540000149e+01 -4.586430726999999763e+00 4.328825682440000122e+01 -4.995253823909673319e-01 -8.376138908595040511e-02 8.622403505088066522e-01
-2.480706321099999911e+01 -4.302847881799999996e+00 4.316456152010000125e+01 -5.030948464432857259e-01 -8.029785799275770963e-02 8.604927829354422908e-01
-2.507683516080000174e+01 -4.019493305500000169e+00 4.303813382639999929e+01 -5.063148440362805758e-01 -7.635198460465196513e-02 8.589619625777662471e-01
-2.534458280790000018e+01 -3.736367003099999806e+00 4.290897368009999724e+01 -5.101277807703178402e-01 -7.252702123353593766e-02 8.570352842662550819e-01
-2.561030610570000121e+01 -3.453468980099999808e+00 4.277708101820000053e+01 -5.139179127309422279e-01 -6.857491176757202211e-02 8.550940652643669315e-01
-2.587400500740000098e+01 -3.170799241600000151e+00 4.264245577759999861e+01 -5.178284104505752605e-01 -6.486474515452804457e-02 8.530218649989393942e-01
-2.613567946630000094e+01 -2.888357792999999951e+00 4.250509789529999694e+01 -5.218356913737075553e-01 -6.045015169520671222e-02 8.509014574958436716e-01
-2.639532943569999901e+01 -2.606144639400000074e+00 4.236500730819999916e+01 -5.260886252582039901e-01 -5.588541124392828324e-02 8.485915266982283489e-01
-2.665295486890000021e+01 -2.324159786300000086e+00 4.222218395329999652e+01 -5.313419282456696147e-01 -5.019470767580592324e-02 8.456691117745250841e-01
-2.690855571919999889e+01 -2.042403238699999957e+00 4.207662776739999799e+01 -5.365813611361726077e-01 -4.420832204179785119e-02 8.426897810840600078e-01
-2.716213193979999829e+01 -1.760875002099999920e+00 4.192833868759999660e+01 -5.417838224640023626e-01 -3.848508827159714818e-02 8.396363425299204764e-01
-2.741368348410000166e+01 -1.479575081599999953e+00 4.177731665070000133e+01 -5.469592556577989040e-01 -3.274757888350413038e-02 8.365184808045398324e-01
-2.766321030519999979e+01 -1.198503482600000059e+00 4.162356159370000341e+01 -5.521063896526532400e-01 -2.699694246555993035e-02 8.333364864220358381e-01
-2.791071235660000127e+01 -9.176602103000000010e-01 4.146707345349999940e+01 -5.572239638842353404e-01 -2.123434245437372594e-02 8.300906918967775328e-01
-2.815618959140000044e+01 -6.370452699999999968e-01 4.130785216719999653e+01 -5.620820410983439208e-01 -1.556268487885893725e-02 8.269350530205386018e-01
-2.839964196289999876e+01 -3.566586668999999765e-01 4.114589767150000199e+01 -5.669012077004396133e-01 -9.776172486264477976e-03 8.237277749106812763e-01
-2.864106942449999949e+01 -7.650040639999999836e-02 4.098120990350000170e+01 -5.719244990322972511e-01 -3.984978187976580613e-03 8.202965849956326272e-01
-2.888047192939999874e+01 2.034295063999999875e-01 4.081378880009999932e+01 -5.768271418974543208e-01 1.550126674846228573e-03 8.168647657217846803e-01
-2.911784943090000155e+01 4.831310661000000062e-01 4.064363429819999851e+01 -5.817816040917878073e-01 7.354323358651825536e-03 8.133117969563226080e-01
-2.935320188229999872e+01 7.626042674999999882e-01 4.047074633470000293e+01 -5.866993526572101825e-01 1.316335348714958026e-02 8.096978422328807712e-01
-2.958652923689999881e+01 1.041849105300000078e+00 4.029512484669999850e+01 -5.915792386678865311e-01 1.897598310657917092e-02 8.060235210229677039e-01
-2.981783144779999972e+01 1.320865574299999956e+00 4.011676977100000130e+01 -5.964201347657123176e-01 2.479097305242306329e-02 8.022894929519914786e-01
-3.004710846860000117e+01 1.599653669100000064e+00 3.993568104460000256e+01 -6.012209364532449252e-01 3.060708026385612970e-02 7.984964572294639407e-01
-3.027436025229999927e+01 1.878213384499999972e+00 3.975185860450000064e+01 -6.059819004374570328e-01 3.614054393411328392e-02 7.946570313200245206e-01
-3.049958675230000082e+01 2.156544715299999915e+00 3.956530238740000271e+01 -6.107003130675291436e-01 4.195513711487176139e-02 7.907495773561274977e-01
-3.072278792179999840e+01 2.434647656200000121e+00 3.937601233049999649e+01 -6.153754834506502958e-01 4.776714805942681302e-02 7.867854306824365596e-01
-3.094396371419999880e+01 2.712522201800000143e+00 3.918398837059999806e+01 -6.200064099494398961e-01 5.357533139594273380e-02 7.827654409128075308e-01
-3.116311408279999995e+01 2.990168347000000004e+00 3.898923044469999866e+01 -6.243704159540691689e-01 5.938632307730830340e-02 7.788676706043846654e-01
-3.138023898069999973e+01 3.267586086400000145e+00 3.879173848970000194e+01 -6.289111351342044909e-01 6.518326327383933139e-02 7.747399088037093540e-01
-3.159533836139999963e+01 3.544775414800000135e+00 3.859151244249999735e+01 -6.334048104502633114e-01 7.097268026300695976e-02 7.705590339193688632e-01
-3.180841217800000109e+01 3.821736326999999989e+00 3.838855224009999745e+01 -6.378505600403869824e-01 7.675334740277546530e-02 7.663260316070656941e-01
-3.201946038389999671e+01 4.098468817599999703e+00 3.818285781950000057e+01 -6.422475344401892272e-01 8.252404601564458653e-02 7.620419190141090038e-01
-3.222848293229999683e+01 4.374972881399999736e+00 3.797442911750000150e+01 -6.465949173762447488e-01 8.828356666268016850e-02 7.577077435796226723e-01
-3.243547977650000291e+01 4.651248513199999657e+00 3.776326607109999856e+01 -6.506939697982301318e-01 9.393875752786089162e-02 7.535070454231610482e-01
-3.264045086990000044e+01 4.927295707499999899e+00 3.754936861720000252e+01 -6.549415159477816051e-01 9.967272594727794033e-02 7.490774048055784951e-01
-3.284339616559999797e+01 5.203114459300000050e+00 3.733273669279999751e+01 -6.591486798394398106e-01 1.051081093990051951e-01 7.446309845853114062e-01
-3.304431561700000231e+01 5.478704763199999661e+00 3.711337023490000320e+01 -6.632266973636286034e-01 1.105451548122022842e-01 7.402095086201473384e-01
-3.324320917730000247e+01 5.754066614000000079e+00 3.689126918030000013e+01 -6.673196034975495960e-01 1.162326837380648348e-01 7.356456416094099282e-01
-3.344007679980000347e+01 6.029200006299999970e+00 3.666643346600000086e+01 -6.713587986518682049e-01 1.219021483194694111e-01 7.310384598007265700e-01
-3.363491843789999791e+01 6.304104934899999790e+00 3.643886302890000195e+01 -6.753437126215892095e-01 1.275524357623240290e-01 7.263891835328954993e-01
-3.382773404470000145e+01 6.578781394599999999e+00 3.620855780600000173e+01 -6.792738124050500259e-01 1.331824516248298063e-01 7.216990524864979051e-01
-3.401852357370000135e+01 6.853229380100000157e+00 3.597551773419999677e+01 -6.833523343264824579e-01 1.387792707122576796e-01 7.167774418821514226e-01
-3.420728697789999728e+01 7.127448885999999817e+00 3.573974275039999782e+01 -6.871698793318538057e-01 1.443650947185857458e-01 7.120086209913045749e-01
-3.439402421079999783e+01 7.401439907200000334e+00 3.550123279160000322e+01 -6.909312200975801233e-01 1.499274694962362819e-01 7.072028018785874171e-01
-3.457873522559999913e+01 7.675202438400000382e+00 3.525998779479999712e+01 -6.948141196876391756e-01 1.555516094766684621e-01 7.021659603483415557e-01
-3.476141997570000086e+01 7.948736474300000410e+00 3.501600769680000269e+01 -6.982606137948812464e-01 1.611704194752068831e-01 6.974641289048360004e-01
-3.494207841419999738e+01 8.222042009600000867e+00 3.476929243459999697e+01 -7.018504312235053222e-01 1.666558602735577488e-01 6.925545440092498728e-01
-3.512071049440000081e+01 8.495119039100000435e+00 3.451984194509999782e+01 -7.054292235229900898e-01 1.723638325840267105e-01 6.875029598603173975e-01
-3.529731616969999664e+01 8.767967557500000453e+00 3.426765616529999647e+01 -7.082110187533255941e-01 1.767401892056804646e-01 6.835203423716932347e-01
-3.547189539330000230e+01 9.040587559500000481e+00 3.401273503219999839e+01 -7.106890916573594952e-01 1.810057878588027247e-01 6.798219765209502219e-01
-3.564444811860000328e+01 9.312979039900000089e+00 3.375507848249999654e+01 -7.131350275595521593e-01 1.849396821486657128e-01 6.761920928511271356e-01
-3.581497429870000104e+01 9.585141993300000607e+00 3.349468645339999995e+01 -7.154924315616071340e-01 1.887806634666352179e-01 6.726309846261588898e-01
-3.598347388690000059e+01 9.857076414599999836e+00 3.323155888170000338e+01 -7.176671222493530289e-01 1.923872466538395221e-01 6.692839823029435031e-01
-3.614994683670000342e+01 1.012878229849999911e+01 3.296569570439999808e+01 -7.200351837567042779e-01 1.955441286239795184e-01 6.658166623877310730e-01
-3.631439310110000207e+01 1.040025963959999977e+01 3.269709685830000012e+01 -7.220099613664108240e-01 1.987861650804250147e-01 6.627108541892849924e-01
-3.647681263359999804e+01 1.067150843279999961e+01 3.242576228050000253e+01 -7.240563319433568346e-01 2.021713227914816446e-01 6.594461194164950024e-01
-3.663720538740000165e+01 1.094252867269999996e+01 3.215169190790000187e+01 -7.261966193034068429e-01 2.057406559668827906e-01 6.559796129413013599e-01
-2.421166708350000007e+01 -5.445374329299999872e+00 4.336630114630000321e+01 -4.971337653424207081e-01 -9.703574009002222112e-02 8.622308765647683781e-01
-2.448750937009999973e+01 -5.161335220699999837e+00 4.324806733980000217e+01 -5.007823648856930543e-01 -9.327541754163004573e-02 8.605328114034509479e-01
-2.476132749430000146e+01 -4.877524370399999754e+00 4.312710126999999716e+01 -5.045419869959285597e-01 -8.965469432186140564e-02 8.587196394308531655e-01
-2.503312140930000140e+01 -4.593941783600000051e+00 4.300340287379999893e+01 -5.077946573013478737e-01 -8.625651104682668935e-02 8.571489954017537105e-01
-2.530289106840000102e+01 -4.310587465600000279e+00 4.287697208809999694e+01 -5.112615020335373739e-01 -8.217782971179998786e-02 8.554872768441793562e-01
-2.557063642490000177e+01 -4.027461421499999972e+00 4.274780884980000195e+01 -5.148358661063433539e-01 -7.849975733946890077e-02 8.536871904088616514e-01
-2.583635743199999979e+01 -3.744563656800000029e+00 4.261591309589999810e+01 -5.186292633027664856e-01 -7.455452370085363656e-02 8.517425140509123915e-01
-2.610005404309999832e+01 -3.461894176599999984e+00 4.248128476339999793e+01 -5.224972346546828961e-01 -7.050256122848336249e-02 8.497211475763287725e-01
-2.636172621140000061e+01 -3.179452986299999839e+00 4.234392378910000332e+01 -5.263905981732673878e-01 -6.639917142739336364e-02 8.476462046092965164e-01
-2.662137389020000100e+01 -2.897240091000000017e+00 4.220383010999999840e+01 -5.308090089717725224e-01 -6.188612231424530513e-02 8.452289061900988276e-01
-2.687899703269999918e+01 -2.615255496200000085e+00 4.206100366310000283e+01 -5.360660074305759748e-01 -5.620411957858162388e-02 8.423029933579946338e-01
-2.713459559229999840e+01 -2.333499207000000020e+00 4.191544438529999894e+01 -5.412982646992854363e-01 -5.050517563012925371e-02 8.393124661698477817e-01
-2.738816952230000012e+01 -2.051971228599999808e+00 4.176715221349999752e+01 -5.465154539766589048e-01 -4.451106232809253632e-02 8.362652832057008156e-01
-2.763971877590000048e+01 -1.770671566499999905e+00 4.161612708460000221e+01 -5.516936678431116903e-01 -3.878107493652684784e-02 8.331447203749069441e-01
-2.788924330640000093e+01 -1.489600225800000066e+00 4.146236893569999893e+01 -5.568432729025060146e-01 -3.303756406314935223e-02 8.299602934984290359e-01
-2.813674306709999939e+01 -1.208757211800000064e+00 4.130587770350000199e+01 -5.617338891177531268e-01 -2.738310104449475160e-02 8.268646827588120862e-01
-2.838221801130000088e+01 -9.281425298000000046e-01 4.114665332519999907e+01 -5.665871268972577646e-01 -2.161250667789963234e-02 8.237183542870758490e-01
-2.862566809220000152e+01 -6.477561849999999843e-01 4.098469573759999918e+01 -5.716451704751623897e-01 -1.583567998834909188e-02 8.203481153216171107e-01
-2.886709326309999923e+01 -3.675981828000000062e-01 4.082000487759999885e+01 -5.766697158579806581e-01 -1.004999226636319604e-02 8.169155626303871154e-01
-2.910649347740000081e+01 -8.766852830000000651e-02 4.065258068220000354e+01 -5.815726982490551089e-01 -4.519781209487409683e-03 8.134818794718982060e-01
-2.934386868829999884e+01 1.920327730999999982e-01 4.048242308830000269e+01 -5.865277875985142053e-01 1.279725808015084966e-03 8.099280935222882283e-01
-2.957921884900000009e+01 4.715057161999999802e-01 4.030953203290000175e+01 -5.914458474232175966e-01 7.084488505345220427e-03 8.063135987867560139e-01
-2.981254391290000072e+01 7.507502956999999588e-01 4.013390745289999728e+01 -5.963257286567764659e-01 1.289327567257146298e-02 8.026390152393513278e-01
-3.004384383320000040e+01 1.029766506300000106e+00 3.995554928530000183e+01 -6.011663039915361439e-01 1.870485062554295280e-02 7.989050028058606312e-01
-3.027311856329999884e+01 1.308554342899999945e+00 3.977445746690000306e+01 -6.059664691673691816e-01 2.451797251542747746e-02 7.951122607962756161e-01
-3.050036805639999926e+01 1.587113800000000019e+00 3.959063193480000109e+01 -6.107251442252463747e-01 3.033139765464358886e-02 7.912615272635008523e-01
-3.072559226570000135e+01 1.865444872399999898e+00 3.940407262579999781e+01 -6.154425833647674260e-01 3.586141349116499233e-02 7.873654714322422254e-01
-3.094879114460000125e+01 2.143547555000000049e+00 3.921477947689999866e+01 -6.201161725158579330e-01 4.167171862862451004e-02 7.834024511391443069e-01
-3.116996464640000042e+01 2.421421842300000016e+00 3.902275242500000019e+01 -6.245235261560094786e-01 4.748645145471961510e-02 7.795610317389540800e-01
-3.138911272429999855e+01 2.699067729199999821e+00 3.882799140710000074e+01 -6.291081848827173584e-01 5.328884754893928322e-02 7.754890008507395738e-01
-3.160623533160000065e+01 2.976485210299999906e+00 3.863049636009999688e+01 -6.336464026982558950e-01 5.908539089377894821e-02 7.713631783605494618e-01
-3.182133242160000108e+01 3.253674280399999841e+00 3.843026722100000114e+01 -6.381372677310602759e-01 6.487484845700261515e-02 7.671845159871371056e-01
-3.203440394759999776e+01 3.530634934300000083e+00 3.822730392660000120e+01 -6.425798998267905349e-01 7.065599359234128740e-02 7.629539978976916936e-01
-3.224544986280000103e+01 3.807367166600000186e+00 3.802160641399999719e+01 -6.469734514056416641e-01 7.642760733589402944e-02 7.586726395575248416e-01
-3.245447012059999992e+01 4.083870972099999719e+00 3.781317462009999986e+01 -6.511183147927690484e-01 8.209619989925269479e-02 7.545231302640936777e-01
-3.266146467419999766e+01 4.360146345499999576e+00 3.760200848169999688e+01 -6.554129411057717514e-01 8.784548156562886623e-02 7.501446847106127969e-01
-3.286643347689999928e+01 4.636193281599999771e+00 3.738810793590000259e+01 -6.596561736382359209e-01 9.358166408472461117e-02 7.457185827965502334e-01
-3.306937648190000090e+01 4.912011775099999866e+00 3.717147291949999754e+01 -6.638473012356901348e-01 9.930357137940004630e-02 7.412459519979770484e-01
-3.327029364269999689e+01 5.187601820600000302e+00 3.695210336960000319e+01 -6.679971323427092988e-01 1.047264528227659919e-01 7.367578986757306048e-01
-3.346918491230000114e+01 5.462963413099999777e+00 3.672999922300000009e+01 -6.720179135662034398e-01 1.101504800251120186e-01 7.322969313033915739e-01
-3.366605024420000092e+01 5.738096547099999611e+00 3.650516041670000078e+01 -6.760516363433051179e-01 1.158238415533629356e-01 7.276943195637582962e-01
-3.386088959170000123e+01 6.013001217400000264e+00 3.627758688769999651e+01 -6.800307935484986022e-01 1.214784510250113692e-01 7.230498639529387983e-01
-3.405370290790000354e+01 6.287677418800000417e+00 3.604727857280000336e+01 -6.841587130867076150e-01 1.271018116789841834e-01 7.181726705851874115e-01
-3.424449014609999864e+01 6.562125145899999623e+00 3.581423540899999836e+01 -6.880257165696230803e-01 1.327152160992620122e-01 7.134474646072987980e-01
-3.443325125980000223e+01 6.836344393600000124e+00 3.557845733330000115e+01 -6.916355327274711362e-01 1.384148043938838724e-01 7.088593878854887453e-01
-3.461998620199999976e+01 7.110335156499999698e+00 3.533994428260000120e+01 -6.955702251183800700e-01 1.440690013096543598e-01 7.038651751510404120e-01
-3.480469492619999983e+01 7.384097429399999690e+00 3.509869619370000038e+01 -6.992670707814815367e-01 1.496127619699529343e-01 6.990290302815818091e-01
-3.498737738559999855e+01 7.657631206899999654e+00 3.485471300380000059e+01 -7.029067232366529305e-01 1.551314568691604112e-01 6.941587495078939130e-01
-3.516803353339999916e+01 7.930936483900000056e+00 3.460799464960000194e+01 -7.064888802352052855e-01 1.606241176462779863e-01 6.892556528127719018e-01
-3.534666332300000136e+01 8.204013255099999569e+00 3.435854106819999743e+01 -7.100601633361165455e-01 1.663400642083191217e-01 6.842116247786643735e-01
-3.552326670770000305e+01 8.476861515199999531e+00 3.410635219640000315e+01 -7.128354680190568393e-01 1.707230858566343157e-01 6.802346826571256111e-01
-3.569784364059999859e+01 8.749481258899999503e+00 3.385142797129999792e+01 -7.153085269755775633e-01 1.749954733256789963e-01 6.765429000082339162e-01
-3.587039407519999656e+01 9.021872481000000832e+00 3.359376832969999782e+01 -7.177484471724494552e-01 1.789358529035663392e-01 6.729183658715304217e-01
-3.604091796470000020e+01 9.294035176099999518e+00 3.333337320860000119e+01 -7.200999350967219881e-01 1.827833700579424014e-01 6.693626245197427105e-01
-3.620941526229999852e+01 9.565969339100000468e+00 3.307024254489999748e+01 -7.222690844187032999e-01 1.863962987891110146e-01 6.660208626542327703e-01
-3.637588592139999832e+01 9.837674964599999683e+00 3.280437627559999925e+01 -7.246286144387712458e-01 1.895589091190903464e-01 6.625562550532044792e-01
-3.654032989520000285e+01 1.010915204750000029e+01 3.253577433760000304e+01 -7.265977813846000721e-01 1.928069930751929173e-01 6.594551747528252239e-01
-3.670274713700000291e+01 1.038040058230000007e+01 3.226443666779999830e+01 -7.286382100806582107e-01 1.961986226085870588e-01 6.561954429108358688e-01
-3.686313760019999819e+01 1.065142056390000036e+01 3.199036320329999938e+01 -7.307721320925351094e-01 1.997749669232694036e-01 6.527342901577465328e-01
-2.443571762219999854e+01 -5.736694628300000431e+00 4.320243251240000149e+01 -5.017869142994818565e-01 -1.029637715310778578e-01 8.588412859137013466e-01
-2.471155761820000052e+01 -5.452655778099999573e+00 4.308419561400000219e+01 -5.057895755799530768e-01 -9.914227416947468674e-02 8.569409050262193350e-01
-2.498537345169999924e+01 -5.168845186100000433e+00 4.296322645219999714e+01 -5.092013569126573325e-01 -9.559762557487666568e-02 8.553216191017002368e-01
-2.525716507610000150e+01 -4.885262857599999897e+00 4.283952496399999887e+01 -5.124571257526131518e-01 -9.220610335901036070e-02 8.537480475929172252e-01
-2.552693244450000165e+01 -4.601908797800000173e+00 4.271309108639999863e+01 -5.159288104702003386e-01 -8.813519767531545479e-02 8.520854707466483102e-01
-2.579467551040000117e+01 -4.318783012099999929e+00 4.258392475609999650e+01 -5.195059845583126501e-01 -8.446395127234171407e-02 8.502819373264152158e-01
-2.606039422679999973e+01 -4.035885505699999598e+00 4.245202591030000150e+01 -5.233023012731551349e-01 -8.052584008853511111e-02 8.483338320261992749e-01
-2.632408854719999880e+01 -3.753216283800000053e+00 4.231739448580000129e+01 -5.271731423888659229e-01 -7.648102922976453277e-02 8.463091220776273182e-01
-2.658575842489999985e+01 -3.470775351799999964e+00 4.218003041949999954e+01 -5.310692746794249963e-01 -7.238473785268879912e-02 8.442309371359634218e-01
-2.684540381300000078e+01 -3.188562714800000197e+00 4.203993364850000347e+01 -5.354216581953160636e-01 -6.760856270749932007e-02 8.418745335167254762e-01
-2.710302466490000128e+01 -2.906578378299999876e+00 4.189710410960000075e+01 -5.406813969439422385e-01 -6.193509149029121502e-02 8.389443792295389057e-01
-2.735862093389999927e+01 -2.624822347399999867e+00 4.175154173979999683e+01 -5.459853910306926572e-01 -5.651614489551174542e-02 8.358862830237204777e-01
-2.761219257320000153e+01 -2.343294627400000163e+00 4.160324647600000247e+01 -5.511942498924471412e-01 -5.080968071023946736e-02 8.328284788788301585e-01
-2.786373953620000066e+01 -2.061995223499999863e+00 4.145221825520000181e+01 -5.563868476291746745e-01 -4.480860960532015436e-02 8.297143269165042634e-01
-2.811326177600000165e+01 -1.780924141100000080e+00 4.129845701429999849e+01 -5.615384836465925344e-01 -3.907261039227282601e-02 8.265275933089101246e-01
-2.836075924609999888e+01 -1.500081385399999911e+00 4.114196269020000329e+01 -5.661952719689398172e-01 -3.342137507775436861e-02 8.235933011431857409e-01
-2.860623189960000090e+01 -1.219466961700000018e+00 4.098273521990000035e+01 -5.712870469591082578e-01 -2.766132706745090195e-02 8.202840733316776323e-01
-2.884967968990000031e+01 -9.390808752999999509e-01 4.082077454030000041e+01 -5.763462396271801236e-01 -2.189081498375423582e-02 8.169123602241283866e-01
-2.909110257020000034e+01 -6.589231313000000201e-01 4.065608058830000004e+01 -5.813716272583819844e-01 -1.611103184906885824e-02 8.134786202917070330e-01
-2.933050049379999891e+01 -3.789937352000000148e-01 4.048865330099999937e+01 -5.863620036711051364e-01 -1.032318141041053787e-02 8.099833532711487871e-01
-2.956787341400000102e+01 -9.929269209999999624e-02 4.031849261509999849e+01 -5.912298647208241720e-01 -4.791669704589911725e-03 8.064888635087519297e-01
-2.980322128410000104e+01 1.801799927000000134e-01 4.014559846779999930e+01 -5.961478482624038566e-01 1.008421261783019104e-03 8.028740412410060312e-01
-3.003654405740000044e+01 4.594243138999999920e-01 3.996997079580000189e+01 -6.010273458979423777e-01 6.812960037135196677e-03 7.991994200813757887e-01
-3.026784168709999889e+01 7.384402662000000284e-01 3.979160953619999930e+01 -6.058672306302423927e-01 1.262071267349715135e-02 7.954656601387979364e-01
-3.049711412650000142e+01 1.017227844400000025e+00 3.961051462590000227e+01 -6.106663986898096530e-01 1.843044079642596270e-02 7.916734606915075689e-01
-3.072436132889999882e+01 1.295787043300000052e+00 3.942668600169999849e+01 -6.154237707888443598e-01 2.424090292149452125e-02 7.878235595446423378e-01
-3.094958324759999968e+01 1.574117857400000098e+00 3.924012360079999695e+01 -6.201382933268458908e-01 3.005085577478042863e-02 7.839167323235741724e-01
-3.117277983589999835e+01 1.852220281599999963e+00 3.905082735989999776e+01 -6.245885963722904721e-01 3.558443559175762660e-02 7.801428287341414247e-01
-3.139395104700000161e+01 2.130094310600000096e+00 3.885879721610000104e+01 -6.292165523779522651e-01 4.138976544181142275e-02 7.761271915931534648e-01
-3.161309683420000027e+01 2.407739939199999846e+00 3.866403310620000155e+01 -6.337987086895221500e-01 4.719091740191416057e-02 7.720571314211531755e-01
-3.183021715090000114e+01 2.685157161999999875e+00 3.846653496719999765e+01 -6.383341241680635658e-01 5.298665419348710937e-02 7.679335650952958670e-01
-3.204531195029999679e+01 2.962345973800000198e+00 3.826630273610000188e+01 -6.428218886513152874e-01 5.877574332758522119e-02 7.637574428226842072e-01
-3.225838118560000112e+01 3.239306369399999941e+00 3.806333634979999658e+01 -6.472611238626115870e-01 6.455695841500247445e-02 7.595297470516295668e-01
-3.246942481020000315e+01 3.516038343399999988e+00 3.785763574519999963e+01 -6.516509842599461644e-01 7.032908046161912008e-02 7.552514913288597143e-01
-3.267844277729999902e+01 3.792541890599999910e+00 3.764920085930000226e+01 -6.557926803803699745e-01 7.599864509347038777e-02 7.511059621008787657e-01
-3.288543504020000086e+01 4.068817005699999712e+00 3.743803162900000103e+01 -6.600830456962794024e-01 8.174930262832448558e-02 7.467311593231571454e-01
-3.309040155230000124e+01 4.344863683499999851e+00 3.722412799119999960e+01 -6.643217297477189698e-01 8.748729756345434427e-02 7.423089735076913165e-01
-3.329334226670000163e+01 4.620681918599999882e+00 3.700748988290000341e+01 -6.685080240278472585e-01 9.321145266148503361e-02 7.378405294527530245e-01
-3.349425713680000172e+01 4.896271705900000271e+00 3.678811724100000191e+01 -6.726412560463437273e-01 9.892060420086547234e-02 7.333269766815706525e-01
-3.369314611579999763e+01 5.171633039999999681e+00 3.656601000239999877e+01 -6.766664650835041428e-01 1.040638517296531840e-01 7.288986279274943803e-01
-3.389000915710000328e+01 5.446765915700000349e+00 3.634116810420000121e+01 -6.806945266616314383e-01 1.097407185647248651e-01 7.243009982471344532e-01
-3.408484621379999879e+01 5.721670327700000058e+00 3.611359148319999690e+01 -6.848717124049974458e-01 1.153883179266228937e-01 7.194694389850837535e-01
-3.427765723939999987e+01 5.996346270800000156e+00 3.588328007629999661e+01 -6.885866143741988799e-01 1.211350641969484582e-01 7.149648737712080981e-01
-3.446844218700000084e+01 6.270793739700000202e+00 3.565023382060000046e+01 -6.924481641307794755e-01 1.267533750690918171e-01 7.102458179394701698e-01
-3.465720101000000142e+01 6.545012728999999752e+00 3.541445265290000322e+01 -6.962534081951916587e-01 1.323501086122940706e-01 7.054889370691036499e-01
-3.484393366159999772e+01 6.819003233600000158e+00 3.517593651010000144e+01 -7.001801520348246433e-01 1.380100756628711012e-01 7.005005165679883961e-01
-3.502864009519999655e+01 7.092765248100000086e+00 3.493468532939999704e+01 -7.038697413644487977e-01 1.435598815538604300e-01 6.956708615428602860e-01
-3.521132026389999936e+01 7.366298767400000003e+00 3.469069904740000254e+01 -7.075018867226505748e-01 1.490850308605244368e-01 6.908073058800161537e-01
-3.539197412109999874e+01 7.639603786100000349e+00 3.444397760129999853e+01 -7.110762898231408613e-01 1.545845512108881548e-01 6.859111652235184708e-01
-3.557060161999999792e+01 7.912680298999999806e+00 3.419452092790000108e+01 -7.145926898394356908e-01 1.600574941167001164e-01 6.809837635400145528e-01
-3.574720271409999839e+01 8.185528300699999704e+00 3.394232896420000145e+01 -7.174087536567312906e-01 1.646974901049535478e-01 6.769042893421670648e-01
-3.592177735639999980e+01 8.458147786099999621e+00 3.368740164710000329e+01 -7.198928984769005224e-01 1.686895409259848988e-01 6.732741295376702961e-01
-3.609432550030000186e+01 8.730538749899999118e+00 3.342973891350000315e+01 -7.223106475499511125e-01 1.729229796084759130e-01 6.696006060027849260e-01
-3.626484709910000248e+01 9.002701186699999525e+00 3.316934070039999938e+01 -7.246561916955359672e-01 1.767767847117918123e-01 6.660505778274524724e-01
-3.643334210609999957e+01 9.274635091400000420e+00 3.290620694479999742e+01 -7.268197809678085264e-01 1.803958254315591869e-01 6.627143820385773543e-01
-3.659981047459999814e+01 9.546340458599999579e+00 3.264033758349999914e+01 -7.291707170147473382e-01 1.835640101762079923e-01 6.592528495321260396e-01
-3.676425215769999966e+01 9.817817283200000134e+00 3.237173255350000289e+01 -7.311342602402313151e-01 1.868179390180050026e-01 6.561568037931444497e-01
-3.692666710889999848e+01 1.008906555969999985e+01 3.210039179179999991e+01 -7.331687369731032522e-01 1.902158297518857510e-01 6.529023979409677159e-01
-3.708705528139999785e+01 1.036008528300000009e+01 3.182631523530000095e+01 -7.352962871511068421e-01 1.937989641684957909e-01 6.494469428590877724e-01
-2.465775336220000113e+01 -6.028242129599999721e+00 4.303584425489999887e+01 -5.067945076567905716e-01 -1.088015351296723054e-01 8.551734052005701692e-01
-2.493359106759999833e+01 -5.744203537699999806e+00 4.291760426449999954e+01 -5.104079465094133461e-01 -1.050674316645956452e-01 8.534896384511352352e-01
-2.520740461049999936e+01 -5.460393203999999834e+00 4.279663201070000156e+01 -5.138227866745908035e-01 -1.015300733074192274e-01 8.518672361983102848e-01
-2.547919394419999861e+01 -5.176811133800000242e+00 4.267292743059999793e+01 -5.173299380153373317e-01 -9.799689076372714025e-02 8.501566588774622790e-01
-2.574895902200000108e+01 -4.893457332299999685e+00 4.254649046090000297e+01 -5.205575801125299495e-01 -9.408257844731289510e-02 8.486272881660664735e-01
-2.601669979720000114e+01 -4.610331804900000385e+00 4.241732103870000259e+01 -5.241372345097998764e-01 -9.041838085710575401e-02 8.468203326583499946e-01
-2.628241622299999847e+01 -4.327434556800000109e+00 4.228541910090000044e+01 -5.279361233502156692e-01 -8.648763440506505862e-02 8.448688293202452071e-01
-2.654610825279999986e+01 -4.044765593300000184e+00 4.215078458440000020e+01 -5.318094815379756923e-01 -8.245022591131320744e-02 8.428408127241365788e-01
-2.680777583980000145e+01 -3.762324919500000142e+00 4.201341742620000019e+01 -5.357080286723621132e-01 -7.836128831902218483e-02 8.407594284389291461e-01
-2.706741893730000115e+01 -3.480112540899999996e+00 4.187331756319999698e+01 -5.400636036692677555e-01 -7.359345533445595111e-02 8.384004456843396902e-01
-2.732503749860000042e+01 -3.198128462700000174e+00 4.173048493240000312e+01 -5.453261183997835104e-01 -6.792940363515009849e-02 8.354669477081653195e-01
-2.758063147689999894e+01 -2.916372690100000220e+00 4.158491947059999916e+01 -5.505632903723444160e-01 -6.224768774501434482e-02 8.324693920287860038e-01
-2.783420082559999997e+01 -2.634845228400000128e+00 4.143662111479999766e+01 -5.557738269721650415e-01 -5.654940753948543841e-02 8.294079923413126831e-01
-2.808574549789999963e+01 -2.353546082799999883e+00 4.128558980199999695e+01 -5.609564436715961389e-01 -5.083568045108066702e-02 8.262830035141659479e-01
-2.833526544709999939e+01 -2.072475258699999934e+00 4.113182546920000249e+01 -5.657263252658774055e-01 -4.519793987901495058e-02 8.233534302666501992e-01
-2.858276062650000071e+01 -1.791632761400000051e+00 4.097532805310000015e+01 -5.708507707727880076e-01 -3.945704468192298003e-02 8.201052000402647701e-01
-2.882823098940000150e+01 -1.511018595999999992e+00 4.081609749079999716e+01 -5.759435735046907201e-01 -3.370410578738123469e-02 8.167943642017372330e-01
-2.907167648900000145e+01 -1.230632767799999971e+00 4.065413371919999719e+01 -5.810034951598289643e-01 -2.794029987422866346e-02 8.134213411602876365e-01
-2.931309707870000025e+01 -9.504752821999999934e-01 4.048943667529999857e+01 -5.860293127224817100e-01 -2.216681576569023981e-02 8.099865905734648930e-01
-2.955249271159999935e+01 -6.705461444000000437e-01 4.032200629599999786e+01 -5.910198198814766712e-01 -1.638485323931491988e-02 8.064906131453688509e-01
-2.978986334120000024e+01 -3.908453595999999974e-01 4.015184251819999872e+01 -5.958869148570937746e-01 -1.085857578333758455e-02 8.029949414747592495e-01
-3.002520892060000079e+01 -1.113729331000000017e-01 3.997894527889999949e+01 -6.008044345976173428e-01 -5.063558044583181018e-03 7.993800045959158496e-01
-3.025852940320000073e+01 1.678711297999999907e-01 3.980331451490000205e+01 -6.056831700167342181e-01 7.363289373627500975e-04 7.957055707849328696e-01
-3.048982474230000150e+01 4.468868237999999993e-01 3.962495016329999942e+01 -6.105219946888833515e-01 6.539854205169617733e-03 7.919723002151539681e-01
-3.071909489109999924e+01 7.256741437000000516e-01 3.944385216100000235e+01 -6.153198055872081129e-01 1.234578211185176876e-02 7.881808920014283792e-01
-3.094633980280000074e+01 1.004233084200000015e+00 3.926002044490000031e+01 -6.200755243392196414e-01 1.815287363561573358e-02 7.843320835553084791e-01
-3.117155943090000036e+01 1.282563640100000013e+00 3.907345495199999874e+01 -6.245658222540845239e-01 2.396856413092841517e-02 7.806042797766233887e-01
-3.139475372849999957e+01 1.560665806000000044e+00 3.888415561920000130e+01 -6.292353491087580020e-01 2.977433633145428610e-02 7.766442971708483745e-01
-3.161592264900000160e+01 1.838539576699999900e+00 3.869212238339999743e+01 -6.338617294755179987e-01 3.529433713007017193e-02 7.726406782410917273e-01
-3.183506614559999903e+01 2.116184946899999808e+00 3.849735518149999791e+01 -6.384410733041341324e-01 4.109383544552532019e-02 7.685728934893821807e-01
-3.205218417159999689e+01 2.393601911499999790e+00 3.829985395060000286e+01 -6.429733870774393401e-01 4.688835632782142188e-02 7.644518987817614519e-01
-3.226727668030000018e+01 2.670790465000000058e+00 3.809961862749999995e+01 -6.474577625215349741e-01 5.267666809462499128e-02 7.602786425969469963e-01
-3.248034362500000327e+01 2.947750602200000181e+00 3.789664914930000350e+01 -6.518933234013990496e-01 5.845754487286970724e-02 7.560541054396274774e-01
-3.269138495899999697e+01 3.224482317900000172e+00 3.769094545269999941e+01 -6.560804443719483459e-01 6.413722985862937986e-02 7.519606813250065969e-01
-3.290040063539999693e+01 3.500985606800000038e+00 3.748250747480000200e+01 -6.604175206386955210e-01 6.989989271074789623e-02 7.476380831876238142e-01
-3.310739060769999753e+01 3.777260463599999785e+00 3.727133515250000073e+01 -6.647033811101986656e-01 7.565152140563756455e-02 7.432672886988114236e-01
-3.331235482910000201e+01 4.053306883000000305e+00 3.705742842269999926e+01 -6.689372844081136193e-01 8.139092574311668216e-02 7.388493938113349646e-01
-3.351529325290000116e+01 4.329124859900000288e+00 3.684078722249999771e+01 -6.731185247731581445e-01 8.711692757261518816e-02 7.343855203757184702e-01
-3.371620583229999824e+01 4.604714388899999733e+00 3.662141148860000328e+01 -6.772464325952378683e-01 9.282836197741779760e-02 7.298768147774070680e-01
-3.391509252070000002e+01 4.880075464699999976e+00 3.639930115810000189e+01 -6.812549039090862735e-01 9.826629086947524794e-02 7.254209067697023894e-01
-3.411195327130000265e+01 5.155208082099999700e+00 3.617445616789999718e+01 -6.852888290852044983e-01 1.037514369245033929e-01 7.208431591318114062e-01
-3.430678803749999872e+01 5.430112235800000242e+00 3.594687645489999994e+01 -6.892554912998325456e-01 1.094132492072365237e-01 7.162091933303718072e-01
-3.449959677239999678e+01 5.704787920500000276e+00 3.571656195599999961e+01 -6.931665295746941569e-01 1.150560543358323806e-01 7.115351478585190126e-01
-3.469037942939999652e+01 5.979235131100000267e+00 3.548351260830000342e+01 -6.970214589298876495e-01 1.206787691484618036e-01 7.068222693634257370e-01
-3.487913596170000119e+01 6.253453862099999760e+00 3.524772834870000082e+01 -7.009989165677533718e-01 1.263669742410966079e-01 7.018774157871060515e-01
-3.506586632270000337e+01 6.527444108400000111e+00 3.500920911400000080e+01 -7.047384870968302906e-01 1.319456961530937333e-01 6.970896628634987158e-01
-3.525057046549999740e+01 6.801205864599999984e+00 3.476795484120000168e+01 -7.084207069780815713e-01 1.375011739201104921e-01 6.922669493015441988e-01
-3.543324834359999898e+01 7.074739125599999845e+00 3.452396546730000182e+01 -7.120452441075015848e-01 1.430324084250877703e-01 6.874105763544865466e-01
-3.561389991019999712e+01 7.348043886000000136e+00 3.427724092919999777e+01 -7.156118041167237598e-01 1.485384234754368593e-01 6.825218550055663913e-01
-3.579252511850000218e+01 7.621120140500000417e+00 3.402778116380000029e+01 -7.191201301779555077e-01 1.540182665256057126e-01 6.776021044457344322e-01
-3.596912392189999963e+01 7.893967884000000268e+00 3.377558610820000240e+01 -7.219300275356131946e-01 1.586646554064218284e-01 6.735299269276682210e-01
-3.614369627349999803e+01 8.166587111100000129e+00 3.352065569909999709e+01 -7.244081209350355932e-01 1.626625318631224892e-01 6.699057956543215120e-01
-3.631624212679999886e+01 8.438977816499999562e+00 3.326298987349999692e+01 -7.268306086139686428e-01 1.666115432165626020e-01 6.663016284302804015e-01
-3.648676143499999824e+01 8.711139995099999922e+00 3.300258856850000200e+01 -7.291603625361950947e-01 1.707621487752148393e-01 6.626955969762858834e-01
-3.665525415129999942e+01 8.983073641400000753e+00 3.273945172090000000e+01 -7.313183761212244116e-01 1.743870640596531518e-01 6.593652892259871390e-01
-3.682172022910000209e+01 9.254778750399999865e+00 3.247357926770000347e+01 -7.336606606709747957e-01 1.775606656112465875e-01 6.559071923767261225e-01
-3.698615962169999705e+01 9.526255316600000356e+00 3.220497114570000008e+01 -7.356185702174040664e-01 1.808202330137310687e-01 6.528164845377009140e-01
-3.714857228219999996e+01 9.797503334800000019e+00 3.193362729200000061e+01 -7.376470881759340514e-01 1.842241703786427209e-01 6.495677242242462457e-01
-3.730895816400000342e+01 1.006852279980000020e+01 3.165954764350000161e+01 -7.397682635266176199e-01 1.878138696034067634e-01 6.461183070176911292e-01
-2.487777403669999998e+01 -6.320016863300000232e+00 4.286653601310000283e+01 -5.113713283172677260e-01 -1.147067412113609020e-01 8.516699643028999844e-01
-2.515360945149999949e+01 -6.035978529700000372e+00 4.274829293079999815e+01 -5.149878231299238607e-01 -1.109806910215948295e-01 8.499828399728266426e-01
-2.542742070370000107e+01 -5.752168454299999567e+00 4.262731758510000191e+01 -5.184054061692549009e-01 -1.074508372920871535e-01 8.483573259067901384e-01
-2.569920774679999909e+01 -5.468586642400000031e+00 4.250360991289999646e+01 -5.219147687306195937e-01 -1.039250632275836583e-01 8.466431098249171949e-01
-2.596897053400000033e+01 -5.185233099300000426e+00 4.237716985130000324e+01 -5.251469365880199192e-01 -1.000187626118796969e-01 8.451135675859230423e-01
