-3.362398476300000105e+00 -1.340115453409999979e+01 3.291236477929999751e+02 0.000000000000000000e+00 0.000000000000000000e+00 0.000000000000000000e+00
-3.397624846299999835e+00 -1.392726785880000051e+01 3.291259435997999958e+02 0.000000000000000000e+00 0.000000000000000000e+00 0.000000000000000000e+00
-3.404286489099999979e+00 -1.493283234799999981e+01 3.291238664772999982e+02 0.000000000000000000e+00 0.000000000000000000e+00 0.000000000000000000e+00
-3.380268996899999934e+00 -1.537663201540000024e+01 3.291316582896999989e+02 0.000000000000000000e+00 0.000000000000000000e+00 0.000000000000000000e+00
-5.001802992000000003e+00 -2.954634360900000090e+00 3.290002674681999792e+02 0.000000000000000000e+00 0.000000000000000000e+00 0.000000000000000000e+00
-4.950964030699999796e+00 -3.951179238900000001e+00 3.289543341898000222e+02 0.000000000000000000e+00 0.000000000000000000e+00 0.000000000000000000e+00
-4.526228825799999633e+00 -4.963741467100000193e+00 3.290230423022999844e+02 0.000000000000000000e+00 0.000000000000000000e+00 0.000000000000000000e+00
-4.005473263799999906e+00 -6.452463145700000346e+00 3.290572889787999884e+02 0.000000000000000000e+00 0.000000000000000000e+00 0.000000000000000000e+00
-3.995584873899999945e+00 -6.943623800000000124e+00 3.289654718008999907e+02 0.000000000000000000e+00 0.000000000000000000e+00 0.000000000000000000e+00
-3.392173943199999986e+00 -1.587126803239999973e+01 3.290981359113999929e+02 0.000000000000000000e+00 0.000000000000000000e+00 0.000000000000000000e+00
-3.384937040700000122e+00 -1.742894636660000174e+01 3.290796582637000256e+02 0.000000000000000000e+00 0.000000000000000000e+00 0.000000000000000000e+00
-4.916707021399999711e+00 -4.428498853799999857e+00 3.288934046168000123e+02 0.000000000000000000e+00 0.000000000000000000e+00 0.000000000000000000e+00
-4.889966941600000006e+00 -4.890552001699999707e+00 3.288846453534000034e+02 0.000000000000000000e+00 0.000000000000000000e+00 0.000000000000000000e+00
-4.450444028799999785e+00 -5.941554331199999872e+00 3.289403488137999716e+02 0.000000000000000000e+00 0.000000000000000000e+00 0.000000000000000000e+00
-4.426645071400000298e+00 -6.412868723099999890e+00 3.289080855769000209e+02 0.000000000000000000e+00 0.000000000000000000e+00 0.000000000000000000e+00
-5.047516811999999575e+00 -4.969184129200000299e+00 3.286894530791000193e+02 0.000000000000000000e+00 0.000000000000000000e+00 0.000000000000000000e+00
-5.043579779799999940e+00 -5.479690691400000091e+00 3.286105012672999806e+02 0.000000000000000000e+00 0.000000000000000000e+00 0.000000000000000000e+00
-5.031360005399999835e+00 -5.965460304699999661e+00 3.285464940016000241e+02 0.000000000000000000e+00 0.000000000000000000e+00 0.000000000000000000e+00
-4.576873461499999962e+00 -6.975805164699999672e+00 3.286434017693999863e+02 0.000000000000000000e+00 0.000000000000000000e+00 0.000000000000000000e+00
-4.594940135999999953e+00 -7.458573055999999646e+00 3.285402132729000186e+02 0.000000000000000000e+00 0.000000000000000000e+00 0.000000000000000000e+00
-4.123277950600000352e+00 -7.965955670699999658e+00 3.286553307038000185e+02 0.000000000000000000e+00 0.000000000000000000e+00 0.000000000000000000e+00
-3.687110464499999907e+00 -8.936957640299999284e+00 3.285532625471000188e+02 0.000000000000000000e+00 0.000000000000000000e+00 0.000000000000000000e+00
-3.678955891699999814e+00 -9.451768847000000306e+00 3.285075720785999920e+02 0.000000000000000000e+00 0.000000000000000000e+00 0.000000000000000000e+00
-3.456218592599999972e+00 -1.045253095590000036e+01 3.286009355514000276e+02 0.000000000000000000e+00 0.000000000000000000e+00 0.000000000000000000e+00
-3.370741388399999927e+00 -1.142934826079999944e+01 3.285946370236999883e+02 0.000000000000000000e+00 0.000000000000000000e+00 0.000000000000000000e+00
-3.376618171500000098e+00 -1.340380194739999986e+01 3.286543036325999765e+02 0.000000000000000000e+00 0.000000000000000000e+00 0.000000000000000000e+00
-3.366016099899999947e+00 -1.445486292140000018e+01 3.286406694972999958e+02 0.000000000000000000e+00 0.000000000000000000e+00 0.000000000000000000e+00
-3.380776510600000062e+00 -1.494276541590000029e+01 3.286293371768999805e+02 0.000000000000000000e+00 0.000000000000000000e+00 0.000000000000000000e+00
-3.392978896199999816e+00 -1.592546537820000019e+01 3.286067012464999948e+02 0.000000000000000000e+00 0.000000000000000000e+00 0.000000000000000000e+00
-3.411560262100000074e+00 -1.741687469040000025e+01 3.285808667373000276e+02 0.000000000000000000e+00 0.000000000000000000e+00 0.000000000000000000e+00
-4.916448786200000143e+00 -6.913522273599999934e+00 3.284503660580999735e+02 0.000000000000000000e+00 0.000000000000000000e+00 0.000000000000000000e+00
-4.018155755799999618e+00 -9.414313670800000367e+00 3.284523842501999980e+02 0.000000000000000000e+00 0.000000000000000000e+00 0.000000000000000000e+00
-4.653475914200000396e+00 -8.497368533699999560e+00 3.282531806087999939e+02 0.000000000000000000e+00 0.000000000000000000e+00 0.000000000000000000e+00
-4.562115112899999936e+00 -9.453154748499999371e+00 3.280494998863999854e+02 0.000000000000000000e+00 0.000000000000000000e+00 0.000000000000000000e+00
-4.137487141700000315e+00 -9.484962557899999425e+00 3.282679406478000033e+02 0.000000000000000000e+00 0.000000000000000000e+00 0.000000000000000000e+00
-4.087022365000000157e+00 -9.968474558500000526e+00 3.281642547513999943e+02 0.000000000000000000e+00 0.000000000000000000e+00 0.000000000000000000e+00
-3.663047511199999828e+00 -1.095816536130000074e+01 3.280417046198999742e+02 0.000000000000000000e+00 0.000000000000000000e+00 0.000000000000000000e+00
-3.630301181300000124e+00 -1.141609476820000069e+01 3.280773273214999790e+02 0.000000000000000000e+00 0.000000000000000000e+00 0.000000000000000000e+00
-3.382773698799999895e+00 -1.293380428050000042e+01 3.281270135737000260e+02 0.000000000000000000e+00 0.000000000000000000e+00 0.000000000000000000e+00
-3.364925797200000179e+00 -1.341309184270000010e+01 3.281612040310999987e+02 0.000000000000000000e+00 0.000000000000000000e+00 0.000000000000000000e+00
-3.393021116899999967e+00 -1.394178995749999928e+01 3.281547904578000043e+02 0.000000000000000000e+00 0.000000000000000000e+00 0.000000000000000000e+00
-3.391854864299999939e+00 -1.447613094099999920e+01 3.281473362064999719e+02 0.000000000000000000e+00 0.000000000000000000e+00 0.000000000000000000e+00
-3.407143746800000095e+00 -1.541616192060000046e+01 3.281637633002999905e+02 0.000000000000000000e+00 0.000000000000000000e+00 0.000000000000000000e+00
-5.022836788400000252e+00 -8.452066345000000425e+00 3.280207166031000270e+02 0.000000000000000000e+00 0.000000000000000000e+00 0.000000000000000000e+00
-4.525888699500000278e+00 -9.923008400200000523e+00 3.279712465948999807e+02 0.000000000000000000e+00 0.000000000000000000e+00 0.000000000000000000e+00
-4.089658860000000118e+00 -1.046265783259999971e+01 3.280377003999000181e+02 0.000000000000000000e+00 0.000000000000000000e+00 0.000000000000000000e+00
-3.383623501799999822e+00 -1.644742001650000063e+01 3.280848707764000096e+02 0.000000000000000000e+00 0.000000000000000000e+00 0.000000000000000000e+00
-3.404215696600000118e+00 -1.698413795700000151e+01 3.280984162546999983e+02 0.000000000000000000e+00 0.000000000000000000e+00 0.000000000000000000e+00
-3.390887724100000167e+00 -1.795719456160000149e+01 3.281255966176000243e+02 0.000000000000000000e+00 0.000000000000000000e+00 0.000000000000000000e+00
-4.904239184099999704e+00 -9.404462977399999701e+00 3.279194571301999872e+02 0.000000000000000000e+00 0.000000000000000000e+00 0.000000000000000000e+00
-4.588936456599999936e+00 -1.096588482409999976e+01 3.276127489953000236e+02 0.000000000000000000e+00 0.000000000000000000e+00 0.000000000000000000e+00
-4.539169913200000295e+00 -1.143629390419999936e+01 3.274973683934999826e+02 0.000000000000000000e+00 0.000000000000000000e+00 0.000000000000000000e+00
-4.072171139599999989e+00 -1.195767150480000041e+01 3.275774317635999751e+02 0.000000000000000000e+00 0.000000000000000000e+00 0.000000000000000000e+00
-3.681647840700000174e+00 -1.197219060609999985e+01 3.276308607424999764e+02 0.000000000000000000e+00 0.000000000000000000e+00 0.000000000000000000e+00
-3.672399304599999859e+00 -1.246345722500000086e+01 3.275325002903999803e+02 0.000000000000000000e+00 0.000000000000000000e+00 0.000000000000000000e+00
-3.571478191100000199e+00 -1.289144301580000018e+01 3.275980903833000184e+02 0.000000000000000000e+00 0.000000000000000000e+00 0.000000000000000000e+00
-3.416103044999999838e+00 -1.342789573549999993e+01 3.276283660715999986e+02 0.000000000000000000e+00 0.000000000000000000e+00 0.000000000000000000e+00
-3.394371230399999995e+00 -1.394122365580000000e+01 3.275896417289999931e+02 0.000000000000000000e+00 0.000000000000000000e+00 0.000000000000000000e+00
-3.369533753899999873e+00 -1.495420759749999995e+01 3.276474068031000115e+02 0.000000000000000000e+00 0.000000000000000000e+00 0.000000000000000000e+00
-3.395001269599999816e+00 -1.592222370100000006e+01 3.276409394391000092e+02 0.000000000000000000e+00 0.000000000000000000e+00 0.000000000000000000e+00
-3.405496519500000208e+00 -1.695689694100000011e+01 3.275891870012999902e+02 0.000000000000000000e+00 0.000000000000000000e+00 0.000000000000000000e+00
-3.402781074900000036e+00 -1.746681351060000154e+01 3.275895830942000089e+02 0.000000000000000000e+00 0.000000000000000000e+00 0.000000000000000000e+00
-3.324748925799999810e+00 -8.992486823400000162e+00 3.315165186741999719e+02 0.000000000000000000e+00 0.000000000000000000e+00 0.000000000000000000e+00
-4.008813930099999645e+00 -1.241761186769999981e+01 3.274800686872999904e+02 0.000000000000000000e+00 0.000000000000000000e+00 0.000000000000000000e+00
-5.851786514000000272e-01 -1.394471328810000088e+01 3.304248136058000114e+02 0.000000000000000000e+00 0.000000000000000000e+00 0.000000000000000000e+00
-5.234798001399999734e+00 -1.053123942330000062e+01 3.272949752133999937e+02 0.000000000000000000e+00 0.000000000000000000e+00 0.000000000000000000e+00
-4.637505457999999692e+00 -1.199882403600000025e+01 3.272492228381000245e+02 0.000000000000000000e+00 0.000000000000000000e+00 0.000000000000000000e+00
-4.581174157200000430e+00 -1.246454517949999996e+01 3.271312729454999726e+02 0.000000000000000000e+00 0.000000000000000000e+00 0.000000000000000000e+00
-4.193007299199999593e+00 -1.254151296659999915e+01 3.272986842381999963e+02 0.000000000000000000e+00 0.000000000000000000e+00 0.000000000000000000e+00
-4.075724027999999777e+00 -1.297038907189999968e+01 3.272234801751000077e+02 0.000000000000000000e+00 0.000000000000000000e+00 0.000000000000000000e+00
-3.670120202300000134e+00 -1.345852395960000081e+01 3.271657315461000053e+02 0.000000000000000000e+00 0.000000000000000000e+00 0.000000000000000000e+00
-3.674303524599999982e+00 -1.391492502050000013e+01 3.270245991110999739e+02 0.000000000000000000e+00 0.000000000000000000e+00 0.000000000000000000e+00
-3.426599556999999852e+00 -1.542746391879999912e+01 3.271530237653000199e+02 0.000000000000000000e+00 0.000000000000000000e+00 0.000000000000000000e+00
-5.039594208899999650e+00 -1.193781351750000042e+01 3.270232567081000070e+02 0.000000000000000000e+00 0.000000000000000000e+00 0.000000000000000000e+00
-4.063375728499999617e+00 -1.346402500549999992e+01 3.270754333914999847e+02 0.000000000000000000e+00 0.000000000000000000e+00 0.000000000000000000e+00
-3.394342932099999821e+00 -1.588455010290000047e+01 3.271253561733000197e+02 0.000000000000000000e+00 0.000000000000000000e+00 0.000000000000000000e+00
-3.366149167900000183e+00 -1.789898610819999902e+01 3.271127217846999997e+02 0.000000000000000000e+00 0.000000000000000000e+00 0.000000000000000000e+00
-4.932044253599999983e+00 -1.242198892440000080e+01 3.269340042486999778e+02 0.000000000000000000e+00 0.000000000000000000e+00 0.000000000000000000e+00
-4.403979644299999663e+00 -1.336360481750000062e+01 3.269417989715000203e+02 0.000000000000000000e+00 0.000000000000000000e+00 0.000000000000000000e+00
-5.069837823200000315e+00 -1.296663549580000030e+01 3.266600330635999967e+02 0.000000000000000000e+00 0.000000000000000000e+00 0.000000000000000000e+00
-4.633061948699999988e+00 -1.348507391150000068e+01 3.267612423595999758e+02 0.000000000000000000e+00 0.000000000000000000e+00 0.000000000000000000e+00
-3.688668776500000135e+00 -1.494424701430000013e+01 3.266234731627000087e+02 0.000000000000000000e+00 0.000000000000000000e+00 0.000000000000000000e+00
-3.638581297300000017e+00 -1.541575280970000073e+01 3.265710355305000121e+02 0.000000000000000000e+00 0.000000000000000000e+00 0.000000000000000000e+00
-3.485500116999999953e+00 -1.588680462279999972e+01 3.266708041705999790e+02 0.000000000000000000e+00 0.000000000000000000e+00 0.000000000000000000e+00
-3.409530730799999798e+00 -1.641684476420000038e+01 3.266062864423000178e+02 0.000000000000000000e+00 0.000000000000000000e+00 0.000000000000000000e+00
-3.417497761999999994e+00 -1.694706439220000149e+01 3.265454033413000161e+02 0.000000000000000000e+00 0.000000000000000000e+00 0.000000000000000000e+00
-3.420461863399999913e+00 -1.739387704660000011e+01 3.265751103651999756e+02 0.000000000000000000e+00 0.000000000000000000e+00 0.000000000000000000e+00
-3.390380322099999955e+00 -1.779652378069999941e+01 3.266028300150999826e+02 0.000000000000000000e+00 0.000000000000000000e+00 0.000000000000000000e+00
-4.928890843799999644e+00 -1.388819562209999958e+01 3.264351880982000011e+02 0.000000000000000000e+00 0.000000000000000000e+00 0.000000000000000000e+00
-4.495337802199999899e+00 -1.443672353330000035e+01 3.264906440324999721e+02 0.000000000000000000e+00 0.000000000000000000e+00 0.000000000000000000e+00
-5.231270250999999760e+00 -1.357134445420000013e+01 3.263142909883000016e+02 0.000000000000000000e+00 0.000000000000000000e+00 0.000000000000000000e+00
-5.049557805400000099e+00 -1.447070178429999920e+01 3.261140397742000232e+02 0.000000000000000000e+00 0.000000000000000000e+00 0.000000000000000000e+00
-4.237250765399999786e+00 -1.506559435820000026e+01 3.263566316864000214e+02 0.000000000000000000e+00 0.000000000000000000e+00 0.000000000000000000e+00
-4.090758172300000162e+00 -1.550834683869999964e+01 3.262594547275999730e+02 0.000000000000000000e+00 0.000000000000000000e+00 0.000000000000000000e+00
-3.681003898300000188e+00 -1.596044531519999943e+01 3.262223989458000233e+02 0.000000000000000000e+00 0.000000000000000000e+00 0.000000000000000000e+00
-9.680761300000000347e-01 -1.815408441650000171e+01 3.264145603898999752e+02 0.000000000000000000e+00 0.000000000000000000e+00 0.000000000000000000e+00
2.184137227799999970e+00 -1.811202476300000086e+01 3.248622304272000179e+02 0.000000000000000000e+00 0.000000000000000000e+00 0.000000000000000000e+00
-3.527322106500000221e+00 -1.694057904350000143e+01 3.261026551149000170e+02 0.000000000000000000e+00 0.000000000000000000e+00 0.000000000000000000e+00
-3.384750996100000187e+00 -1.775706804649999881e+01 3.260759364384999799e+02 0.000000000000000000e+00 0.000000000000000000e+00 0.000000000000000000e+00
-5.364731780899999691e+00 -1.435290178300000008e+01 3.259506301969000219e+02 0.000000000000000000e+00 0.000000000000000000e+00 0.000000000000000000e+00
-4.886814432000000430e+00 -1.532053476289999949e+01 3.259044137165000166e+02 0.000000000000000000e+00 0.000000000000000000e+00 0.000000000000000000e+00
-4.396702920400000103e+00 -1.588273162459999988e+01 3.259472852377999743e+02 0.000000000000000000e+00 0.000000000000000000e+00 0.000000000000000000e+00
-3.989666992200000095e+00 -1.639555627600000065e+01 3.259729980952000119e+02 0.000000000000000000e+00 0.000000000000000000e+00 0.000000000000000000e+00
-5.192961299200000269e+00 -1.502044440719999940e+01 3.257931843578999747e+02 0.000000000000000000e+00 0.000000000000000000e+00 0.000000000000000000e+00
-4.620320055499999690e+00 -1.598345006429999948e+01 3.257766961557999821e+02 0.000000000000000000e+00 0.000000000000000000e+00 0.000000000000000000e+00
-4.121334919999999791e+00 -1.656663057689999974e+01 3.257876547960000266e+02 0.000000000000000000e+00 0.000000000000000000e+00 0.000000000000000000e+00
-2.234369978600000195e+00 -1.816753595440000169e+01 3.257956931654999835e+02 0.000000000000000000e+00 0.000000000000000000e+00 0.000000000000000000e+00
-5.022032814900000197e+00 -1.594490610150000087e+01 3.255434331047000001e+02 0.000000000000000000e+00 0.000000000000000000e+00 0.000000000000000000e+00
-4.466863604900000340e+00 -1.689736604599999836e+01 3.254659798756999862e+02 0.000000000000000000e+00 0.000000000000000000e+00 0.000000000000000000e+00
-4.010283978400000393e+00 -1.743356508580000153e+01 3.254925673257000085e+02 0.000000000000000000e+00 0.000000000000000000e+00 0.000000000000000000e+00
5.583441840000000211e-02 -1.778567403390000123e+01 3.256274423547000083e+02 0.000000000000000000e+00 0.000000000000000000e+00 0.000000000000000000e+00
-5.197908979500000193e+00 -1.612606050529999990e+01 3.253332238474999940e+02 0.000000000000000000e+00 0.000000000000000000e+00 0.000000000000000000e+00
-5.110571325399999587e+00 -1.649851289549999933e+01 3.252452909608999789e+02 0.000000000000000000e+00 0.000000000000000000e+00 0.000000000000000000e+00
-5.021270630200000085e+00 -1.694823279379999903e+01 3.251110576300000048e+02 0.000000000000000000e+00 0.000000000000000000e+00 0.000000000000000000e+00
-3.399334281799999857e+00 -1.820110687200000044e+01 3.253784825248000061e+02 0.000000000000000000e+00 0.000000000000000000e+00 0.000000000000000000e+00
-3.636308128000000028e+00 -1.848854764709999898e+01 3.251406815377999919e+02 0.000000000000000000e+00 0.000000000000000000e+00 0.000000000000000000e+00
-2.193124311500000090e+00 -1.911813647039999964e+01 3.252022978442000181e+02 0.000000000000000000e+00 0.000000000000000000e+00 0.000000000000000000e+00
-5.409323547499999663e+00 -1.685317747290000057e+01 3.249026842264000265e+02 0.000000000000000000e+00 0.000000000000000000e+00 0.000000000000000000e+00
-4.955409079999999911e+00 -1.741036211979999848e+01 3.249527900429999931e+02 0.000000000000000000e+00 0.000000000000000000e+00 0.000000000000000000e+00
-4.497924746899999882e+00 -1.793506534229999971e+01 3.249868076476000169e+02 0.000000000000000000e+00 0.000000000000000000e+00 0.000000000000000000e+00
-4.372472829200000355e+00 -1.830688273120000176e+01 3.249012268111000026e+02 0.000000000000000000e+00 0.000000000000000000e+00 0.000000000000000000e+00
-3.044430564399999817e+00 -1.927672931609999907e+01 3.250280736816000058e+02 0.000000000000000000e+00 0.000000000000000000e+00 0.000000000000000000e+00
-2.063848982100000118e+00 -1.970379008840000168e+01 3.250079311215000075e+02 0.000000000000000000e+00 0.000000000000000000e+00 0.000000000000000000e+00
-1.552115342100000017e+00 -1.976876206829999916e+01 3.249658844086999920e+02 0.000000000000000000e+00 0.000000000000000000e+00 0.000000000000000000e+00
-5.137313203299999742e+00 -1.752555272200000047e+01 3.247568895516000111e+02 0.000000000000000000e+00 0.000000000000000000e+00 0.000000000000000000e+00
-5.066413213099999702e+00 -1.795316242690000053e+01 3.246307425168000123e+02 0.000000000000000000e+00 0.000000000000000000e+00 0.000000000000000000e+00
-4.704999354799999978e+00 -1.810352436490000017e+01 3.247768893580999929e+02 0.000000000000000000e+00 0.000000000000000000e+00 0.000000000000000000e+00
-4.617961669299999627e+00 -1.847453567570000033e+01 3.246468454556999745e+02 0.000000000000000000e+00 0.000000000000000000e+00 0.000000000000000000e+00
-3.735216546499999790e+00 -1.909514768580000066e+01 3.247750507207999817e+02 0.000000000000000000e+00 0.000000000000000000e+00 0.000000000000000000e+00
-3.637794980899999864e+00 -1.946669595519999874e+01 3.246376399240999717e+02 0.000000000000000000e+00 0.000000000000000000e+00 0.000000000000000000e+00
-1.092610200199999992e+00 -2.001413883980000108e+01 3.247730968486000052e+02 0.000000000000000000e+00 0.000000000000000000e+00 0.000000000000000000e+00
-9.777599539999999589e-02 -1.997554479120000082e+01 3.246995368304000067e+02 0.000000000000000000e+00 0.000000000000000000e+00 0.000000000000000000e+00
-4.980995748899999853e+00 -1.835650289639999855e+01 3.244925068883999870e+02 0.000000000000000000e+00 0.000000000000000000e+00 0.000000000000000000e+00
-4.534350921399999734e+00 -1.892077784190000145e+01 3.244863531030999866e+02 0.000000000000000000e+00 0.000000000000000000e+00 0.000000000000000000e+00
-4.046672317799999696e+00 -1.941898407580000097e+01 3.244824247866000064e+02 0.000000000000000000e+00 0.000000000000000000e+00 0.000000000000000000e+00
-3.540209214699999940e+00 -1.985159927990000028e+01 3.244494473340000127e+02 0.000000000000000000e+00 0.000000000000000000e+00 0.000000000000000000e+00
-5.175238467399999820e+00 -1.851162058750000128e+01 3.242638868107999883e+02 0.000000000000000000e+00 0.000000000000000000e+00 0.000000000000000000e+00
-4.432589244699999931e+00 -1.926840046190000066e+01 3.243730562508000048e+02 0.000000000000000000e+00 0.000000000000000000e+00 0.000000000000000000e+00
-3.921941855500000074e+00 -1.974642316939999986e+01 3.243804142737999996e+02 0.000000000000000000e+00 0.000000000000000000e+00 0.000000000000000000e+00
-4.606828670799999692e+00 -1.946697569390000027e+01 3.241560574706999773e+02 0.000000000000000000e+00 0.000000000000000000e+00 0.000000000000000000e+00
-4.104100417199999740e+00 -1.996683667889999825e+01 3.241771251508000091e+02 0.000000000000000000e+00 0.000000000000000000e+00 0.000000000000000000e+00
-3.599790534999999903e+00 -2.046274526319999865e+01 3.240998957263000193e+02 0.000000000000000000e+00 0.000000000000000000e+00 0.000000000000000000e+00
-3.112028410499999787e+00 -2.047514400209999863e+01 3.242454053458000089e+02 0.000000000000000000e+00 0.000000000000000000e+00 0.000000000000000000e+00
-3.219891028600000205e+00 3.057148857800000119e+00 3.320916113591999874e+02 0.000000000000000000e+00 0.000000000000000000e+00 0.000000000000000000e+00
-5.011303620399999659e+00 -1.937539828150000076e+01 3.239637338339999815e+02 0.000000000000000000e+00 0.000000000000000000e+00 0.000000000000000000e+00
-4.532481082300000352e+00 -1.455104036899999898e+00 3.295050260410000078e+02 0.000000000000000000e+00 0.000000000000000000e+00 0.000000000000000000e+00
-2.081345926700000071e+00 -1.151785308880000080e+01 3.308293585354999777e+02 0.000000000000000000e+00 0.000000000000000000e+00 0.000000000000000000e+00
-3.466605188599999998e+00 1.005561282640000087e+01 3.299462815527999737e+02 0.000000000000000000e+00 0.000000000000000000e+00 0.000000000000000000e+00
-5.861163616000000243e-01 8.604990548800000028e+00 3.315693249839999908e+02 0.000000000000000000e+00 0.000000000000000000e+00 0.000000000000000000e+00
-4.933375530700000233e+00 4.025690775200000182e+00 3.294336589242000173e+02 0.000000000000000000e+00 0.000000000000000000e+00 0.000000000000000000e+00
-5.808882558000000307e-01 -1.449445468330000075e+01 3.303145769413000039e+02 0.000000000000000000e+00 0.000000000000000000e+00 0.000000000000000000e+00
-4.852143725400000385e+00 -1.867913698570000136e+01 3.244943881086999795e+02 0.000000000000000000e+00 0.000000000000000000e+00 0.000000000000000000e+00
-3.405110889299999943e+00 -1.362305836910000068e+01 3.304234429932000126e+02 0.000000000000000000e+00 0.000000000000000000e+00 0.000000000000000000e+00
-1.125757467099999909e+00 -8.593485199999999935e+00 3.313413305413000103e+02 0.000000000000000000e+00 0.000000000000000000e+00 0.000000000000000000e+00
-3.237308061999999875e+00 -6.924700393600000226e+00 3.301400649282999780e+02 0.000000000000000000e+00 0.000000000000000000e+00 0.000000000000000000e+00
8.433195478999999661e-01 -4.437201045300000146e+00 3.319943468080999764e+02 0.000000000000000000e+00 0.000000000000000000e+00 0.000000000000000000e+00
-2.598618034699999857e+00 1.035033804000000002e+00 3.329669066608000207e+02 0.000000000000000000e+00 0.000000000000000000e+00 0.000000000000000000e+00
4.577785115999999932e-01 1.156430839339999928e+01 3.301248672146999752e+02 0.000000000000000000e+00 0.000000000000000000e+00 0.000000000000000000e+00
-3.279175927799999890e+00 -2.424775363300000208e+00 3.310721371718000228e+02 0.000000000000000000e+00 0.000000000000000000e+00 0.000000000000000000e+00
-5.812622734000000291e-01 -1.745708751860000163e+01 3.298194533387999741e+02 0.000000000000000000e+00 0.000000000000000000e+00 0.000000000000000000e+00
-3.872661552099999849e+00 9.572213280199999730e+00 3.298913997616999723e+02 0.000000000000000000e+00 0.000000000000000000e+00 0.000000000000000000e+00
-2.531628958399999796e+00 4.033471210200000101e+00 3.334687653449000209e+02 0.000000000000000000e+00 0.000000000000000000e+00 0.000000000000000000e+00
-4.384371350900000408e+00 1.109743532220000084e+01 3.294287785039999790e+02 0.000000000000000000e+00 0.000000000000000000e+00 0.000000000000000000e+00
-2.429376192999999906e-01 2.528441134000000146e-01 3.328823513373000083e+02 0.000000000000000000e+00 0.000000000000000000e+00 0.000000000000000000e+00
-3.274460996599999785e+00 -3.022582593700000153e+00 3.302719503269000256e+02 0.000000000000000000e+00 0.000000000000000000e+00 0.000000000000000000e+00
-4.696949838600000149e+00 -5.514669882999999828e+00 3.288012988882999821e+02 0.000000000000000000e+00 0.000000000000000000e+00 0.000000000000000000e+00
-3.878711235499999965e+00 8.039211552799999438e+00 3.299291840042999979e+02 0.000000000000000000e+00 0.000000000000000000e+00 0.000000000000000000e+00
4.656790445999999806e-01 -7.439084830899999723e+00 3.315272496311000054e+02 0.000000000000000000e+00 0.000000000000000000e+00 0.000000000000000000e+00
1.573503244399999890e+00 1.058760339400000028e+01 3.298135219728000038e+02 0.000000000000000000e+00 0.000000000000000000e+00 0.000000000000000000e+00
-1.029023485600000010e+00 5.045361666599999850e+00 3.336678606785000056e+02 0.000000000000000000e+00 0.000000000000000000e+00 0.000000000000000000e+00
-3.191329443799999943e+00 9.123887111000000161e+00 3.302741964241000119e+02 0.000000000000000000e+00 0.000000000000000000e+00 0.000000000000000000e+00
-2.988009182799999941e+00 1.200562595479999928e+01 3.299165284023000027e+02 0.000000000000000000e+00 0.000000000000000000e+00 0.000000000000000000e+00
-9.653519820000000529e-02 -1.244157599759999933e+01 3.306816465283000070e+02 0.000000000000000000e+00 0.000000000000000000e+00 0.000000000000000000e+00
-1.045084822400000002e+00 -1.693405049849999955e+01 3.299027218466999898e+02 0.000000000000000000e+00 0.000000000000000000e+00 0.000000000000000000e+00
-1.370205134899999955e+00 -2.754547985999999948e+00 3.323659630366000215e+02 0.000000000000000000e+00 0.000000000000000000e+00 0.000000000000000000e+00
-9.516290889999999558e-02 5.538591510999999468e-01 3.329278416267000011e+02 0.000000000000000000e+00 0.000000000000000000e+00 0.000000000000000000e+00
-4.922935527999999783e-01 1.056578304109999955e+01 3.303457940320000148e+02 0.000000000000000000e+00 0.000000000000000000e+00 0.000000000000000000e+00
-6.629790219999999457e-02 -1.643997255500000065e+01 3.300047322003999852e+02 0.000000000000000000e+00 0.000000000000000000e+00 0.000000000000000000e+00
-4.415030115399999566e+00 1.053491344190000056e+01 3.294342564719000279e+02 0.000000000000000000e+00 0.000000000000000000e+00 0.000000000000000000e+00
-3.261976965000000117e+00 -1.905403591500000049e+00 3.311296276475000013e+02 0.000000000000000000e+00 0.000000000000000000e+00 0.000000000000000000e+00
-2.083547467399999853e+00 -9.604346586999999991e-01 3.326353844185999833e+02 0.000000000000000000e+00 0.000000000000000000e+00 0.000000000000000000e+00
-3.326263454099999795e+00 -8.617257973299999207e+00 3.314093336669999985e+02 0.000000000000000000e+00 0.000000000000000000e+00 0.000000000000000000e+00
-3.189474500599999818e+00 -3.693107777999999897e-01 3.329151884745999723e+02 0.000000000000000000e+00 0.000000000000000000e+00 0.000000000000000000e+00
-3.257438288699999962e+00 -7.363476825100000234e+00 3.310669824456999777e+02 0.000000000000000000e+00 0.000000000000000000e+00 0.000000000000000000e+00
-4.613264786700000286e+00 1.053632372949999940e+01 3.292576845863000017e+02 0.000000000000000000e+00 0.000000000000000000e+00 0.000000000000000000e+00
1.257234566900000017e+00 -1.572224134750000069e+01 3.263993991442999913e+02 0.000000000000000000e+00 0.000000000000000000e+00 0.000000000000000000e+00
1.482299340900000040e+00 -5.930673857300000407e+00 3.292491453362000016e+02 0.000000000000000000e+00 0.000000000000000000e+00 0.000000000000000000e+00
-1.740316410000000008e-02 -7.933792136300000131e+00 3.314226748791999739e+02 0.000000000000000000e+00 0.000000000000000000e+00 0.000000000000000000e+00
-2.612473058299999984e+00 2.537093108100000105e+00 3.332388718396999820e+02 0.000000000000000000e+00 0.000000000000000000e+00 0.000000000000000000e+00
-2.608758047699999860e+00 8.692335871399999192e+00 3.311240761578999923e+02 0.000000000000000000e+00 0.000000000000000000e+00 0.000000000000000000e+00
-3.295487148599999916e+00 -1.393851241299999977e+01 3.284279310851999867e+02 0.000000000000000000e+00 0.000000000000000000e+00 0.000000000000000000e+00
-3.289616380400000040e+00 -9.438287522199999557e+00 3.296642867882999894e+02 0.000000000000000000e+00 0.000000000000000000e+00 0.000000000000000000e+00
-3.269382614199999981e+00 -2.412523821599999785e+00 3.306273439616999781e+02 0.000000000000000000e+00 0.000000000000000000e+00 0.000000000000000000e+00
-1.060761373000000063e+00 8.485002297499999457e+00 3.325895050397999739e+02 0.000000000000000000e+00 0.000000000000000000e+00 0.000000000000000000e+00
9.671571065999999828e-01 1.006809027599999951e+01 3.301251362612999856e+02 0.000000000000000000e+00 0.000000000000000000e+00 0.000000000000000000e+00
-1.596438766899999973e+00 -1.245277917710000004e+01 3.306670215629000040e+02 0.000000000000000000e+00 0.000000000000000000e+00 0.000000000000000000e+00
1.985269175800000063e+00 4.996467069999999816e-02 3.297626125630000047e+02 0.000000000000000000e+00 0.000000000000000000e+00 0.000000000000000000e+00
-1.446912060200000072e+00 -1.707856709740000056e+01 3.298513114951999796e+02 0.000000000000000000e+00 0.000000000000000000e+00 0.000000000000000000e+00
-3.035953869700000141e+00 -4.912991471199999793e+00 3.319177920559999961e+02 0.000000000000000000e+00 0.000000000000000000e+00 0.000000000000000000e+00
-1.577439845600000057e+00 -1.495174812940000031e+01 3.302309455289999960e+02 0.000000000000000000e+00 0.000000000000000000e+00 0.000000000000000000e+00
-1.596483923499999902e+00 8.500933275899999586e+00 3.325523866574000067e+02 0.000000000000000000e+00 0.000000000000000000e+00 0.000000000000000000e+00
-3.296130153700000065e+00 -4.523470828099999785e+00 3.301933922773000063e+02 0.000000000000000000e+00 0.000000000000000000e+00 0.000000000000000000e+00
-2.077371805099999857e+00 -1.495547221290000017e+01 3.302214306907000037e+02 0.000000000000000000e+00 0.000000000000000000e+00 0.000000000000000000e+00
-3.029573063099999963e+00 -7.455412990200000145e+00 3.314810496796000052e+02 0.000000000000000000e+00 0.000000000000000000e+00 0.000000000000000000e+00
-2.070378590799999863e+00 1.836019157999999873e-01 3.328810653407999780e+02 0.000000000000000000e+00 0.000000000000000000e+00 0.000000000000000000e+00
-1.562150755500000043e+00 8.342673458200000169e+00 3.334684154839999906e+02 0.000000000000000000e+00 0.000000000000000000e+00 0.000000000000000000e+00
-4.730778261600000256e+00 -1.905435336949999936e+01 3.242958267614999954e+02 0.000000000000000000e+00 0.000000000000000000e+00 0.000000000000000000e+00
-5.330334932999999609e+00 -1.326583761480000057e+01 3.264167331357999728e+02 0.000000000000000000e+00 0.000000000000000000e+00 0.000000000000000000e+00
-3.312258640000000032e+00 8.178555268600000261e+00 3.303117561982999746e+02 0.000000000000000000e+00 0.000000000000000000e+00 0.000000000000000000e+00
-3.284322472699999995e+00 -1.262562757299999916e+01 3.300092468102999987e+02 0.000000000000000000e+00 0.000000000000000000e+00 0.000000000000000000e+00
1.134580573600000086e+00 -7.976432099999999914e-02 3.296101627467999720e+02 0.000000000000000000e+00 0.000000000000000000e+00 0.000000000000000000e+00
3.938444623999999838e-01 2.057100960500000131e+00 3.331376360718999763e+02 0.000000000000000000e+00 0.000000000000000000e+00 0.000000000000000000e+00
1.232447702600000028e+00 -1.258531156899999948e+00 3.303903708149999829e+02 0.000000000000000000e+00 0.000000000000000000e+00 0.000000000000000000e+00
-2.018927554699999849e+00 -9.456922324400000690e+00 3.311496780019999733e+02 0.000000000000000000e+00 0.000000000000000000e+00 0.000000000000000000e+00
-5.334139602299999616e+00 -1.582162593079999979e+01 3.254196271105000164e+02 0.000000000000000000e+00 0.000000000000000000e+00 0.000000000000000000e+00
-3.251018964800000077e+00 8.466012030000000244e-02 3.307063684621999755e+02 0.000000000000000000e+00 0.000000000000000000e+00 0.000000000000000000e+00
-4.810983712299999659e+00 7.526516753400000148e+00 3.293110007697999890e+02 0.000000000000000000e+00 0.000000000000000000e+00 0.000000000000000000e+00
-2.055252817800000020e+00 -9.957051519100000192e+00 3.310785682621000205e+02 0.000000000000000000e+00 0.000000000000000000e+00 0.000000000000000000e+00
-3.289331967899999931e+00 -1.034424324339999934e+01 3.296169442153999967e+02 0.000000000000000000e+00 0.000000000000000000e+00 0.000000000000000000e+00
-2.522485683000000201e+00 3.540042026000000064e+00 3.334221688123000149e+02 0.000000000000000000e+00 0.000000000000000000e+00 0.000000000000000000e+00
-3.417393426499999887e+00 -6.662007271500000272e+00 3.286873666785999717e+02 0.000000000000000000e+00 0.000000000000000000e+00 0.000000000000000000e+00
-1.540449119500000075e+00 6.540991864999999628e+00 3.339321830659000057e+02 0.000000000000000000e+00 0.000000000000000000e+00 0.000000000000000000e+00
-4.817838285099999673e+00 -1.426298292060000072e+01 3.264313641726000128e+02 0.000000000000000000e+00 0.000000000000000000e+00 0.000000000000000000e+00
-3.285126805800000049e+00 -1.453362124629999919e+01 3.290364794281999821e+02 0.000000000000000000e+00 0.000000000000000000e+00 0.000000000000000000e+00
-2.113333503399999813e+00 -8.343802138099999155e+00 3.313728178490999881e+02 0.000000000000000000e+00 0.000000000000000000e+00 0.000000000000000000e+00
-2.042610978899999985e+00 1.154547840490000077e+01 3.301716099698999756e+02 0.000000000000000000e+00 0.000000000000000000e+00 0.000000000000000000e+00
-3.865796452300000130e+00 -8.236975612800000235e+00 3.289460157573000174e+02 0.000000000000000000e+00 0.000000000000000000e+00 0.000000000000000000e+00
-1.992975904999999992e+00 -8.501545711400000371e+00 3.313318983259999868e+02 0.000000000000000000e+00 0.000000000000000000e+00 0.000000000000000000e+00
-3.098480596399999953e+00 9.043774968299999273e+00 3.320496282346999806e+02 0.000000000000000000e+00 0.000000000000000000e+00 0.000000000000000000e+00
-3.262127742800000174e+00 -1.383190376129999954e+01 3.292264717552999969e+02 0.000000000000000000e+00 0.000000000000000000e+00 0.000000000000000000e+00
-3.260586387400000064e+00 -1.193193934880000029e+01 3.291993032669000172e+02 0.000000000000000000e+00 0.000000000000000000e+00 0.000000000000000000e+00
-4.818957575899999846e+00 -8.375934834999999579e-01 3.294395433924000258e+02 0.000000000000000000e+00 0.000000000000000000e+00 0.000000000000000000e+00
-1.038042132900000025e+00 -6.950499339200000293e+00 3.316021437978999984e+02 0.000000000000000000e+00 0.000000000000000000e+00 0.000000000000000000e+00
-1.022763342399999997e+00 -8.949651624299999497e+00 3.312429873040999837e+02 0.000000000000000000e+00 0.000000000000000000e+00 0.000000000000000000e+00
-2.602337237099999978e+00 1.534850738000000048e+00 3.330437062048000030e+02 0.000000000000000000e+00 0.000000000000000000e+00 0.000000000000000000e+00
-1.607195437099999902e+00 -1.690131410340000073e+01 3.299075849551999795e+02 0.000000000000000000e+00 0.000000000000000000e+00 0.000000000000000000e+00
-2.543519735499999879e+00 -7.459559838199999682e+00 3.315201958160999993e+02 0.000000000000000000e+00 0.000000000000000000e+00 0.000000000000000000e+00
-4.019683816599999737e+00 5.577803406000000130e+00 3.299816817201000276e+02 0.000000000000000000e+00 0.000000000000000000e+00 0.000000000000000000e+00
-1.156522343000000036e-01 3.252754094899999782e+00 3.333949894666999967e+02 0.000000000000000000e+00 0.000000000000000000e+00 0.000000000000000000e+00
-2.076693769699999859e+00 1.007117429920000085e+01 3.303251253193000139e+02 0.000000000000000000e+00 0.000000000000000000e+00 0.000000000000000000e+00
-3.043914893400000210e+00 9.051125073899999762e+00 3.305649803017000181e+02 0.000000000000000000e+00 0.000000000000000000e+00 0.000000000000000000e+00
2.136070248799999849e+00 -6.442919753700000030e+00 3.288221375516999956e+02 0.000000000000000000e+00 0.000000000000000000e+00 0.000000000000000000e+00
-4.045440266600000001e+00 9.543071870400000378e+00 3.296988633934000177e+02 0.000000000000000000e+00 0.000000000000000000e+00 0.000000000000000000e+00
-3.278040076799999980e+00 -1.564480322540000046e+01 3.276523028253999996e+02 0.000000000000000000e+00 0.000000000000000000e+00 0.000000000000000000e+00
3.176770809399999784e+00 1.013741183660000011e+01 3.288452865425999789e+02 0.000000000000000000e+00 0.000000000000000000e+00 0.000000000000000000e+00
-1.055800008799999912e+00 8.614420161700000023e+00 3.320566179200999954e+02 0.000000000000000000e+00 0.000000000000000000e+00 0.000000000000000000e+00
-2.564363531999999779e+00 -3.463094099200000109e+00 3.321746740359999990e+02 0.000000000000000000e+00 0.000000000000000000e+00 0.000000000000000000e+00
-3.624164051999999803e+00 3.044192893099999964e+00 3.300729849237000053e+02 0.000000000000000000e+00 0.000000000000000000e+00 0.000000000000000000e+00
-3.968343578899999891e+00 -1.024231574849999937e+01 3.283745871144000148e+02 0.000000000000000000e+00 0.000000000000000000e+00 0.000000000000000000e+00
-5.042105341200000090e+00 8.528418201299999168e+00 3.291162197163999963e+02 0.000000000000000000e+00 0.000000000000000000e+00 0.000000000000000000e+00
-3.105118625699999857e+00 -1.196767966240000014e+01 3.306747367080999993e+02 0.000000000000000000e+00 0.000000000000000000e+00 0.000000000000000000e+00
-3.040476674899999843e+00 -1.967194367999999915e+00 3.324366723913000214e+02 0.000000000000000000e+00 0.000000000000000000e+00 0.000000000000000000e+00
1.198628133199999946e+00 4.698342984900000019e+00 3.325816881857999761e+02 0.000000000000000000e+00 0.000000000000000000e+00 0.000000000000000000e+00
-4.024886261699999856e+00 5.995697954799999785e+00 3.299808960467000247e+02 0.000000000000000000e+00 0.000000000000000000e+00 0.000000000000000000e+00
-1.585029623999999915e+00 5.740757836900000299e+00 3.338778960602999746e+02 0.000000000000000000e+00 0.000000000000000000e+00 0.000000000000000000e+00
-3.303999006599999788e+00 -8.430653774399999634e+00 3.293492134208000266e+02 0.000000000000000000e+00 0.000000000000000000e+00 0.000000000000000000e+00
-1.566030653699999942e+00 -8.540568105200000204e+00 3.313306137876999742e+02 0.000000000000000000e+00 0.000000000000000000e+00 0.000000000000000000e+00
4.747441099999999969e-01 4.556789506400000356e+00 3.335869667059999983e+02 0.000000000000000000e+00 0.000000000000000000e+00 0.000000000000000000e+00
-3.044886435100000011e+00 -5.977947528199999638e+00 3.316937148537999747e+02 0.000000000000000000e+00 0.000000000000000000e+00 0.000000000000000000e+00
-1.670857796600000000e+00 -2.631760331899999805e+00 3.323489090086000033e+02 0.000000000000000000e+00 0.000000000000000000e+00 0.000000000000000000e+00
-3.287137878299999816e+00 -3.447121563700000113e+00 3.305823614779999957e+02 0.000000000000000000e+00 0.000000000000000000e+00 0.000000000000000000e+00
-6.023513141999999876e-01 1.549821195000000040e+00 3.330484066377999852e+02 0.000000000000000000e+00 0.000000000000000000e+00 0.000000000000000000e+00
2.512969436100000120e+00 1.107634635770000031e+01 3.292299641440000073e+02 0.000000000000000000e+00 0.000000000000000000e+00 0.000000000000000000e+00
-2.549731710200000112e+00 7.943825145599999971e+00 3.339792416450999895e+02 0.000000000000000000e+00 0.000000000000000000e+00 0.000000000000000000e+00
-2.547989959700000195e+00 7.039028320399999927e+00 3.340388970898999901e+02 0.000000000000000000e+00 0.000000000000000000e+00 0.000000000000000000e+00
-2.985276676799999862e+00 8.073335010399999234e+00 3.336399034722999772e+02 0.000000000000000000e+00 0.000000000000000000e+00 0.000000000000000000e+00
-3.061935422199999923e+00 7.104106863000000160e+00 3.335616559206000034e+02 0.000000000000000000e+00 0.000000000000000000e+00 0.000000000000000000e+00
-2.550537046500000127e+00 6.393206997200000075e+00 3.338365724719000127e+02 0.000000000000000000e+00 0.000000000000000000e+00 0.000000000000000000e+00
-3.095805642999999829e+00 8.102842087300000884e+00 3.331007789671999717e+02 0.000000000000000000e+00 0.000000000000000000e+00 0.000000000000000000e+00
-3.336248241199999853e+00 2.399444024900000194e+00 3.329945136196000135e+02 0.000000000000000000e+00 0.000000000000000000e+00 0.000000000000000000e+00
-3.018868664899999832e+00 2.028221671499999879e+00 3.330977136248999955e+02 0.000000000000000000e+00 0.000000000000000000e+00 0.000000000000000000e+00
-3.043861578900000087e+00 8.998496225400000270e+00 3.326003435209000259e+02 0.000000000000000000e+00 0.000000000000000000e+00 0.000000000000000000e+00
-3.334476797399999803e+00 1.184517853800000076e+00 3.327086937177999744e+02 0.000000000000000000e+00 0.000000000000000000e+00 0.000000000000000000e+00
-3.078584368100000024e+00 5.564310776999999986e-01 3.326920054277999839e+02 0.000000000000000000e+00 0.000000000000000000e+00 0.000000000000000000e+00
-3.331292485300000106e+00 -6.052789580999999863e-01 3.324374542017999943e+02 0.000000000000000000e+00 0.000000000000000000e+00 0.000000000000000000e+00
-3.342989582800000026e+00 -1.205329655799999955e+00 3.324460264773999825e+02 0.000000000000000000e+00 0.000000000000000000e+00 0.000000000000000000e+00
-3.356052864700000082e+00 1.192935795199999927e+00 3.322117114138000034e+02 0.000000000000000000e+00 0.000000000000000000e+00 0.000000000000000000e+00
-3.225873623700000081e+00 -1.374374529600000061e+00 3.321376509557999839e+02 0.000000000000000000e+00 0.000000000000000000e+00 0.000000000000000000e+00
-3.238592531900000182e+00 -9.189600383999999567e-01 3.316290498769000124e+02 0.000000000000000000e+00 0.000000000000000000e+00 0.000000000000000000e+00
-3.217288934699999992e+00 -1.371393118100000086e+00 3.315949535565000019e+02 0.000000000000000000e+00 0.000000000000000000e+00 0.000000000000000000e+00
-3.268179813600000205e+00 -2.411601273200000062e+00 3.316048531841000226e+02 0.000000000000000000e+00 0.000000000000000000e+00 0.000000000000000000e+00
-3.265901350400000069e+00 -2.899138858899999782e+00 3.315478128180999988e+02 0.000000000000000000e+00 0.000000000000000000e+00 0.000000000000000000e+00
-3.073036677999999799e+00 -5.444673440599999914e+00 3.317230516059000252e+02 0.000000000000000000e+00 0.000000000000000000e+00 0.000000000000000000e+00
-3.317079482900000098e+00 -5.811506395700000382e+00 3.317118729024999766e+02 0.000000000000000000e+00 0.000000000000000000e+00 0.000000000000000000e+00
-3.355078315100000097e+00 -6.513306752600000138e+00 3.315218708785999979e+02 0.000000000000000000e+00 0.000000000000000000e+00 0.000000000000000000e+00
-3.258424976900000214e+00 -1.388072946100000093e+00 3.311376217101999941e+02 0.000000000000000000e+00 0.000000000000000000e+00 0.000000000000000000e+00
-3.261138380699999839e+00 -3.919183250300000143e+00 3.310914312018999794e+02 0.000000000000000000e+00 0.000000000000000000e+00 0.000000000000000000e+00
-3.284937697799999778e+00 -4.906294471399999857e+00 3.310997143558000175e+02 0.000000000000000000e+00 0.000000000000000000e+00 0.000000000000000000e+00
-3.084302557700000058e+00 -7.944904721500000377e+00 3.312857219416999897e+02 0.000000000000000000e+00 0.000000000000000000e+00 0.000000000000000000e+00
-3.044530663399999781e+00 -8.482571276699999885e+00 3.312218091958999935e+02 0.000000000000000000e+00 0.000000000000000000e+00 0.000000000000000000e+00
-3.038013833800000008e+00 -9.462962870200000154e+00 3.311267877431000102e+02 0.000000000000000000e+00 0.000000000000000000e+00 0.000000000000000000e+00
-2.559919979200000029e+00 -9.955098658900000785e+00 3.310812251015000243e+02 0.000000000000000000e+00 0.000000000000000000e+00 0.000000000000000000e+00
-2.607975070400000206e+00 -1.045141621930000042e+01 3.309807338269000070e+02 0.000000000000000000e+00 0.000000000000000000e+00 0.000000000000000000e+00
-3.270388159299999931e+00 -1.410418258199999997e+00 3.306402687461999790e+02 0.000000000000000000e+00 0.000000000000000000e+00 0.000000000000000000e+00
-3.262956031999999951e+00 -1.915947078999999942e+00 3.306749070395999865e+02 0.000000000000000000e+00 0.000000000000000000e+00 0.000000000000000000e+00
-3.278109634000000217e+00 -6.809640622499999907e+00 3.310633012651999820e+02 0.000000000000000000e+00 0.000000000000000000e+00 0.000000000000000000e+00
-3.330869563799999877e+00 -9.483966379700000005e+00 3.311652889733999814e+02 0.000000000000000000e+00 0.000000000000000000e+00 0.000000000000000000e+00
-3.043836451899999851e+00 -9.956821771499999585e+00 3.310302015230000166e+02 0.000000000000000000e+00 0.000000000000000000e+00 0.000000000000000000e+00
-2.882727826800000059e+00 9.360654232699999966e+00 3.304345949511999834e+02 0.000000000000000000e+00 0.000000000000000000e+00 0.000000000000000000e+00
-3.288092707400000148e+00 -5.940622060599999976e+00 3.306571841590999838e+02 0.000000000000000000e+00 0.000000000000000000e+00 0.000000000000000000e+00
-3.287540932000000193e+00 -6.397583739599999930e+00 3.306132895883999936e+02 0.000000000000000000e+00 0.000000000000000000e+00 0.000000000000000000e+00
-3.289340992400000108e+00 -6.908085544799999589e+00 3.306390199164999899e+02 0.000000000000000000e+00 0.000000000000000000e+00 0.000000000000000000e+00
-3.294865167599999811e+00 -7.434962686000000431e+00 3.305863081833999786e+02 0.000000000000000000e+00 0.000000000000000000e+00 0.000000000000000000e+00
-3.530403597899999912e+00 8.048798343699999691e+00 3.301207829086000061e+02 0.000000000000000000e+00 0.000000000000000000e+00 0.000000000000000000e+00
-3.528457573099999856e+00 7.548393373399999717e+00 3.300626440574000071e+02 0.000000000000000000e+00 0.000000000000000000e+00 0.000000000000000000e+00
-3.603126837600000076e+00 7.039861659999999688e+00 3.300592449653000244e+02 0.000000000000000000e+00 0.000000000000000000e+00 0.000000000000000000e+00
-3.616171457500000130e+00 5.037322135200000162e+00 3.301043065274000128e+02 0.000000000000000000e+00 0.000000000000000000e+00 0.000000000000000000e+00
-3.593189673299999942e+00 4.543206846100000362e+00 3.301114177128000051e+02 0.000000000000000000e+00 0.000000000000000000e+00 0.000000000000000000e+00
-3.309837800900000016e+00 -9.933292435300000278e+00 3.305132169537999971e+02 0.000000000000000000e+00 0.000000000000000000e+00 0.000000000000000000e+00
-3.369775840800000033e+00 -1.242224833520000082e+01 3.304863010689999783e+02 0.000000000000000000e+00 0.000000000000000000e+00 0.000000000000000000e+00
-3.097062701000000029e+00 -1.246219070459999934e+01 3.306069001594000270e+02 0.000000000000000000e+00 0.000000000000000000e+00 0.000000000000000000e+00
-3.085300319199999919e+00 -1.296255493489999999e+01 3.305225577137999835e+02 0.000000000000000000e+00 0.000000000000000000e+00 0.000000000000000000e+00
-2.600087678600000007e+00 -1.296224426020000031e+01 3.305585795500999780e+02 0.000000000000000000e+00 0.000000000000000000e+00 0.000000000000000000e+00
-3.051045884000000097e+00 1.054854896840000045e+01 3.300649112530999787e+02 0.000000000000000000e+00 0.000000000000000000e+00 0.000000000000000000e+00
-3.465855803699999793e+00 1.052567954829999941e+01 3.299439786085000037e+02 0.000000000000000000e+00 0.000000000000000000e+00 0.000000000000000000e+00
-3.498464497400000095e+00 9.539384468699999786e+00 3.299778586008000048e+02 0.000000000000000000e+00 0.000000000000000000e+00 0.000000000000000000e+00
