-5.478645661000000056e-01 5.413892255399999698e+01 3.096720289040999887e+02 0.000000000000000000e+00 0.000000000000000000e+00 0.000000000000000000e+00
-3.590241469700000021e+00 5.713282646020000044e+01 3.016342050797999832e+02 0.000000000000000000e+00 0.000000000000000000e+00 0.000000000000000000e+00
1.730472934300000043e+00 4.997438754849999754e+01 3.140266120797999747e+02 0.000000000000000000e+00 0.000000000000000000e+00 0.000000000000000000e+00
-2.601744462800000157e+00 6.315271607820000099e+01 2.926213749996999809e+02 0.000000000000000000e+00 0.000000000000000000e+00 0.000000000000000000e+00
-5.775892769999999565e-01 5.324853299969999654e+01 3.107778094317000068e+02 0.000000000000000000e+00 0.000000000000000000e+00 0.000000000000000000e+00
2.319129082699999955e+00 4.445206283720000329e+01 3.154381868930000223e+02 0.000000000000000000e+00 0.000000000000000000e+00 0.000000000000000000e+00
1.797512884799999933e+00 5.305274566559999982e+01 3.091384331240000165e+02 0.000000000000000000e+00 0.000000000000000000e+00 0.000000000000000000e+00
-4.081513573699999675e+00 5.503030693790000072e+01 3.041049980170000140e+02 0.000000000000000000e+00 0.000000000000000000e+00 0.000000000000000000e+00
-2.738186081499999869e+00 4.522310408359999911e+01 3.153399806036999848e+02 0.000000000000000000e+00 0.000000000000000000e+00 0.000000000000000000e+00
1.830215771700000049e+00 6.155767960699999719e+01 3.001297980542000232e+02 0.000000000000000000e+00 0.000000000000000000e+00 0.000000000000000000e+00
-2.992193243100000011e+00 5.243494983539999765e+01 3.080154663267999808e+02 0.000000000000000000e+00 0.000000000000000000e+00 0.000000000000000000e+00
-5.561709769999999553e-01 4.658680047490000220e+01 3.165771926749999921e+02 0.000000000000000000e+00 0.000000000000000000e+00 0.000000000000000000e+00
-4.654990667599999909e+00 5.418052087809999762e+01 3.047146584961000144e+02 0.000000000000000000e+00 0.000000000000000000e+00 0.000000000000000000e+00
-3.779179394899999878e+00 6.181376614660000257e+01 2.942488699291999978e+02 0.000000000000000000e+00 0.000000000000000000e+00 0.000000000000000000e+00
3.437887394900000171e+00 5.049429819000000208e+01 3.090784099662000131e+02 0.000000000000000000e+00 0.000000000000000000e+00 0.000000000000000000e+00
-1.050845395300000096e+00 4.372931521320000314e+01 3.167550472739999918e+02 0.000000000000000000e+00 0.000000000000000000e+00 0.000000000000000000e+00
-5.227623915000000343e-01 6.146989363729999667e+01 3.004756343712999751e+02 0.000000000000000000e+00 0.000000000000000000e+00 0.000000000000000000e+00
-3.115940114799999883e+00 6.272172987999999805e+01 2.931631330953999850e+02 0.000000000000000000e+00 0.000000000000000000e+00 0.000000000000000000e+00
-3.072205800000000001e-02 4.345541502879999740e+01 3.169766243450000047e+02 0.000000000000000000e+00 0.000000000000000000e+00 0.000000000000000000e+00
-1.526335843300000050e+00 5.791249701299999941e+01 3.049218013299000063e+02 0.000000000000000000e+00 0.000000000000000000e+00 0.000000000000000000e+00
-8.579758269999999964e-02 5.435362197820000318e+01 3.094223006198000121e+02 0.000000000000000000e+00 0.000000000000000000e+00 0.000000000000000000e+00
-1.546854346900000010e+00 5.855666581309999685e+01 3.041113430573000187e+02 0.000000000000000000e+00 0.000000000000000000e+00 0.000000000000000000e+00
1.768877599999999981e-02 5.839393815489999895e+01 3.043957168979999892e+02 0.000000000000000000e+00 0.000000000000000000e+00 0.000000000000000000e+00
-2.439951976400000166e+00 5.955943611029999829e+01 3.025726873383999873e+02 0.000000000000000000e+00 0.000000000000000000e+00 0.000000000000000000e+00
-2.733847318600000076e+00 5.469214163550000052e+01 3.056806694169000025e+02 0.000000000000000000e+00 0.000000000000000000e+00 0.000000000000000000e+00
-4.089046410699999967e+00 5.460098824399999984e+01 3.046425754191000124e+02 0.000000000000000000e+00 0.000000000000000000e+00 0.000000000000000000e+00
-1.068424810000000003e+00 5.125064709950000008e+01 3.132435709930999792e+02 0.000000000000000000e+00 0.000000000000000000e+00 0.000000000000000000e+00
-4.620086350200000247e+00 5.865246465829999778e+01 2.986650004589000105e+02 0.000000000000000000e+00 0.000000000000000000e+00 0.000000000000000000e+00
1.738754954800000085e+00 5.235119671159999655e+01 3.113955594761999919e+02 0.000000000000000000e+00 0.000000000000000000e+00 0.000000000000000000e+00
2.354171568599999986e+00 6.142118442539999990e+01 2.955716271663999919e+02 0.000000000000000000e+00 0.000000000000000000e+00 0.000000000000000000e+00
1.915301210199999993e+00 5.952695058070000300e+01 3.016341287727000235e+02 0.000000000000000000e+00 0.000000000000000000e+00 0.000000000000000000e+00
-4.126614346100000219e+00 5.718559811229999923e+01 3.011582805777999852e+02 0.000000000000000000e+00 0.000000000000000000e+00 0.000000000000000000e+00
-4.097019519699999890e+00 5.018132418169999909e+01 3.097447470124000120e+02 0.000000000000000000e+00 0.000000000000000000e+00 0.000000000000000000e+00
-5.489359343999999918e-01 6.274063273219999815e+01 2.940811563414999910e+02 0.000000000000000000e+00 0.000000000000000000e+00 0.000000000000000000e+00
-2.567595530599999787e+00 6.019201765279999705e+01 2.996316594976000260e+02 0.000000000000000000e+00 0.000000000000000000e+00 0.000000000000000000e+00
-1.038720088200000058e+00 6.420437322489999588e+01 2.954767746594000073e+02 0.000000000000000000e+00 0.000000000000000000e+00 0.000000000000000000e+00
-3.160586277899999796e+00 4.925019781230000149e+01 3.112649313712000207e+02 0.000000000000000000e+00 0.000000000000000000e+00 0.000000000000000000e+00
-3.022379823600000126e+00 5.406109264109999657e+01 3.060979657331999988e+02 0.000000000000000000e+00 0.000000000000000000e+00 0.000000000000000000e+00
-1.047163952600000059e+00 5.480015944889999702e+01 3.087878350034000050e+02 0.000000000000000000e+00 0.000000000000000000e+00 0.000000000000000000e+00
-2.033909845400000194e+00 6.366897166310000244e+01 2.976913422348999916e+02 0.000000000000000000e+00 0.000000000000000000e+00 0.000000000000000000e+00
2.320472059100000095e+00 6.235756934100000137e+01 2.939913204548000181e+02 0.000000000000000000e+00 0.000000000000000000e+00 0.000000000000000000e+00
-2.064275750899999817e+00 4.968147030130000275e+01 3.152006275257999732e+02 0.000000000000000000e+00 0.000000000000000000e+00 0.000000000000000000e+00
4.543254176000000033e-01 5.126554935029999882e+01 3.132132334967000133e+02 0.000000000000000000e+00 0.000000000000000000e+00 0.000000000000000000e+00
-3.535461213600000097e+00 5.541393920779999860e+01 3.039670677519999913e+02 0.000000000000000000e+00 0.000000000000000000e+00 0.000000000000000000e+00
-1.389033869999999928e-02 5.479118295199999977e+01 3.088105068373999984e+02 0.000000000000000000e+00 0.000000000000000000e+00 0.000000000000000000e+00
4.392978991000000000e-01 4.760527243679999998e+01 3.171322209785000155e+02 0.000000000000000000e+00 0.000000000000000000e+00 0.000000000000000000e+00
-6.786905829999999307e-02 4.759819626390000025e+01 3.171347089268999753e+02 0.000000000000000000e+00 0.000000000000000000e+00 0.000000000000000000e+00
-1.541959274299999905e+00 4.313553813179999707e+01 3.172242723360000127e+02 0.000000000000000000e+00 0.000000000000000000e+00 0.000000000000000000e+00
-2.056222637199999870e+00 4.309092834430000352e+01 3.171488230563999764e+02 0.000000000000000000e+00 0.000000000000000000e+00 0.000000000000000000e+00
9.371512765999999717e-01 4.761121283599999998e+01 3.170548889236000036e+02 0.000000000000000000e+00 0.000000000000000000e+00 0.000000000000000000e+00
8.728995403999999514e-01 4.794030393359999920e+01 3.169285034539000208e+02 0.000000000000000000e+00 0.000000000000000000e+00 0.000000000000000000e+00
-1.567723259100000099e+00 4.808226586989999873e+01 3.170028095813000277e+02 0.000000000000000000e+00 0.000000000000000000e+00 0.000000000000000000e+00
-2.461229022199999950e+00 4.798348303139999871e+01 3.169615503169999897e+02 0.000000000000000000e+00 0.000000000000000000e+00 0.000000000000000000e+00
-2.518211472399999984e+00 4.757677633250000326e+01 3.169996881362000067e+02 0.000000000000000000e+00 0.000000000000000000e+00 0.000000000000000000e+00
-1.052527063399999907e+00 4.348113691510000223e+01 3.169832831638000243e+02 0.000000000000000000e+00 0.000000000000000000e+00 0.000000000000000000e+00
9.424958615999999845e-01 4.812774235570000059e+01 3.167314515314999994e+02 0.000000000000000000e+00 0.000000000000000000e+00 0.000000000000000000e+00
-6.315461719999999890e-02 4.855964676349999820e+01 3.165888621039999862e+02 0.000000000000000000e+00 0.000000000000000000e+00 0.000000000000000000e+00
-1.059056250200000049e+00 4.857934325109999918e+01 3.166124797530000023e+02 0.000000000000000000e+00 0.000000000000000000e+00 0.000000000000000000e+00
-2.063470927800000077e+00 4.854510361279999842e+01 3.166011429057999749e+02 0.000000000000000000e+00 0.000000000000000000e+00 0.000000000000000000e+00
-2.750354086399999787e+00 4.759855396439999708e+01 3.166268407425999953e+02 0.000000000000000000e+00 0.000000000000000000e+00 0.000000000000000000e+00
-2.543330901000000033e+00 4.357744986040000157e+01 3.166321971451000081e+02 0.000000000000000000e+00 0.000000000000000000e+00 0.000000000000000000e+00
-2.754821360099999783e+00 4.327419403140000043e+01 3.168270589025000277e+02 0.000000000000000000e+00 0.000000000000000000e+00 0.000000000000000000e+00
-3.096843488999999838e+00 4.314371058959999772e+01 3.167706924702000038e+02 0.000000000000000000e+00 0.000000000000000000e+00 0.000000000000000000e+00
-3.673367292600000056e+00 4.272188308119999789e+01 3.168129790241000023e+02 0.000000000000000000e+00 0.000000000000000000e+00 0.000000000000000000e+00
1.427216151899999952e+00 4.809818707830000051e+01 3.165951658810000140e+02 0.000000000000000000e+00 0.000000000000000000e+00 0.000000000000000000e+00
-2.586207628699999983e+00 4.702319476979999990e+01 3.166956388268000069e+02 0.000000000000000000e+00 0.000000000000000000e+00 0.000000000000000000e+00
-2.004025353399999876e+00 4.396054727370000137e+01 3.164631263960999945e+02 0.000000000000000000e+00 0.000000000000000000e+00 0.000000000000000000e+00
-3.000401037700000106e+00 4.348401241439999865e+01 3.165385140474999730e+02 0.000000000000000000e+00 0.000000000000000000e+00 0.000000000000000000e+00
-2.404530705400000024e+00 4.387928344630000055e+01 3.164129075229000136e+02 0.000000000000000000e+00 0.000000000000000000e+00 0.000000000000000000e+00
9.843180401000000135e-01 4.871995085559999694e+01 3.162528849392999746e+02 0.000000000000000000e+00 0.000000000000000000e+00 0.000000000000000000e+00
9.196809844000000123e-01 4.898119827370000223e+01 3.160152432996000016e+02 0.000000000000000000e+00 0.000000000000000000e+00 0.000000000000000000e+00
1.893151134300000038e+00 5.810106111830000231e+01 3.030796374866999940e+02 0.000000000000000000e+00 0.000000000000000000e+00 0.000000000000000000e+00
4.330975510999999778e-01 4.899711425619999972e+01 3.160773678693000193e+02 0.000000000000000000e+00 0.000000000000000000e+00 0.000000000000000000e+00
-5.691481215999999455e-01 4.903645821660000337e+01 3.160852808202000119e+02 0.000000000000000000e+00 0.000000000000000000e+00 0.000000000000000000e+00
-1.573085786800000108e+00 4.898880765020000183e+01 3.160941522073999863e+02 0.000000000000000000e+00 0.000000000000000000e+00 0.000000000000000000e+00
-2.069286076900000104e+00 4.897122423169999905e+01 3.160966611169000089e+02 0.000000000000000000e+00 0.000000000000000000e+00 0.000000000000000000e+00
-2.032399333499999905e+00 4.451252137550000043e+01 3.160094290338000178e+02 0.000000000000000000e+00 0.000000000000000000e+00 0.000000000000000000e+00
-2.082156279599999937e+00 4.418183787009999719e+01 3.162381161129000020e+02 0.000000000000000000e+00 0.000000000000000000e+00 0.000000000000000000e+00
-2.557496268700000019e+00 4.410085289140000242e+01 3.161613412667999796e+02 0.000000000000000000e+00 0.000000000000000000e+00 0.000000000000000000e+00
-3.034486057000000070e+00 4.402043308449999870e+01 3.160692893093000180e+02 0.000000000000000000e+00 0.000000000000000000e+00 0.000000000000000000e+00
-3.113516292899999982e+00 4.370422634500000214e+01 3.162612194824000085e+02 0.000000000000000000e+00 0.000000000000000000e+00 0.000000000000000000e+00
1.409123426999999928e+00 4.894209623020000066e+01 3.159348211074999995e+02 0.000000000000000000e+00 0.000000000000000000e+00 0.000000000000000000e+00
-2.593228162299999973e+00 4.643693261819999663e+01 3.162068840978000139e+02 0.000000000000000000e+00 0.000000000000000000e+00 0.000000000000000000e+00
-6.379851949999999772e-02 4.924754599429999757e+01 3.157642700487999718e+02 0.000000000000000000e+00 0.000000000000000000e+00 0.000000000000000000e+00
-5.629061561999999519e-01 4.929113198569999810e+01 3.157733422278000148e+02 0.000000000000000000e+00 0.000000000000000000e+00 0.000000000000000000e+00
-1.067498716700000072e+00 4.924397982170000176e+01 3.157740232594999839e+02 0.000000000000000000e+00 0.000000000000000000e+00 0.000000000000000000e+00
-1.558365823699999986e+00 4.923169376429999744e+01 3.157765166556000054e+02 0.000000000000000000e+00 0.000000000000000000e+00 0.000000000000000000e+00
-2.074957951900000097e+00 4.922854735309999796e+01 3.157761245772999814e+02 0.000000000000000000e+00 0.000000000000000000e+00 0.000000000000000000e+00
-2.524895636900000184e+00 4.505524426710000085e+01 3.155104851048000114e+02 0.000000000000000000e+00 0.000000000000000000e+00 0.000000000000000000e+00
-2.582544573499999885e+00 4.464832536690000353e+01 3.157342140992000168e+02 0.000000000000000000e+00 0.000000000000000000e+00 0.000000000000000000e+00
-3.584294797200000104e+00 4.410247785520000008e+01 3.156908066053999846e+02 0.000000000000000000e+00 0.000000000000000000e+00 0.000000000000000000e+00
1.287136289600000039e+00 4.942236072749999920e+01 3.154564106735999758e+02 0.000000000000000000e+00 0.000000000000000000e+00 0.000000000000000000e+00
4.390999905999999897e-01 4.946388321850000125e+01 3.154926946388999909e+02 0.000000000000000000e+00 0.000000000000000000e+00 0.000000000000000000e+00
-7.709492910000000088e-02 4.946161969690000149e+01 3.154966900599000041e+02 0.000000000000000000e+00 0.000000000000000000e+00 0.000000000000000000e+00
-5.747748213000000161e-01 4.949122904170000226e+01 3.155026133398000070e+02 0.000000000000000000e+00 0.000000000000000000e+00 0.000000000000000000e+00
-1.060835182599999982e+00 4.946755724820000211e+01 3.154985380287000112e+02 0.000000000000000000e+00 0.000000000000000000e+00 0.000000000000000000e+00
-1.568396493100000066e+00 4.945451771740000169e+01 3.154950938778000022e+02 0.000000000000000000e+00 0.000000000000000000e+00 0.000000000000000000e+00
-3.524342940499999965e+00 4.447053124549999836e+01 3.155014921059000130e+02 0.000000000000000000e+00 0.000000000000000000e+00 0.000000000000000000e+00
-5.675359247000000273e-01 4.973843774689999719e+01 3.151681538410999792e+02 0.000000000000000000e+00 0.000000000000000000e+00 0.000000000000000000e+00
-1.081693229299999892e+00 4.970098231600000105e+01 3.151931628550000255e+02 0.000000000000000000e+00 0.000000000000000000e+00 0.000000000000000000e+00
-4.068962595600000398e+00 4.420275458919999778e+01 3.152715022447999900e+02 0.000000000000000000e+00 0.000000000000000000e+00 0.000000000000000000e+00
-4.693658822899999805e+00 4.373553037250000131e+01 3.152932953855000164e+02 0.000000000000000000e+00 0.000000000000000000e+00 0.000000000000000000e+00
4.508623766000000033e-01 4.988555635080000172e+01 3.149490364303999854e+02 0.000000000000000000e+00 0.000000000000000000e+00 0.000000000000000000e+00
-5.673911448999999774e-01 4.988770754859999812e+01 3.149666253381000161e+02 0.000000000000000000e+00 0.000000000000000000e+00 0.000000000000000000e+00
-1.074227625000000019e+00 4.987746566709999740e+01 3.149779130918000192e+02 0.000000000000000000e+00 0.000000000000000000e+00 0.000000000000000000e+00
-2.065459905900000059e+00 4.986296264039999926e+01 3.149729597342000034e+02 0.000000000000000000e+00 0.000000000000000000e+00 0.000000000000000000e+00
9.487216522000000429e-01 5.012471675609999977e+01 3.146026457703999881e+02 0.000000000000000000e+00 0.000000000000000000e+00 0.000000000000000000e+00
4.293228501999999946e-01 5.013910128180000214e+01 3.146240061946999731e+02 0.000000000000000000e+00 0.000000000000000000e+00 0.000000000000000000e+00
-6.081753189999999920e-02 5.013985060880000333e+01 3.146790687926999794e+02 0.000000000000000000e+00 0.000000000000000000e+00 0.000000000000000000e+00
-5.581659073000000415e-01 5.013773963690000102e+01 3.146461604012999942e+02 0.000000000000000000e+00 0.000000000000000000e+00 0.000000000000000000e+00
-2.067626745500000141e+00 5.012307763519999781e+01 3.146453337731999795e+02 0.000000000000000000e+00 0.000000000000000000e+00 0.000000000000000000e+00
-3.108507040800000176e+00 4.564959446990000203e+01 3.147173785530000032e+02 0.000000000000000000e+00 0.000000000000000000e+00 0.000000000000000000e+00
-4.218220536099999585e+00 4.474104057670000145e+01 3.148396199380999860e+02 0.000000000000000000e+00 0.000000000000000000e+00 0.000000000000000000e+00
-4.741766258100000186e+00 4.426623186300000157e+01 3.148321216164999896e+02 0.000000000000000000e+00 0.000000000000000000e+00 0.000000000000000000e+00
7.973862922000000131e-01 5.034069983620000244e+01 3.143791731125999718e+02 0.000000000000000000e+00 0.000000000000000000e+00 0.000000000000000000e+00
4.090689844000000019e-01 5.037791586270000010e+01 3.143845660554000006e+02 0.000000000000000000e+00 0.000000000000000000e+00 0.000000000000000000e+00
-1.035389223199999931e+00 5.037182812439999680e+01 3.143972921795000275e+02 0.000000000000000000e+00 0.000000000000000000e+00 0.000000000000000000e+00
-1.505751436099999951e+00 5.034195430239999780e+01 3.144100866991000203e+02 0.000000000000000000e+00 0.000000000000000000e+00 0.000000000000000000e+00
1.403359588600000096e+00 5.046537681000000219e+01 3.140282873968000104e+02 0.000000000000000000e+00 0.000000000000000000e+00 0.000000000000000000e+00
9.282084081999999459e-01 5.053753037759999955e+01 3.140795235114999855e+02 0.000000000000000000e+00 0.000000000000000000e+00 0.000000000000000000e+00
4.422238511000000094e-01 5.056152798579999796e+01 3.141145454608000023e+02 0.000000000000000000e+00 0.000000000000000000e+00 0.000000000000000000e+00
-6.285717259999999695e-02 5.057525163369999888e+01 3.141043786306000243e+02 0.000000000000000000e+00 0.000000000000000000e+00 0.000000000000000000e+00
-5.530594685999999927e-01 5.057301270669999838e+01 3.141190090924000060e+02 0.000000000000000000e+00 0.000000000000000000e+00 0.000000000000000000e+00
-1.060589717700000101e+00 5.056869631720000058e+01 3.141316017084000123e+02 0.000000000000000000e+00 0.000000000000000000e+00 0.000000000000000000e+00
-1.553448052900000098e+00 5.056509486459999891e+01 3.140910083936000206e+02 0.000000000000000000e+00 0.000000000000000000e+00 0.000000000000000000e+00
-3.674240916300000048e+00 4.573487094880000114e+01 3.142920734410000136e+02 0.000000000000000000e+00 0.000000000000000000e+00 0.000000000000000000e+00
1.450267431299999910e+00 5.069635560329999890e+01 3.136888717588000191e+02 0.000000000000000000e+00 0.000000000000000000e+00 0.000000000000000000e+00
9.526819527000000010e-01 5.078214643990000354e+01 3.137612754846999792e+02 0.000000000000000000e+00 0.000000000000000000e+00 0.000000000000000000e+00
4.421182397999999791e-01 5.080358643480000325e+01 3.138029780122000147e+02 0.000000000000000000e+00 0.000000000000000000e+00 0.000000000000000000e+00
-6.569158379999999464e-02 5.100956936280000065e+01 3.135783086505999790e+02 0.000000000000000000e+00 0.000000000000000000e+00 0.000000000000000000e+00
-5.570613192000000158e-01 5.099957875660000184e+01 3.135937659169999847e+02 0.000000000000000000e+00 0.000000000000000000e+00 0.000000000000000000e+00
-1.057444636300000074e+00 5.098962448059999986e+01 3.135942928856999856e+02 0.000000000000000000e+00 0.000000000000000000e+00 0.000000000000000000e+00
-1.571743169999999967e+00 5.099345521170000239e+01 3.135926833556999895e+02 0.000000000000000000e+00 0.000000000000000000e+00 0.000000000000000000e+00
-3.145605733500000056e+00 4.666929365000000018e+01 3.137432884527000283e+02 0.000000000000000000e+00 0.000000000000000000e+00 0.000000000000000000e+00
-4.275574825499999676e+00 4.582011494329999834e+01 3.138462472329999855e+02 0.000000000000000000e+00 0.000000000000000000e+00 0.000000000000000000e+00
9.323971813000000441e-01 5.101706177559999844e+01 3.135113615329000254e+02 0.000000000000000000e+00 0.000000000000000000e+00 0.000000000000000000e+00
4.339915341000000204e-01 5.101206125689999737e+01 3.135505587386999764e+02 0.000000000000000000e+00 0.000000000000000000e+00 0.000000000000000000e+00
-2.070276917000000161e+00 5.098175046779999775e+01 3.135700892798000154e+02 0.000000000000000000e+00 0.000000000000000000e+00 0.000000000000000000e+00
9.583089221999999685e-01 5.125936428440000014e+01 3.132169000485999959e+02 0.000000000000000000e+00 0.000000000000000000e+00 0.000000000000000000e+00
-3.925704619999999950e-02 5.125237274269999688e+01 3.132510166194999783e+02 0.000000000000000000e+00 0.000000000000000000e+00 0.000000000000000000e+00
-5.434343459999999709e-02 5.143704660979999943e+01 3.130351628216999984e+02 0.000000000000000000e+00 0.000000000000000000e+00 0.000000000000000000e+00
-5.421977785999999577e-01 5.143671197740000167e+01 3.130393492168000193e+02 0.000000000000000000e+00 0.000000000000000000e+00 0.000000000000000000e+00
-2.036900231300000197e+00 5.125004236219999854e+01 3.132310246472000017e+02 0.000000000000000000e+00 0.000000000000000000e+00 0.000000000000000000e+00
-2.808174932300000037e+00 4.766312806279999847e+01 3.132275265494000109e+02 0.000000000000000000e+00 0.000000000000000000e+00 0.000000000000000000e+00
-3.081902811800000030e+00 4.718702862650000185e+01 3.131979224148000185e+02 0.000000000000000000e+00 0.000000000000000000e+00 0.000000000000000000e+00
4.290995565999999872e-01 5.144855371780000297e+01 3.129887420005999843e+02 0.000000000000000000e+00 0.000000000000000000e+00 0.000000000000000000e+00
-1.054334521899999988e+00 5.143827985109999901e+01 3.130310728642999720e+02 0.000000000000000000e+00 0.000000000000000000e+00 0.000000000000000000e+00
-1.567648890999999933e+00 5.144896473520000058e+01 3.130033779714000275e+02 0.000000000000000000e+00 0.000000000000000000e+00 0.000000000000000000e+00
-2.077908987499999860e+00 5.143756469619999905e+01 3.130053414893000081e+02 0.000000000000000000e+00 0.000000000000000000e+00 0.000000000000000000e+00
1.450613619799999920e+00 5.161816649149999847e+01 3.126291913864999970e+02 0.000000000000000000e+00 0.000000000000000000e+00 0.000000000000000000e+00
4.374880789999999742e-01 5.170470762069999893e+01 3.126744950025999970e+02 0.000000000000000000e+00 0.000000000000000000e+00 0.000000000000000000e+00
-6.860758979999999341e-02 5.170783100519999920e+01 3.126887558203999902e+02 0.000000000000000000e+00 0.000000000000000000e+00 0.000000000000000000e+00
-1.570075582599999908e+00 5.169241116210000087e+01 3.126944933720999984e+02 0.000000000000000000e+00 0.000000000000000000e+00 0.000000000000000000e+00
-2.064380734699999831e+00 5.167885307760000302e+01 3.126848237907000225e+02 0.000000000000000000e+00 0.000000000000000000e+00 0.000000000000000000e+00
-3.118507135599999813e+00 4.768346680620000200e+01 3.127704393425000262e+02 0.000000000000000000e+00 0.000000000000000000e+00 0.000000000000000000e+00
-2.709597801300000164e+00 6.211165681079999956e+01 2.946192654449000088e+02 0.000000000000000000e+00 0.000000000000000000e+00 0.000000000000000000e+00
-4.635414765200000176e+00 4.668802532549999995e+01 3.127598415484999919e+02 0.000000000000000000e+00 0.000000000000000000e+00 0.000000000000000000e+00
1.382176946399999995e+00 5.188448185539999713e+01 3.123865497761000256e+02 0.000000000000000000e+00 0.000000000000000000e+00 0.000000000000000000e+00
4.354844471000000050e-01 5.192067795149999654e+01 3.124033486559999915e+02 0.000000000000000000e+00 0.000000000000000000e+00 0.000000000000000000e+00
-1.549205255800000014e+00 5.191613246379999680e+01 3.124237768506999942e+02 0.000000000000000000e+00 0.000000000000000000e+00 0.000000000000000000e+00
-2.054519871000000109e+00 5.190761186310000141e+01 3.124208937760000140e+02 0.000000000000000000e+00 0.000000000000000000e+00 0.000000000000000000e+00
9.456134255999999461e-01 5.214866043260000339e+01 3.121053296691999890e+02 0.000000000000000000e+00 0.000000000000000000e+00 0.000000000000000000e+00
-5.184073990000000187e-02 5.216410169430000110e+01 3.121113329469000064e+02 0.000000000000000000e+00 0.000000000000000000e+00 0.000000000000000000e+00
-5.503885199000000394e-01 5.216201677480000143e+01 3.121463352861999851e+02 0.000000000000000000e+00 0.000000000000000000e+00 0.000000000000000000e+00
-1.054084150600000047e+00 5.216247489540000259e+01 3.121355193292999957e+02 0.000000000000000000e+00 0.000000000000000000e+00 0.000000000000000000e+00
-2.061757109000000199e+00 5.214453464460000021e+01 3.121203310010000109e+02 0.000000000000000000e+00 0.000000000000000000e+00 0.000000000000000000e+00
9.405554765000000428e-01 5.257158516690000027e+01 3.115911769487000242e+02 0.000000000000000000e+00 0.000000000000000000e+00 0.000000000000000000e+00
4.387850940999999949e-01 5.256577941100000118e+01 3.116095349227999804e+02 0.000000000000000000e+00 0.000000000000000000e+00 0.000000000000000000e+00
-6.135607679999999925e-02 5.256720827659999884e+01 3.116235514599999874e+02 0.000000000000000000e+00 0.000000000000000000e+00 0.000000000000000000e+00
-5.527787202999999705e-01 5.259019152930000018e+01 3.116177840339000227e+02 0.000000000000000000e+00 0.000000000000000000e+00 0.000000000000000000e+00
-2.066930579600000151e+00 5.254541577239999839e+01 3.116175569221999808e+02 0.000000000000000000e+00 0.000000000000000000e+00 0.000000000000000000e+00
-2.799588271999999822e+00 4.921948621960000025e+01 3.118283400073000280e+02 0.000000000000000000e+00 0.000000000000000000e+00 0.000000000000000000e+00
-3.154670702899999846e+00 4.873185276329999738e+01 3.118064834163999990e+02 0.000000000000000000e+00 0.000000000000000000e+00 0.000000000000000000e+00
-3.565384433400000219e+00 4.860648847760000280e+01 3.116789620760999924e+02 0.000000000000000000e+00 0.000000000000000000e+00 0.000000000000000000e+00
-4.664970995000000009e+00 4.771222773630000091e+01 3.117881101786999807e+02 0.000000000000000000e+00 0.000000000000000000e+00 0.000000000000000000e+00
1.402113100400000034e+00 5.296862924039999854e+01 3.110222018195000260e+02 0.000000000000000000e+00 0.000000000000000000e+00 0.000000000000000000e+00
9.363257566999999559e-01 5.299884728389999822e+01 3.110480486972999756e+02 0.000000000000000000e+00 0.000000000000000000e+00 0.000000000000000000e+00
4.381788998999999740e-01 5.299557908250000082e+01 3.110675538209999900e+02 0.000000000000000000e+00 0.000000000000000000e+00 0.000000000000000000e+00
-5.635564920000000338e-02 5.300289040999999912e+01 3.110635471066000264e+02 0.000000000000000000e+00 0.000000000000000000e+00 0.000000000000000000e+00
-5.515460500000000099e-01 5.300127716429999936e+01 3.110884271959999978e+02 0.000000000000000000e+00 0.000000000000000000e+00 0.000000000000000000e+00
-1.566885218499999954e+00 5.298451912520000207e+01 3.110759437611999942e+02 0.000000000000000000e+00 0.000000000000000000e+00 0.000000000000000000e+00
-2.061070912799999988e+00 5.297423129919999951e+01 3.110711784367999826e+02 0.000000000000000000e+00 0.000000000000000000e+00 0.000000000000000000e+00
-4.105063933800000342e+00 4.868480144469999971e+01 3.112432258291000267e+02 0.000000000000000000e+00 0.000000000000000000e+00 0.000000000000000000e+00
9.557343541999999692e-01 5.324874958000000191e+01 3.107245793958999798e+02 0.000000000000000000e+00 0.000000000000000000e+00 0.000000000000000000e+00
4.664611485999999863e-01 5.324670003020000308e+01 3.107458693440000275e+02 0.000000000000000000e+00 0.000000000000000000e+00 0.000000000000000000e+00
-5.777980950000000115e-02 5.324494378360000013e+01 3.107592620434999731e+02 0.000000000000000000e+00 0.000000000000000000e+00 0.000000000000000000e+00
1.425298019400000005e+00 5.836380904760000021e+01 3.043766426930999955e+02 0.000000000000000000e+00 0.000000000000000000e+00 0.000000000000000000e+00
-1.067440134099999938e+00 5.324559828889999835e+01 3.107776645151000139e+02 0.000000000000000000e+00 0.000000000000000000e+00 0.000000000000000000e+00
-3.134119509100000034e+00 4.973783332600000051e+01 3.107896755448999784e+02 0.000000000000000000e+00 0.000000000000000000e+00 0.000000000000000000e+00
-3.573676438500000163e+00 4.962521300689999748e+01 3.106493208723999828e+02 0.000000000000000000e+00 0.000000000000000000e+00 0.000000000000000000e+00
9.529466817999999728e-01 5.345223492640000273e+01 3.104853982193999968e+02 0.000000000000000000e+00 0.000000000000000000e+00 0.000000000000000000e+00
-5.889148339999999981e-02 5.347585546340000207e+01 3.104929817858999854e+02 0.000000000000000000e+00 0.000000000000000000e+00 0.000000000000000000e+00
-5.563390422999999751e-01 5.347371070479999844e+01 3.105114873818000092e+02 0.000000000000000000e+00 0.000000000000000000e+00 0.000000000000000000e+00
-1.064017771200000073e+00 5.345917279630000252e+01 3.105245626335000111e+02 0.000000000000000000e+00 0.000000000000000000e+00 0.000000000000000000e+00
-2.055644651000000156e+00 5.344292224400000180e+01 3.105002311662000238e+02 0.000000000000000000e+00 0.000000000000000000e+00 0.000000000000000000e+00
1.446989320899999987e+00 5.364068560710000355e+01 3.101398841807999816e+02 0.000000000000000000e+00 0.000000000000000000e+00 0.000000000000000000e+00
4.548076768000000047e-01 5.370055690329999720e+01 3.101701518026999906e+02 0.000000000000000000e+00 0.000000000000000000e+00 0.000000000000000000e+00
-1.064470696999999966e+00 5.370434436840000103e+01 3.102059459989000061e+02 0.000000000000000000e+00 0.000000000000000000e+00 0.000000000000000000e+00
-2.056942563099999788e+00 5.369254195199999913e+01 3.101592041609999910e+02 0.000000000000000000e+00 0.000000000000000000e+00 0.000000000000000000e+00
-2.493408196599999904e+00 5.355227715609999706e+01 3.101138794605000157e+02 0.000000000000000000e+00 0.000000000000000000e+00 0.000000000000000000e+00
-3.563716677099999952e+00 5.012407202389999838e+01 3.101325232515999915e+02 0.000000000000000000e+00 0.000000000000000000e+00 0.000000000000000000e+00
-4.653636987699999672e+00 4.923913142970000223e+01 3.102807940146000192e+02 0.000000000000000000e+00 0.000000000000000000e+00 0.000000000000000000e+00
8.861867219000000295e-01 5.390001099100000204e+01 3.099476662876999740e+02 0.000000000000000000e+00 0.000000000000000000e+00 0.000000000000000000e+00
4.182567187999999825e-01 5.389296196080000101e+01 3.099597056360000238e+02 0.000000000000000000e+00 0.000000000000000000e+00 0.000000000000000000e+00
-6.568746000000000307e-02 5.389335291750000323e+01 3.099659893593000106e+02 0.000000000000000000e+00 0.000000000000000000e+00 0.000000000000000000e+00
-5.474731679000000018e-01 5.388363062149999649e+01 3.099808560028000102e+02 0.000000000000000000e+00 0.000000000000000000e+00 0.000000000000000000e+00
-1.031060966499999898e+00 5.388865884359999825e+01 3.099805104850000248e+02 0.000000000000000000e+00 0.000000000000000000e+00 0.000000000000000000e+00
-1.573708376899999983e+00 5.389647889689999971e+01 3.099710772471000269e+02 0.000000000000000000e+00 0.000000000000000000e+00 0.000000000000000000e+00
1.438548767999999978e+00 5.406737963439999817e+01 3.096152456703999860e+02 0.000000000000000000e+00 0.000000000000000000e+00 0.000000000000000000e+00
-4.307322009999999674e-02 5.414779694989999825e+01 3.096554861144999791e+02 0.000000000000000000e+00 0.000000000000000000e+00 0.000000000000000000e+00
-1.554551744899999921e+00 5.414670265849999709e+01 3.096231184613000096e+02 0.000000000000000000e+00 0.000000000000000000e+00 0.000000000000000000e+00
-2.043895336499999882e+00 5.412386983569999899e+01 3.096049169602000006e+02 0.000000000000000000e+00 0.000000000000000000e+00 0.000000000000000000e+00
-3.148125512200000031e+00 5.073215313699999740e+01 3.097712273448000246e+02 0.000000000000000000e+00 0.000000000000000000e+00 0.000000000000000000e+00
-4.647045930500000033e+00 4.972966174719999799e+01 3.097809015858999828e+02 0.000000000000000000e+00 0.000000000000000000e+00 0.000000000000000000e+00
-2.449164685900000027e+00 5.401572485370000010e+01 3.095756589645000076e+02 0.000000000000000000e+00 0.000000000000000000e+00 0.000000000000000000e+00
4.339232216000000197e-01 5.434366426860000132e+01 3.094097134287000017e+02 0.000000000000000000e+00 0.000000000000000000e+00 0.000000000000000000e+00
-1.529661774900000104e+00 5.434800325719999847e+01 3.094324687334000146e+02 0.000000000000000000e+00 0.000000000000000000e+00 0.000000000000000000e+00
-3.432234212800000073e+00 5.088184776610000171e+01 3.094331649790000256e+02 0.000000000000000000e+00 0.000000000000000000e+00 0.000000000000000000e+00
1.429743842699999989e+00 5.452220469110000067e+01 3.090697278040000242e+02 0.000000000000000000e+00 0.000000000000000000e+00 0.000000000000000000e+00
9.438860663000000484e-01 5.457258636059999901e+01 3.090805062883999881e+02 0.000000000000000000e+00 0.000000000000000000e+00 0.000000000000000000e+00
-5.615613672000000500e-01 5.458486347179999854e+01 3.091014676287999805e+02 0.000000000000000000e+00 0.000000000000000000e+00 0.000000000000000000e+00
-1.054615246500000048e+00 5.457463272550000255e+01 3.090983473645000004e+02 0.000000000000000000e+00 0.000000000000000000e+00 0.000000000000000000e+00
-1.559573268000000068e+00 5.457018946360000200e+01 3.090950670527000170e+02 0.000000000000000000e+00 0.000000000000000000e+00 0.000000000000000000e+00
-2.438169824600000091e+00 5.448176432929999891e+01 3.090533587311999781e+02 0.000000000000000000e+00 0.000000000000000000e+00 0.000000000000000000e+00
-3.127836585899999911e+00 5.122153289549999755e+01 3.092400242762000175e+02 0.000000000000000000e+00 0.000000000000000000e+00 0.000000000000000000e+00
-3.538947729499999806e+00 5.109906243729999886e+01 3.091163436421999791e+02 0.000000000000000000e+00 0.000000000000000000e+00 0.000000000000000000e+00
-3.974431241600000053e+00 5.095129084279999887e+01 3.089983881997000026e+02 0.000000000000000000e+00 0.000000000000000000e+00 0.000000000000000000e+00
9.420642108000000237e-01 5.500804437189999874e+01 3.085425349789999814e+02 0.000000000000000000e+00 0.000000000000000000e+00 0.000000000000000000e+00
-5.447008843999999739e-01 5.500090372649999892e+01 3.085797316655999794e+02 0.000000000000000000e+00 0.000000000000000000e+00 0.000000000000000000e+00
-1.544976981100000035e+00 5.500706071260000130e+01 3.085345264408999810e+02 0.000000000000000000e+00 0.000000000000000000e+00 0.000000000000000000e+00
-2.500527607400000019e+00 5.465742613180000120e+01 3.086769879126999854e+02 0.000000000000000000e+00 0.000000000000000000e+00 0.000000000000000000e+00
-2.677617812999999902e+00 5.357596392829999843e+01 3.086693219943999793e+02 0.000000000000000000e+00 0.000000000000000000e+00 0.000000000000000000e+00
-3.521728409000000060e+00 5.157283648380000329e+01 3.086026877017000061e+02 0.000000000000000000e+00 0.000000000000000000e+00 0.000000000000000000e+00
-4.611277845300000067e+00 5.071087593690000261e+01 3.087610439224000061e+02 0.000000000000000000e+00 0.000000000000000000e+00 0.000000000000000000e+00
-2.051264429400000200e+00 5.499100836099999867e+01 3.085336092096999892e+02 0.000000000000000000e+00 0.000000000000000000e+00 0.000000000000000000e+00
-2.443686483400000053e+00 5.493226656270000063e+01 3.084846179942999811e+02 0.000000000000000000e+00 0.000000000000000000e+00 0.000000000000000000e+00
-3.941378319400000052e+00 5.143751193960000023e+01 3.084725214653000194e+02 0.000000000000000000e+00 0.000000000000000000e+00 0.000000000000000000e+00
-4.497829970699999791e+00 5.100025952699999721e+01 3.085444237327999986e+02 0.000000000000000000e+00 0.000000000000000000e+00 0.000000000000000000e+00
1.447454889000000078e+00 5.520508553119999817e+01 3.081834998854999981e+02 0.000000000000000000e+00 0.000000000000000000e+00 0.000000000000000000e+00
9.392863836999999494e-01 5.544653089359999854e+01 3.080161842550999722e+02 0.000000000000000000e+00 0.000000000000000000e+00 0.000000000000000000e+00
4.216147470000000119e-01 5.546083883109999846e+01 3.080046181701999899e+02 0.000000000000000000e+00 0.000000000000000000e+00 0.000000000000000000e+00
-4.916158469999999669e-02 5.547765632400000158e+01 3.079812879949000148e+02 0.000000000000000000e+00 0.000000000000000000e+00 0.000000000000000000e+00
-4.087850900000000037e-02 5.526791916890000067e+01 3.082181970016999912e+02 0.000000000000000000e+00 0.000000000000000000e+00 0.000000000000000000e+00
-1.059369818600000013e+00 5.526625520120000346e+01 3.082243772497999998e+02 0.000000000000000000e+00 0.000000000000000000e+00 0.000000000000000000e+00
-1.564333840199999992e+00 5.525393310810000003e+01 3.082069022645000018e+02 0.000000000000000000e+00 0.000000000000000000e+00 0.000000000000000000e+00
-3.113262001099999843e+00 5.219528655919999949e+01 3.081987691075000271e+02 0.000000000000000000e+00 0.000000000000000000e+00 0.000000000000000000e+00
-3.521833313000000132e+00 5.203229544199999879e+01 3.080906418491999830e+02 0.000000000000000000e+00 0.000000000000000000e+00 0.000000000000000000e+00
-1.046558340300000056e+00 5.547894360709999972e+01 3.079723913931999846e+02 0.000000000000000000e+00 0.000000000000000000e+00 0.000000000000000000e+00
-1.549143445499999938e+00 5.545391577099999836e+01 3.079774100496999836e+02 0.000000000000000000e+00 0.000000000000000000e+00 0.000000000000000000e+00
-2.069988892500000066e+00 5.541286420349999986e+01 3.079765438576000065e+02 0.000000000000000000e+00 0.000000000000000000e+00 0.000000000000000000e+00
9.525300821000000084e-01 5.571261077529999994e+01 3.076610952789000066e+02 0.000000000000000000e+00 0.000000000000000000e+00 0.000000000000000000e+00
4.557312248000000010e-01 5.571483900799999844e+01 3.076804368298999748e+02 0.000000000000000000e+00 0.000000000000000000e+00 0.000000000000000000e+00
-5.526047154000000017e-01 5.570363942169999660e+01 3.076792868466999948e+02 0.000000000000000000e+00 0.000000000000000000e+00 0.000000000000000000e+00
-1.060664927199999941e+00 5.570677841559999877e+01 3.076660412504999726e+02 0.000000000000000000e+00 0.000000000000000000e+00 0.000000000000000000e+00
-1.559997684400000084e+00 5.569716680100000161e+01 3.076530093846000113e+02 0.000000000000000000e+00 0.000000000000000000e+00 0.000000000000000000e+00
-2.046711378599999964e+00 5.565040243619999671e+01 3.076576817362000043e+02 0.000000000000000000e+00 0.000000000000000000e+00 0.000000000000000000e+00
-2.644168494400000125e+00 5.505379710489999923e+01 3.076297637063000252e+02 0.000000000000000000e+00 0.000000000000000000e+00 0.000000000000000000e+00
-2.674860012299999923e+00 5.356033950340000160e+01 3.075892309690000275e+02 0.000000000000000000e+00 0.000000000000000000e+00 0.000000000000000000e+00
-3.102003954000000174e+00 5.265519600609999884e+01 3.076840477851999935e+02 0.000000000000000000e+00 0.000000000000000000e+00 0.000000000000000000e+00
-3.516195592699999928e+00 5.249557281420000265e+01 3.075589058087999774e+02 0.000000000000000000e+00 0.000000000000000000e+00 0.000000000000000000e+00
-3.615324839199999918e+00 5.224928262569999760e+01 3.077880295818000036e+02 0.000000000000000000e+00 0.000000000000000000e+00 0.000000000000000000e+00
-4.055163974500000101e+00 5.211384538019999724e+01 3.076496680582000067e+02 0.000000000000000000e+00 0.000000000000000000e+00 0.000000000000000000e+00
8.958853907999999588e-01 5.592725685039999917e+01 3.074394301634000044e+02 0.000000000000000000e+00 0.000000000000000000e+00 0.000000000000000000e+00
4.393488496999999882e-01 5.591991163449999647e+01 3.074407701371999906e+02 0.000000000000000000e+00 0.000000000000000000e+00 0.000000000000000000e+00
-6.969883279999999903e-02 5.593136516319999885e+01 3.074382516486999748e+02 0.000000000000000000e+00 0.000000000000000000e+00 0.000000000000000000e+00
-1.034156647000000095e+00 5.591108054770000280e+01 3.074279765612000119e+02 0.000000000000000000e+00 0.000000000000000000e+00 0.000000000000000000e+00
-2.985898338400000185e+00 5.290569797980000288e+01 3.075023007249999978e+02 0.000000000000000000e+00 0.000000000000000000e+00 0.000000000000000000e+00
-4.459172512200000327e+00 5.196622122889999673e+01 3.075140491710999981e+02 0.000000000000000000e+00 0.000000000000000000e+00 0.000000000000000000e+00
-2.002925181899999796e+00 5.588441143899999730e+01 3.074407504678000009e+02 0.000000000000000000e+00 0.000000000000000000e+00 0.000000000000000000e+00
-3.904735893999999874e+00 5.237689423679999834e+01 3.074482001197999921e+02 0.000000000000000000e+00 0.000000000000000000e+00 0.000000000000000000e+00
9.571712779000000060e-01 5.613389296479999757e+01 3.071195158237999863e+02 0.000000000000000000e+00 0.000000000000000000e+00 0.000000000000000000e+00
4.449263720000000144e-01 5.616345102879999729e+01 3.071175699277999911e+02 0.000000000000000000e+00 0.000000000000000000e+00 0.000000000000000000e+00
-5.142244299999999824e-02 5.617439724689999991e+01 3.071172433077999813e+02 0.000000000000000000e+00 0.000000000000000000e+00 0.000000000000000000e+00
-1.535479277699999923e+00 5.612365605720000161e+01 3.071262940394000225e+02 0.000000000000000000e+00 0.000000000000000000e+00 0.000000000000000000e+00
-2.441630989600000134e+00 5.602031815200000153e+01 3.070974742600000127e+02 0.000000000000000000e+00 0.000000000000000000e+00 0.000000000000000000e+00
-2.592081409700000005e+00 5.566196841509999871e+01 3.071926877848999879e+02 0.000000000000000000e+00 0.000000000000000000e+00 0.000000000000000000e+00
-2.653517605599999829e+00 5.506474057190000337e+01 3.071298769306999930e+02 0.000000000000000000e+00 0.000000000000000000e+00 0.000000000000000000e+00
-2.641559239899999856e+00 5.405354335330000026e+01 3.071290741239999988e+02 0.000000000000000000e+00 0.000000000000000000e+00 0.000000000000000000e+00
-2.709780240599999779e+00 5.357580016819999713e+01 3.071296948400000133e+02 0.000000000000000000e+00 0.000000000000000000e+00 0.000000000000000000e+00
-3.081548796599999918e+00 5.312329781060000045e+01 3.071658699733000049e+02 0.000000000000000000e+00 0.000000000000000000e+00 0.000000000000000000e+00
-3.509443754999999943e+00 5.295848731830000133e+01 3.070334004493000180e+02 0.000000000000000000e+00 0.000000000000000000e+00 0.000000000000000000e+00
3.650305356999999917e-01 5.637056329400000010e+01 3.069323303282999973e+02 0.000000000000000000e+00 0.000000000000000000e+00 0.000000000000000000e+00
-4.433843147600000201e+00 5.243688704179999860e+01 3.069721443770000064e+02 0.000000000000000000e+00 0.000000000000000000e+00 0.000000000000000000e+00
9.496756605999999712e-01 5.659571509399999911e+01 3.065661283521999962e+02 0.000000000000000000e+00 0.000000000000000000e+00 0.000000000000000000e+00
4.537776584000000057e-01 5.659376116680000024e+01 3.065966920101000142e+02 0.000000000000000000e+00 0.000000000000000000e+00 0.000000000000000000e+00
-5.083299990000000185e-02 5.659631100819999716e+01 3.065875747825999724e+02 0.000000000000000000e+00 0.000000000000000000e+00 0.000000000000000000e+00
-5.586169108999999855e-01 5.657819081590000110e+01 3.066095577901999718e+02 0.000000000000000000e+00 0.000000000000000000e+00 0.000000000000000000e+00
-1.547515281499999951e+00 5.656903948720000130e+01 3.065875844459999939e+02 0.000000000000000000e+00 0.000000000000000000e+00 0.000000000000000000e+00
-2.048250978100000008e+00 5.652403053129999932e+01 3.065868901865999874e+02 0.000000000000000000e+00 0.000000000000000000e+00 0.000000000000000000e+00
-2.508949942400000133e+00 5.617791798359999689e+01 3.067246747282000001e+02 0.000000000000000000e+00 0.000000000000000000e+00 0.000000000000000000e+00
-2.642015444700000160e+00 5.444557061759999783e+01 3.066293085043000133e+02 0.000000000000000000e+00 0.000000000000000000e+00 0.000000000000000000e+00
-2.722565201800000168e+00 5.402814312270000130e+01 3.065901327250999771e+02 0.000000000000000000e+00 0.000000000000000000e+00 0.000000000000000000e+00
-3.068811824399999999e+00 5.359034289979999954e+01 3.066186508399999866e+02 0.000000000000000000e+00 0.000000000000000000e+00 0.000000000000000000e+00
-3.554787070999999798e+00 5.320469322019999936e+01 3.067256613755000103e+02 0.000000000000000000e+00 0.000000000000000000e+00 0.000000000000000000e+00
-4.005477734600000339e+00 5.304838441180000075e+01 3.066045917425000198e+02 0.000000000000000000e+00 0.000000000000000000e+00 0.000000000000000000e+00
-2.432427257300000090e+00 5.648189511820000064e+01 3.065135441506999996e+02 0.000000000000000000e+00 0.000000000000000000e+00 0.000000000000000000e+00
-4.405180410699999882e+00 5.291864007979999940e+01 3.064581176410000012e+02 0.000000000000000000e+00 0.000000000000000000e+00 0.000000000000000000e+00
1.446989228000000072e+00 5.694408162170000054e+01 3.060687036313000249e+02 0.000000000000000000e+00 0.000000000000000000e+00 0.000000000000000000e+00
9.432126999000000067e-01 5.702630154660000272e+01 3.060490575685000181e+02 0.000000000000000000e+00 0.000000000000000000e+00 0.000000000000000000e+00
4.525599189000000244e-01 5.703304191569999659e+01 3.060500524862999896e+02 0.000000000000000000e+00 0.000000000000000000e+00 0.000000000000000000e+00
-5.425230212999999635e-01 5.701987178899999975e+01 3.060652071528999727e+02 0.000000000000000000e+00 0.000000000000000000e+00 0.000000000000000000e+00
-1.037345227799999936e+00 5.700538212440000052e+01 3.060738834370000063e+02 0.000000000000000000e+00 0.000000000000000000e+00 0.000000000000000000e+00
-1.532621088700000023e+00 5.700189650669999963e+01 3.060574687705999963e+02 0.000000000000000000e+00 0.000000000000000000e+00 0.000000000000000000e+00
-1.568445905199999935e+00 5.680317487850000191e+01 3.062660022520000211e+02 0.000000000000000000e+00 0.000000000000000000e+00 0.000000000000000000e+00
-2.489434443599999991e+00 5.665738405970000002e+01 3.061774631920000047e+02 0.000000000000000000e+00 0.000000000000000000e+00 0.000000000000000000e+00
-2.634969963500000123e+00 5.601365419740000107e+01 3.061301867483999786e+02 0.000000000000000000e+00 0.000000000000000000e+00 0.000000000000000000e+00
-2.651777147699999837e+00 5.505166436380000050e+01 3.061298045360999822e+02 0.000000000000000000e+00 0.000000000000000000e+00 0.000000000000000000e+00
-2.765478815499999854e+00 5.425542572199999825e+01 3.061308390626999767e+02 0.000000000000000000e+00 0.000000000000000000e+00 0.000000000000000000e+00
-3.214871076700000163e+00 5.376401889360000297e+01 3.062883506004000083e+02 0.000000000000000000e+00 0.000000000000000000e+00 0.000000000000000000e+00
-3.558256248200000194e+00 5.367065515830000066e+01 3.061588848604999953e+02 0.000000000000000000e+00 0.000000000000000000e+00 0.000000000000000000e+00
-4.158941281899999787e+00 5.324402379520000039e+01 3.062640831209000112e+02 0.000000000000000000e+00 0.000000000000000000e+00 0.000000000000000000e+00
-2.412329344799999831e+00 5.694283685970000164e+01 3.059776668241000266e+02 0.000000000000000000e+00 0.000000000000000000e+00 0.000000000000000000e+00
9.551918140999999807e-01 5.723535541249999881e+01 3.057543366936999973e+02 0.000000000000000000e+00 0.000000000000000000e+00 0.000000000000000000e+00
4.592394343000000267e-01 5.726909070490000175e+01 3.057322553408000090e+02 0.000000000000000000e+00 0.000000000000000000e+00 0.000000000000000000e+00
-3.423844060000000300e-02 5.726535526419999655e+01 3.057270662550000111e+02 0.000000000000000000e+00 0.000000000000000000e+00 0.000000000000000000e+00
-5.281001628999999475e-01 5.726201369460000024e+01 3.057388803082999971e+02 0.000000000000000000e+00 0.000000000000000000e+00 0.000000000000000000e+00
-1.041057966399999923e+00 5.725771702710000000e+01 3.057376803453000207e+02 0.000000000000000000e+00 0.000000000000000000e+00 0.000000000000000000e+00
-1.565689709099999938e+00 5.725450506840000031e+01 3.057185371781000072e+02 0.000000000000000000e+00 0.000000000000000000e+00 0.000000000000000000e+00
