-4.580108785400000215e+00 7.308664214200000231e+01 2.545652476690999890e+02 0.000000000000000000e+00 0.000000000000000000e+00 0.000000000000000000e+00
2.369367617400000015e+00 7.416378363169999943e+01 2.466088656501999878e+02 0.000000000000000000e+00 0.000000000000000000e+00 0.000000000000000000e+00
4.464387466199999821e+00 7.293297761130000367e+01 2.541183223351000038e+02 0.000000000000000000e+00 0.000000000000000000e+00 0.000000000000000000e+00
-8.526021268000000264e-01 7.582404060070000185e+01 2.544165185935999887e+02 0.000000000000000000e+00 0.000000000000000000e+00 0.000000000000000000e+00
-3.824189818699999854e+00 7.337771534469999324e+01 2.544551950672999965e+02 0.000000000000000000e+00 0.000000000000000000e+00 0.000000000000000000e+00
2.305566746899999853e+00 7.406013307999999995e+01 2.541092768400000068e+02 0.000000000000000000e+00 0.000000000000000000e+00 0.000000000000000000e+00
1.353685288499999917e+00 7.581167131540000526e+01 2.540866316041000061e+02 0.000000000000000000e+00 0.000000000000000000e+00 0.000000000000000000e+00
1.005431721999999972e+00 7.581397181059999468e+01 2.541913514999999961e+02 0.000000000000000000e+00 0.000000000000000000e+00 0.000000000000000000e+00
5.344623351999999716e-01 7.582703635250000218e+01 2.541977353942000093e+02 0.000000000000000000e+00 0.000000000000000000e+00 0.000000000000000000e+00
-1.012936831900000056e+00 7.579755805560000681e+01 2.540686581026000113e+02 0.000000000000000000e+00 0.000000000000000000e+00 0.000000000000000000e+00
-1.335789425400000008e+00 7.585598575870000104e+01 2.542230717422000055e+02 0.000000000000000000e+00 0.000000000000000000e+00 0.000000000000000000e+00
-2.074656095399999955e+00 7.553372249950000139e+01 2.541328656253000133e+02 0.000000000000000000e+00 0.000000000000000000e+00 0.000000000000000000e+00
-2.192364344300000045e+00 7.494248582129999647e+01 2.541340843254999982e+02 0.000000000000000000e+00 0.000000000000000000e+00 0.000000000000000000e+00
-2.251562865099999922e+00 7.405301213410000116e+01 2.541343219364999868e+02 0.000000000000000000e+00 0.000000000000000000e+00 0.000000000000000000e+00
-3.565093183800000176e+00 7.340681924749999610e+01 2.541316930929000080e+02 0.000000000000000000e+00 0.000000000000000000e+00 0.000000000000000000e+00
-5.677847669999999680e-02 7.583557466039999895e+01 2.530056959048999943e+02 0.000000000000000000e+00 0.000000000000000000e+00 0.000000000000000000e+00
4.477053860599999879e+00 7.294945762940000122e+01 2.536289977019000048e+02 0.000000000000000000e+00 0.000000000000000000e+00 0.000000000000000000e+00
1.329795867000000076e+00 7.580785832840000182e+01 2.535869323107000071e+02 0.000000000000000000e+00 0.000000000000000000e+00 0.000000000000000000e+00
8.983739249000000093e-01 7.579340616589999513e+01 2.536427654292000113e+02 0.000000000000000000e+00 0.000000000000000000e+00 0.000000000000000000e+00
-1.896146751999999991e-01 7.587274001670000700e+01 2.538075501298999939e+02 0.000000000000000000e+00 0.000000000000000000e+00 0.000000000000000000e+00
-4.608043725000000035e-01 7.580623199459999739e+01 2.536111710193000022e+02 0.000000000000000000e+00 0.000000000000000000e+00 0.000000000000000000e+00
-1.003876619099999923e+00 7.583655530810000300e+01 2.535785403026999916e+02 0.000000000000000000e+00 0.000000000000000000e+00 0.000000000000000000e+00
-2.259650329299999871e+00 7.406179738250000355e+01 2.536344167137000056e+02 0.000000000000000000e+00 0.000000000000000000e+00 0.000000000000000000e+00
-2.618784378099999977e+00 7.368540420749999953e+01 2.536390398203000132e+02 0.000000000000000000e+00 0.000000000000000000e+00 0.000000000000000000e+00
-4.119427011600000021e+00 7.328023509640000555e+01 2.536590975345000061e+02 0.000000000000000000e+00 0.000000000000000000e+00 0.000000000000000000e+00
1.866546194199999897e+00 7.591499487660000511e+01 2.530797138396000037e+02 0.000000000000000000e+00 0.000000000000000000e+00 0.000000000000000000e+00
1.442762402200000071e+00 7.584734204119999390e+01 2.530854078115000050e+02 0.000000000000000000e+00 0.000000000000000000e+00 0.000000000000000000e+00
8.659101497000000203e-01 7.584338546329999531e+01 2.530932142764000048e+02 0.000000000000000000e+00 0.000000000000000000e+00 0.000000000000000000e+00
4.062955851999999757e-01 7.583702603739999404e+01 2.530994321464999928e+02 0.000000000000000000e+00 0.000000000000000000e+00 0.000000000000000000e+00
-1.458278764199999911e+00 7.585626345970000273e+01 2.531246854825000128e+02 0.000000000000000000e+00 0.000000000000000000e+00 0.000000000000000000e+00
-2.205825027499999980e+00 7.455911690909999834e+01 2.531339830105999908e+02 0.000000000000000000e+00 0.000000000000000000e+00 0.000000000000000000e+00
-2.610806871499999904e+00 7.366670813839999710e+01 2.531388997042000142e+02 0.000000000000000000e+00 0.000000000000000000e+00 0.000000000000000000e+00
-4.855770830000000204e-02 7.581949213449999547e+01 2.528055663158999948e+02 0.000000000000000000e+00 0.000000000000000000e+00 0.000000000000000000e+00
-5.229134785000000285e-01 7.583632976190000363e+01 2.526119903347999980e+02 0.000000000000000000e+00 0.000000000000000000e+00 0.000000000000000000e+00
-1.496943680700000057e+00 7.585063295029999608e+01 2.525585156864999874e+02 0.000000000000000000e+00 0.000000000000000000e+00 0.000000000000000000e+00
-2.033786817999999830e+00 7.564680982640000195e+01 2.526323232283999971e+02 0.000000000000000000e+00 0.000000000000000000e+00 0.000000000000000000e+00
-2.184802545700000209e+00 7.511255012040000167e+01 2.526340289325999890e+02 0.000000000000000000e+00 0.000000000000000000e+00 0.000000000000000000e+00
-2.248573684300000153e+00 7.403275035650000291e+01 2.526342078103999995e+02 0.000000000000000000e+00 0.000000000000000000e+00 0.000000000000000000e+00
-3.031407415299999908e+00 7.358856046479999691e+01 2.526445236589999865e+02 0.000000000000000000e+00 0.000000000000000000e+00 0.000000000000000000e+00
-3.822063727300000213e+00 7.335691021530000455e+01 2.527550841716000036e+02 0.000000000000000000e+00 0.000000000000000000e+00 0.000000000000000000e+00
-4.129546034899999718e+00 7.328744614359999332e+01 2.526591985427999987e+02 0.000000000000000000e+00 0.000000000000000000e+00 0.000000000000000000e+00
8.192614904999999670e-01 7.585073897030000012e+01 2.524604914178000001e+02 0.000000000000000000e+00 0.000000000000000000e+00 0.000000000000000000e+00
-4.575465489199999958e+00 7.313755860199999859e+01 2.525451351817999921e+02 0.000000000000000000e+00 0.000000000000000000e+00 0.000000000000000000e+00
8.709692963999999815e-01 7.575091008299999373e+01 2.447927506473999983e+02 0.000000000000000000e+00 0.000000000000000000e+00 0.000000000000000000e+00
1.857688817899999956e+00 7.592004770510000355e+01 2.520797964008000065e+02 0.000000000000000000e+00 0.000000000000000000e+00 0.000000000000000000e+00
1.434117499499999893e+00 7.585223338299999796e+01 2.521054882049000128e+02 0.000000000000000000e+00 0.000000000000000000e+00 0.000000000000000000e+00
-1.019633386500000016e+00 7.588839461310000445e+01 2.521187272658999916e+02 0.000000000000000000e+00 0.000000000000000000e+00 0.000000000000000000e+00
-1.466000658300000037e+00 7.585937389149999888e+01 2.521247514412999919e+02 0.000000000000000000e+00 0.000000000000000000e+00 0.000000000000000000e+00
-1.786677207899999953e+00 7.581349025689999621e+01 2.521290634263000072e+02 0.000000000000000000e+00 0.000000000000000000e+00 0.000000000000000000e+00
-3.066382433699999854e+00 7.356387928819999900e+01 2.521249603960999934e+02 0.000000000000000000e+00 0.000000000000000000e+00 0.000000000000000000e+00
-3.940502872100000165e+00 7.335530896769999742e+01 2.521566621654000073e+02 0.000000000000000000e+00 0.000000000000000000e+00 0.000000000000000000e+00
-4.235820318500000070e+00 7.326604513840000266e+01 2.521606033632000106e+02 0.000000000000000000e+00 0.000000000000000000e+00 0.000000000000000000e+00
1.858685211400000092e+00 7.591329377920000354e+01 2.515797583588000066e+02 0.000000000000000000e+00 0.000000000000000000e+00 0.000000000000000000e+00
3.907385562999999840e-01 7.584849007370000606e+01 2.515995891931000017e+02 0.000000000000000000e+00 0.000000000000000000e+00 0.000000000000000000e+00
-1.005768194300000085e+00 7.585962685699999497e+01 2.516185010632999877e+02 0.000000000000000000e+00 0.000000000000000000e+00 0.000000000000000000e+00
-2.042139535600000055e+00 7.565099936750000609e+01 2.516323984107000058e+02 0.000000000000000000e+00 0.000000000000000000e+00 0.000000000000000000e+00
-2.166248085999999962e+00 7.447626679069999511e+01 2.516333339178999893e+02 0.000000000000000000e+00 0.000000000000000000e+00 0.000000000000000000e+00
-2.249861179099999831e+00 7.402485387309999965e+01 2.516341796888000033e+02 0.000000000000000000e+00 0.000000000000000000e+00 0.000000000000000000e+00
-3.544992895100000041e+00 7.346627854969999305e+01 2.516513581247000104e+02 0.000000000000000000e+00 0.000000000000000000e+00 0.000000000000000000e+00
-3.897199436799999805e+00 7.337576211990000274e+01 2.517060706757000048e+02 0.000000000000000000e+00 0.000000000000000000e+00 0.000000000000000000e+00
-4.147363229499999804e+00 7.326779237069999340e+01 2.516193851133999999e+02 0.000000000000000000e+00 0.000000000000000000e+00 0.000000000000000000e+00
-4.582939066599999833e+00 7.314064821099999847e+01 2.515851993876999870e+02 0.000000000000000000e+00 0.000000000000000000e+00 0.000000000000000000e+00
-1.764338917999999978e+00 7.576820833120000032e+01 2.514287039451999988e+02 0.000000000000000000e+00 0.000000000000000000e+00 0.000000000000000000e+00
9.470130399999999726e-01 7.588259826450000389e+01 2.510920601320000003e+02 0.000000000000000000e+00 0.000000000000000000e+00 0.000000000000000000e+00
-1.542788895499999979e+00 7.586154082070000015e+01 2.511057509569999979e+02 0.000000000000000000e+00 0.000000000000000000e+00 0.000000000000000000e+00
-1.784126711299999890e+00 7.580003825900000436e+01 2.512289838824000014e+02 0.000000000000000000e+00 0.000000000000000000e+00 0.000000000000000000e+00
-2.181056376699999966e+00 7.509099341149999418e+01 2.511339037383000061e+02 0.000000000000000000e+00 0.000000000000000000e+00 0.000000000000000000e+00
-2.186447360699999898e+00 7.450577093799999773e+01 2.511336057876000041e+02 0.000000000000000000e+00 0.000000000000000000e+00 0.000000000000000000e+00
-2.235751111399999935e+00 7.406137998079999818e+01 2.511006568713999911e+02 0.000000000000000000e+00 0.000000000000000000e+00 0.000000000000000000e+00
-2.315962040000000055e+00 7.393574065650000193e+01 2.512350018097000088e+02 0.000000000000000000e+00 0.000000000000000000e+00 0.000000000000000000e+00
-3.593330686699999887e+00 7.342482658170000320e+01 2.511319651265999937e+02 0.000000000000000000e+00 0.000000000000000000e+00 0.000000000000000000e+00
-3.968988889699999856e+00 7.339494914850000384e+01 2.512570364206000022e+02 0.000000000000000000e+00 0.000000000000000000e+00 0.000000000000000000e+00
-4.179321608599999571e+00 7.329105963669999824e+01 2.511264791524000088e+02 0.000000000000000000e+00 0.000000000000000000e+00 0.000000000000000000e+00
-4.576288634500000008e+00 7.315798856119999982e+01 2.510650992664999990e+02 0.000000000000000000e+00 0.000000000000000000e+00 0.000000000000000000e+00
1.479251875399999916e+00 7.587261351940000509e+01 2.505562559123000028e+02 0.000000000000000000e+00 0.000000000000000000e+00 0.000000000000000000e+00
3.543772769999999905e-01 7.590059206870000708e+01 2.506000739014999965e+02 0.000000000000000000e+00 0.000000000000000000e+00 0.000000000000000000e+00
-1.541712484600000099e+00 7.588853170849999685e+01 2.505971614439999939e+02 0.000000000000000000e+00 0.000000000000000000e+00 0.000000000000000000e+00
-2.183844923900000179e+00 7.509071414150000123e+01 2.506339210376000040e+02 0.000000000000000000e+00 0.000000000000000000e+00 0.000000000000000000e+00
-2.599130502600000003e+00 7.367102386599999875e+01 2.506386430100000098e+02 0.000000000000000000e+00 0.000000000000000000e+00 0.000000000000000000e+00
-3.548299024899999932e+00 7.346183521620000079e+01 2.506513595184999872e+02 0.000000000000000000e+00 0.000000000000000000e+00 0.000000000000000000e+00
-3.931321470899999948e+00 7.336368023049999465e+01 2.506164807403999930e+02 0.000000000000000000e+00 0.000000000000000000e+00 0.000000000000000000e+00
-4.185477508399999991e+00 7.326435756429999913e+01 2.507098620010000047e+02 0.000000000000000000e+00 0.000000000000000000e+00 0.000000000000000000e+00
-2.322389299900000204e+00 7.393966611589999616e+01 2.505350629229999981e+02 0.000000000000000000e+00 0.000000000000000000e+00 0.000000000000000000e+00
-4.579857250399999913e+00 7.312487347020000072e+01 2.505451055025999949e+02 0.000000000000000000e+00 0.000000000000000000e+00 0.000000000000000000e+00
1.505671728899999895e+00 7.590757848890000048e+01 2.500844727369999987e+02 0.000000000000000000e+00 0.000000000000000000e+00 0.000000000000000000e+00
3.479299538000000247e-01 7.590657163279999509e+01 2.501001446975000135e+02 0.000000000000000000e+00 0.000000000000000000e+00 0.000000000000000000e+00
-5.887099028000000178e-01 7.592363619830000232e+01 2.501128350081000065e+02 0.000000000000000000e+00 0.000000000000000000e+00 0.000000000000000000e+00
-1.054758866600000067e+00 7.592828368749999868e+01 2.501191469585999982e+02 0.000000000000000000e+00 0.000000000000000000e+00 0.000000000000000000e+00
-1.837699439299999904e+00 7.588057288609999773e+01 2.501297155526000040e+02 0.000000000000000000e+00 0.000000000000000000e+00 0.000000000000000000e+00
-2.056939576400000025e+00 7.566116847259999645e+01 2.501325443890000031e+02 0.000000000000000000e+00 0.000000000000000000e+00 0.000000000000000000e+00
-2.171081116099999875e+00 7.446938596859999393e+01 2.501333341639999901e+02 0.000000000000000000e+00 0.000000000000000000e+00 0.000000000000000000e+00
-2.322548451799999913e+00 7.393690869159999579e+01 2.502350511660999928e+02 0.000000000000000000e+00 0.000000000000000000e+00 0.000000000000000000e+00
-3.837068831299999871e+00 7.335632129900000109e+01 2.501551815068999929e+02 0.000000000000000000e+00 0.000000000000000000e+00 0.000000000000000000e+00
-4.579674845399999583e+00 7.310717734460000372e+01 2.501317417248999959e+02 0.000000000000000000e+00 0.000000000000000000e+00 0.000000000000000000e+00
1.834914553599999998e+00 7.593375888570000143e+01 2.495800120273000005e+02 0.000000000000000000e+00 0.000000000000000000e+00 0.000000000000000000e+00
1.499224405699999929e+00 7.591355805300000270e+01 2.495845435329999873e+02 0.000000000000000000e+00 0.000000000000000000e+00 0.000000000000000000e+00
3.788917361999999955e-01 7.593376701520000438e+01 2.496282951126000000e+02 0.000000000000000000e+00 0.000000000000000000e+00 0.000000000000000000e+00
-1.357949908999999955e-01 7.593640683200000296e+01 2.496066916233000086e+02 0.000000000000000000e+00 0.000000000000000000e+00 0.000000000000000000e+00
-6.034840956999999451e-01 7.594386000539999770e+01 2.496130275550999897e+02 0.000000000000000000e+00 0.000000000000000000e+00 0.000000000000000000e+00
-1.073191835600000088e+00 7.595476632860000166e+01 2.496193930022000131e+02 0.000000000000000000e+00 0.000000000000000000e+00 0.000000000000000000e+00
-1.832918104900000067e+00 7.586734430430000486e+01 2.496296221691999904e+02 0.000000000000000000e+00 0.000000000000000000e+00 0.000000000000000000e+00
-2.075751039400000053e+00 7.568829857939999783e+01 2.496327959667999892e+02 0.000000000000000000e+00 0.000000000000000000e+00 0.000000000000000000e+00
-2.179328842799999943e+00 7.507288985249999769e+01 2.496338080593000086e+02 0.000000000000000000e+00 0.000000000000000000e+00 0.000000000000000000e+00
-2.184972156200000182e+00 7.448809902269999839e+01 2.496335137979999956e+02 0.000000000000000000e+00 0.000000000000000000e+00 0.000000000000000000e+00
-2.248651227899999938e+00 7.400258625060000384e+01 2.496340681044000007e+02 0.000000000000000000e+00 0.000000000000000000e+00 0.000000000000000000e+00
-2.530121247199999868e+00 7.369148635220000187e+01 2.496376812409000081e+02 0.000000000000000000e+00 0.000000000000000000e+00 0.000000000000000000e+00
-3.032830715599999838e+00 7.356069845880000457e+01 2.496444036299999993e+02 0.000000000000000000e+00 0.000000000000000000e+00 0.000000000000000000e+00
-3.839857378500000085e+00 7.335604202899999393e+01 2.496551988063000067e+02 0.000000000000000000e+00 0.000000000000000000e+00 0.000000000000000000e+00
-4.146277317900000092e+00 7.328577052369999478e+01 2.496593023387999892e+02 0.000000000000000000e+00 0.000000000000000000e+00 0.000000000000000000e+00
-4.565799423499999676e+00 7.314444147650000616e+01 2.496315572364999866e+02 0.000000000000000000e+00 0.000000000000000000e+00 0.000000000000000000e+00
-5.251093171999999809e-01 7.330402192949999574e+01 2.434767113659000017e+02 0.000000000000000000e+00 0.000000000000000000e+00 0.000000000000000000e+00
1.828845724400000039e+00 7.593909098420000703e+01 2.490800772890999895e+02 0.000000000000000000e+00 0.000000000000000000e+00 0.000000000000000000e+00
1.490758447399999964e+00 7.592299076689999993e+01 2.490846438444000057e+02 0.000000000000000000e+00 0.000000000000000000e+00 0.000000000000000000e+00
4.230027867000000219e-01 7.596619858549999549e+01 2.490991256679999992e+02 0.000000000000000000e+00 0.000000000000000000e+00 0.000000000000000000e+00
-1.440086197999999873e-01 7.594540790220000304e+01 2.491067882453000095e+02 0.000000000000000000e+00 0.000000000000000000e+00 0.000000000000000000e+00
-6.111930658999999988e-01 7.595199778810000169e+01 2.491131167981999965e+02 0.000000000000000000e+00 0.000000000000000000e+00 0.000000000000000000e+00
-1.071564618600000074e+00 7.594693329339999366e+01 2.491193457365999961e+02 0.000000000000000000e+00 0.000000000000000000e+00 0.000000000000000000e+00
-1.527394242299999982e+00 7.593409921159999953e+01 2.491255082653999864e+02 0.000000000000000000e+00 0.000000000000000000e+00 0.000000000000000000e+00
-1.841257898500000101e+00 7.587656119630000262e+01 2.491297206358999858e+02 0.000000000000000000e+00 0.000000000000000000e+00 0.000000000000000000e+00
-2.157515275100000185e+00 7.503052531890000409e+01 2.491334656397000060e+02 0.000000000000000000e+00 0.000000000000000000e+00 0.000000000000000000e+00
-2.239454129299999874e+00 7.398180390349999414e+01 2.491339101560000131e+02 0.000000000000000000e+00 0.000000000000000000e+00 0.000000000000000000e+00
-2.585776590900000116e+00 7.366255205240000237e+01 2.491183952362000014e+02 0.000000000000000000e+00 0.000000000000000000e+00 0.000000000000000000e+00
-4.600731776399999973e+00 7.311616603539999915e+01 2.490903235726999867e+02 0.000000000000000000e+00 0.000000000000000000e+00 0.000000000000000000e+00
1.813188378700000047e+00 7.596082554439999512e+01 2.485802827491000073e+02 0.000000000000000000e+00 0.000000000000000000e+00 0.000000000000000000e+00
1.007790490899999947e+00 7.595153103490000035e+01 2.485911797018999891e+02 0.000000000000000000e+00 0.000000000000000000e+00 0.000000000000000000e+00
4.824281031000000053e-01 7.597301010220000705e+01 2.486268778463000046e+02 0.000000000000000000e+00 0.000000000000000000e+00 0.000000000000000000e+00
-7.216099750000000423e-02 7.596581196210000542e+01 2.485808072748000086e+02 0.000000000000000000e+00 0.000000000000000000e+00 0.000000000000000000e+00
-6.257149293999999529e-01 7.597178995160000170e+01 2.486133056557000032e+02 0.000000000000000000e+00 0.000000000000000000e+00 0.000000000000000000e+00
-1.086338811499999890e+00 7.596715710060000504e+01 2.486195382836000078e+02 0.000000000000000000e+00 0.000000000000000000e+00 0.000000000000000000e+00
-1.539140482699999923e+00 7.594914329399999531e+01 2.486256565392999960e+02 0.000000000000000000e+00 0.000000000000000000e+00 0.000000000000000000e+00
-2.075019899199999962e+00 7.567694894630000135e+01 2.486327383299000076e+02 0.000000000000000000e+00 0.000000000000000000e+00 0.000000000000000000e+00
-2.169009185999999811e+00 7.504513775760000271e+01 2.486336102241999981e+02 0.000000000000000000e+00 0.000000000000000000e+00 0.000000000000000000e+00
-2.168344264699999968e+00 7.444955583470000704e+01 2.486332237272999919e+02 0.000000000000000000e+00 0.000000000000000000e+00 0.000000000000000000e+00
-2.240854864900000187e+00 7.397915059299999996e+01 2.486339071634999982e+02 0.000000000000000000e+00 0.000000000000000000e+00 0.000000000000000000e+00
-2.610502637999999820e+00 7.362074257330000648e+01 2.486386839961000135e+02 0.000000000000000000e+00 0.000000000000000000e+00 0.000000000000000000e+00
-5.500679467000000322e-01 7.353825330370000302e+01 2.441305575215000090e+02 0.000000000000000000e+00 0.000000000000000000e+00 0.000000000000000000e+00
-3.522865452900000083e+00 7.339812979570000095e+01 2.486508937492999962e+02 0.000000000000000000e+00 0.000000000000000000e+00 0.000000000000000000e+00
-4.523585236999999815e+00 7.312750557699999376e+01 2.485642651242000056e+02 0.000000000000000000e+00 0.000000000000000000e+00 0.000000000000000000e+00
1.009417707899999961e+00 7.594369799970000656e+01 2.480911324363000006e+02 0.000000000000000000e+00 0.000000000000000000e+00 0.000000000000000000e+00
-6.344332171000000020e-01 7.598165430919999608e+01 2.481134096565000107e+02 0.000000000000000000e+00 0.000000000000000000e+00 0.000000000000000000e+00
-1.112215497300000022e+00 7.600637323169999604e+01 2.481198931652000113e+02 0.000000000000000000e+00 0.000000000000000000e+00 0.000000000000000000e+00
-2.075411317199999939e+00 7.567256906090000257e+01 2.481327205796000044e+02 0.000000000000000000e+00 0.000000000000000000e+00 0.000000000000000000e+00
-2.163723192900000036e+00 7.503104588829999955e+01 2.481335094618999904e+02 0.000000000000000000e+00 0.000000000000000000e+00 0.000000000000000000e+00
-2.230143790000000070e+00 7.395577838350000377e+01 2.481337270786999909e+02 0.000000000000000000e+00 0.000000000000000000e+00 0.000000000000000000e+00
-3.110449407099999952e+00 7.348017924779999532e+01 2.481453425171999925e+02 0.000000000000000000e+00 0.000000000000000000e+00 0.000000000000000000e+00
-3.528808117400000111e+00 7.340324607230000709e+01 2.481509571663999907e+02 0.000000000000000000e+00 0.000000000000000000e+00 0.000000000000000000e+00
-4.062564176499999569e+00 7.324651030830000309e+01 2.481780842043000064e+02 0.000000000000000000e+00 0.000000000000000000e+00 0.000000000000000000e+00
-4.604163978399999912e+00 7.306214885219999644e+01 2.480652942382999981e+02 0.000000000000000000e+00 0.000000000000000000e+00 0.000000000000000000e+00
1.445931209799999895e+00 7.598452547579999816e+01 2.475852288641999905e+02 0.000000000000000000e+00 0.000000000000000000e+00 0.000000000000000000e+00
9.936341974000000299e-01 7.596564838179999413e+01 2.475913397410000130e+02 0.000000000000000000e+00 0.000000000000000000e+00 0.000000000000000000e+00
5.075250475999999455e-01 7.600461154740000325e+01 2.475979450007000082e+02 0.000000000000000000e+00 0.000000000000000000e+00 0.000000000000000000e+00
7.629400999999999631e-04 7.599427230550000445e+01 2.476333711817999870e+02 0.000000000000000000e+00 0.000000000000000000e+00 0.000000000000000000e+00
-1.114373220999999914e+00 7.600501485239999511e+01 2.476199012410000080e+02 0.000000000000000000e+00 0.000000000000000000e+00 0.000000000000000000e+00
-1.568688868500000000e+00 7.598959090830000207e+01 2.476260416332000034e+02 0.000000000000000000e+00 0.000000000000000000e+00 0.000000000000000000e+00
-2.102534567499999785e+00 7.567469193450000375e+01 2.476730704473999936e+02 0.000000000000000000e+00 0.000000000000000000e+00 0.000000000000000000e+00
-2.164470188000000128e+00 7.453139891610000234e+01 2.475831805845000133e+02 0.000000000000000000e+00 0.000000000000000000e+00 0.000000000000000000e+00
-3.483744862800000064e+00 7.336033546320000198e+01 2.476102980430000002e+02 0.000000000000000000e+00 0.000000000000000000e+00 0.000000000000000000e+00
-4.095358477999999636e+00 7.317846908660000338e+01 2.476584639376999917e+02 0.000000000000000000e+00 0.000000000000000000e+00 0.000000000000000000e+00
1.910327108699999998e+00 7.597765631990000657e+01 2.470789176106000014e+02 0.000000000000000000e+00 0.000000000000000000e+00 0.000000000000000000e+00
9.793646633000000490e-01 7.598500890149999520e+01 2.470915249091999897e+02 0.000000000000000000e+00 0.000000000000000000e+00 0.000000000000000000e+00
-1.100634193499999913e+00 7.597646291830000109e+01 2.471196768830999986e+02 0.000000000000000000e+00 0.000000000000000000e+00 0.000000000000000000e+00
-2.092749641100000169e+00 7.562574368580000339e+01 2.470995503826000004e+02 0.000000000000000000e+00 0.000000000000000000e+00 0.000000000000000000e+00
-2.155898916599999993e+00 7.507394849930000191e+01 2.471667248750999875e+02 0.000000000000000000e+00 0.000000000000000000e+00 0.000000000000000000e+00
-2.156080274599999846e+00 7.401713191109999457e+01 2.471327228067999897e+02 0.000000000000000000e+00 0.000000000000000000e+00 0.000000000000000000e+00
-2.594055890099999928e+00 7.357745979669999770e+01 2.471383731006999938e+02 0.000000000000000000e+00 0.000000000000000000e+00 0.000000000000000000e+00
-3.389643620899999821e+00 7.335323551790000352e+01 2.471490010231999861e+02 0.000000000000000000e+00 0.000000000000000000e+00 0.000000000000000000e+00
-3.686853537699999794e+00 7.326720901660000607e+01 2.471529698916000086e+02 0.000000000000000000e+00 0.000000000000000000e+00 0.000000000000000000e+00
-4.589317829599999676e+00 7.297736900990000208e+01 2.470899999950999870e+02 0.000000000000000000e+00 0.000000000000000000e+00 0.000000000000000000e+00
1.443886726899999973e+00 7.597792392370000414e+01 2.465852118109000060e+02 0.000000000000000000e+00 0.000000000000000000e+00 0.000000000000000000e+00
9.809918802999999521e-01 7.597717586619999963e+01 2.465914776435000135e+02 0.000000000000000000e+00 0.000000000000000000e+00 0.000000000000000000e+00
-1.557133389999999958e-02 7.601182684389999622e+01 2.466049902961999862e+02 0.000000000000000000e+00 0.000000000000000000e+00 0.000000000000000000e+00
-5.464684625000000295e-01 7.601417841740000370e+01 2.466121786550000081e+02 0.000000000000000000e+00 0.000000000000000000e+00 0.000000000000000000e+00
-1.870340397399999910e+00 7.590106347020000044e+01 2.466300284980000015e+02 0.000000000000000000e+00 0.000000000000000000e+00 0.000000000000000000e+00
-2.088697381699999855e+00 7.568014830369999402e+01 2.466328444213999944e+02 0.000000000000000000e+00 0.000000000000000000e+00 0.000000000000000000e+00
-3.056489690799999881e+00 7.337272543689999793e+01 2.466444831274000080e+02 0.000000000000000000e+00 0.000000000000000000e+00 0.000000000000000000e+00
-4.072674681299999655e+00 7.312956644909999682e+01 2.466580853208999997e+02 0.000000000000000000e+00 0.000000000000000000e+00 0.000000000000000000e+00
-4.548598702999999688e+00 7.300899508550000405e+01 2.466073064109999962e+02 0.000000000000000000e+00 0.000000000000000000e+00 0.000000000000000000e+00
-2.229130819199999891e+00 7.373973912840000366e+01 2.465335115613999903e+02 0.000000000000000000e+00 0.000000000000000000e+00 0.000000000000000000e+00
1.916987989499999934e+00 7.595616305910000676e+01 2.460787732722000101e+02 0.000000000000000000e+00 0.000000000000000000e+00 0.000000000000000000e+00
9.886750025999999636e-01 7.595898338150000484e+01 2.460913418318000083e+02 0.000000000000000000e+00 0.000000000000000000e+00 0.000000000000000000e+00
5.195980862000000311e-01 7.596881059540000081e+01 2.460976980552999862e+02 0.000000000000000000e+00 0.000000000000000000e+00 0.000000000000000000e+00
-6.848282390000000330e-02 7.598406216349999909e+01 2.461056686995999883e+02 0.000000000000000000e+00 0.000000000000000000e+00 0.000000000000000000e+00
-6.540404400999999535e-01 7.599499729420000449e+01 2.461136024495000072e+02 0.000000000000000000e+00 0.000000000000000000e+00 0.000000000000000000e+00
-1.569484628499999923e+00 7.597580378649999489e+01 2.461259828485000014e+02 0.000000000000000000e+00 0.000000000000000000e+00 0.000000000000000000e+00
-1.882969790600000026e+00 7.591761830560000135e+01 2.461301896848999888e+02 0.000000000000000000e+00 0.000000000000000000e+00 0.000000000000000000e+00
-2.091233599500000206e+00 7.567943739000000392e+01 2.461328580313000032e+02 0.000000000000000000e+00 0.000000000000000000e+00 0.000000000000000000e+00
-2.157940623800000068e+00 7.519910434249999298e+01 2.461334566106999944e+02 0.000000000000000000e+00 0.000000000000000000e+00 0.000000000000000000e+00
-2.162953113699999985e+00 7.461323440350000169e+01 2.461331531259000087e+02 0.000000000000000000e+00 0.000000000000000000e+00 0.000000000000000000e+00
-3.004277886000000120e+00 7.334407334159999436e+01 2.461104032067999867e+02 0.000000000000000000e+00 0.000000000000000000e+00 0.000000000000000000e+00
-3.142524573000000210e+00 7.331771207490000108e+01 2.462455967127999941e+02 0.000000000000000000e+00 0.000000000000000000e+00 0.000000000000000000e+00
-3.552483299499999969e+00 7.322539969299999996e+01 2.461510838474000025e+02 0.000000000000000000e+00 0.000000000000000000e+00 0.000000000000000000e+00
-4.070164311400000123e+00 7.312022266079999611e+01 2.461580251421999890e+02 0.000000000000000000e+00 0.000000000000000000e+00 0.000000000000000000e+00
-4.579061255100000061e+00 7.294972482599999353e+01 2.460898030822999942e+02 0.000000000000000000e+00 0.000000000000000000e+00 0.000000000000000000e+00
1.957726261199999929e+00 7.588142524590000448e+01 2.455781541457999992e+02 0.000000000000000000e+00 0.000000000000000000e+00 0.000000000000000000e+00
9.988814188000000316e-01 7.593647445950000474e+01 2.455911691258000076e+02 0.000000000000000000e+00 0.000000000000000000e+00 0.000000000000000000e+00
4.790760098999999883e-01 7.594787047769999333e+01 2.455696404791000020e+02 0.000000000000000000e+00 0.000000000000000000e+00 0.000000000000000000e+00
-5.993719867000000256e-01 7.598106211079999639e+01 2.455842606987000067e+02 0.000000000000000000e+00 0.000000000000000000e+00 0.000000000000000000e+00
-1.109630658499999978e+00 7.597670421770000360e+01 2.456197380046000092e+02 0.000000000000000000e+00 0.000000000000000000e+00 0.000000000000000000e+00
-1.580095386500000032e+00 7.598890547210000079e+01 2.456261145199999874e+02 0.000000000000000000e+00 0.000000000000000000e+00 0.000000000000000000e+00
-2.096040781700000188e+00 7.568261126980000597e+01 2.456329048460000024e+02 0.000000000000000000e+00 0.000000000000000000e+00 0.000000000000000000e+00
-2.155682583299999955e+00 7.519019219800000542e+01 2.456334001214999887e+02 0.000000000000000000e+00 0.000000000000000000e+00 0.000000000000000000e+00
-2.151737380000000144e+00 7.458899890659999699e+01 2.456329656622000073e+02 0.000000000000000000e+00 0.000000000000000000e+00 0.000000000000000000e+00
-2.147287518000000173e+00 7.398694232770000667e+01 2.456325238238999873e+02 0.000000000000000000e+00 0.000000000000000000e+00 0.000000000000000000e+00
-2.209926583300000136e+00 7.369779864459999885e+01 2.456331885154000076e+02 0.000000000000000000e+00 0.000000000000000000e+00 0.000000000000000000e+00
-2.527479704500000146e+00 7.344842379940000399e+01 2.456373292396999943e+02 0.000000000000000000e+00 0.000000000000000000e+00 0.000000000000000000e+00
-2.926229836700000142e+00 7.333895737640000334e+01 2.457426618775999998e+02 0.000000000000000000e+00 0.000000000000000000e+00 0.000000000000000000e+00
-3.120478468199999966e+00 7.327313195000000690e+01 2.455652424429000007e+02 0.000000000000000000e+00 0.000000000000000000e+00 0.000000000000000000e+00
-3.559114279400000136e+00 7.318240885929999706e+01 2.456761271045000115e+02 0.000000000000000000e+00 0.000000000000000000e+00 0.000000000000000000e+00
-4.032580157099999951e+00 7.305088039419999291e+01 2.456574521336999908e+02 0.000000000000000000e+00 0.000000000000000000e+00 0.000000000000000000e+00
1.507992669300000088e+00 7.585412350510000579e+01 2.451842087631000027e+02 0.000000000000000000e+00 0.000000000000000000e+00 0.000000000000000000e+00
4.045786163999999796e-01 7.587826267500000199e+01 2.451191579720999982e+02 0.000000000000000000e+00 0.000000000000000000e+00 0.000000000000000000e+00
-1.021048055300000090e+00 7.588650818639999329e+01 2.451517960863000098e+02 0.000000000000000000e+00 0.000000000000000000e+00 0.000000000000000000e+00
-1.460223939700000084e+00 7.584518561849999685e+01 2.451577151131000107e+02 0.000000000000000000e+00 0.000000000000000000e+00 0.000000000000000000e+00
-2.152507292100000136e+00 7.458526648679999482e+01 2.451329534461000037e+02 0.000000000000000000e+00 0.000000000000000000e+00 0.000000000000000000e+00
-2.471604017000000209e+00 7.342725262080000448e+01 2.451565399577999926e+02 0.000000000000000000e+00 0.000000000000000000e+00 0.000000000000000000e+00
-3.085829360099999974e+00 7.320961839260000659e+01 2.451447161046999952e+02 0.000000000000000000e+00 0.000000000000000000e+00 0.000000000000000000e+00
-4.081473073299999754e+00 7.301037804249999397e+01 2.451380672523999920e+02 0.000000000000000000e+00 0.000000000000000000e+00 0.000000000000000000e+00
-4.532584510699999569e+00 7.291092052070000307e+01 2.452141138439999963e+02 0.000000000000000000e+00 0.000000000000000000e+00 0.000000000000000000e+00
1.436698992600000002e+00 7.577591308969999773e+01 2.449851161999000055e+02 0.000000000000000000e+00 0.000000000000000000e+00 0.000000000000000000e+00
1.891634838000000096e+00 7.559010815599999944e+01 2.447788317586000062e+02 0.000000000000000000e+00 0.000000000000000000e+00 0.000000000000000000e+00
1.371461221299999922e+00 7.568734322480000287e+01 2.447859350905999918e+02 0.000000000000000000e+00 0.000000000000000000e+00 0.000000000000000000e+00
4.870842362000000203e-01 7.581315320240000233e+01 2.447979868330999977e+02 0.000000000000000000e+00 0.000000000000000000e+00 0.000000000000000000e+00
-1.776741178000000032e-01 7.615772012790000645e+01 2.448072042052000086e+02 0.000000000000000000e+00 0.000000000000000000e+00 0.000000000000000000e+00
-9.098964841000000137e-01 7.602324893710000708e+01 2.448170312249999938e+02 0.000000000000000000e+00 0.000000000000000000e+00 0.000000000000000000e+00
-1.404363192599999977e+00 7.587836068190000560e+01 2.448236330928999962e+02 0.000000000000000000e+00 0.000000000000000000e+00 0.000000000000000000e+00
-1.561939484400000078e+00 7.535532371290000242e+01 2.448254347220999989e+02 0.000000000000000000e+00 0.000000000000000000e+00 0.000000000000000000e+00
-2.110177094600000025e+00 7.346727514650000046e+01 2.446066505139999947e+02 0.000000000000000000e+00 0.000000000000000000e+00 0.000000000000000000e+00
-2.476933574099999813e+00 7.335387863459999380e+01 2.448365526240999941e+02 0.000000000000000000e+00 0.000000000000000000e+00 0.000000000000000000e+00
-2.579745316099999908e+00 7.328955056729999740e+01 2.445978939050000065e+02 0.000000000000000000e+00 0.000000000000000000e+00 0.000000000000000000e+00
-3.069356764300000151e+00 7.317639031800000282e+01 2.446444517779999899e+02 0.000000000000000000e+00 0.000000000000000000e+00 0.000000000000000000e+00
-1.544145743400000104e+00 7.393481829249999748e+01 2.445242813266000041e+02 0.000000000000000000e+00 0.000000000000000000e+00 0.000000000000000000e+00
3.089598090800000030e+00 7.333662157610000065e+01 2.441611620259000119e+02 0.000000000000000000e+00 0.000000000000000000e+00 0.000000000000000000e+00
9.917876505999999592e-01 7.355568299830000001e+01 2.440896953280999924e+02 0.000000000000000000e+00 0.000000000000000000e+00 0.000000000000000000e+00
4.778680120000000087e-01 7.352312891180000065e+01 2.440766309239000122e+02 0.000000000000000000e+00 0.000000000000000000e+00 0.000000000000000000e+00
-2.625912140000000172e-02 7.351385700229999998e+01 2.441034503351999945e+02 0.000000000000000000e+00 0.000000000000000000e+00 0.000000000000000000e+00
-1.998712609800000095e+00 7.332234993219999808e+01 2.442300345332999996e+02 0.000000000000000000e+00 0.000000000000000000e+00 0.000000000000000000e+00
-2.525025871400000010e+00 7.323092964529999449e+01 2.441370973495999976e+02 0.000000000000000000e+00 0.000000000000000000e+00 0.000000000000000000e+00
-3.046239494699999995e+00 7.313179562519999877e+01 2.441440902964000088e+02 0.000000000000000000e+00 0.000000000000000000e+00 0.000000000000000000e+00
-4.554925609399999686e+00 7.273937609079999334e+01 2.440642609234000133e+02 0.000000000000000000e+00 0.000000000000000000e+00 0.000000000000000000e+00
4.308488427000000343e+00 7.283470939539999733e+01 2.439443354116000080e+02 0.000000000000000000e+00 0.000000000000000000e+00 0.000000000000000000e+00
4.054079029699999559e+00 7.287361494600000356e+01 2.439478040655999962e+02 0.000000000000000000e+00 0.000000000000000000e+00 0.000000000000000000e+00
3.332749628699999800e+00 7.292248071480000249e+01 2.440464868717999991e+02 0.000000000000000000e+00 0.000000000000000000e+00 0.000000000000000000e+00
-1.297663548000000056e+00 7.330997935480000649e+01 2.440205283319000102e+02 0.000000000000000000e+00 0.000000000000000000e+00 0.000000000000000000e+00
3.359229802799999831e+00 7.306847856500000660e+01 2.436573217346000035e+02 0.000000000000000000e+00 0.000000000000000000e+00 0.000000000000000000e+00
2.835349087400000023e+00 7.302840419679999684e+01 2.435947191582999949e+02 0.000000000000000000e+00 0.000000000000000000e+00 0.000000000000000000e+00
2.393634641799999851e+00 7.311697568530000524e+01 2.435568448900999954e+02 0.000000000000000000e+00 0.000000000000000000e+00 0.000000000000000000e+00
1.933122837199999999e+00 7.315286312230000476e+01 2.435690887058999863e+02 0.000000000000000000e+00 0.000000000000000000e+00 0.000000000000000000e+00
1.812713233300000004e+00 7.333622754499999985e+01 2.436784269675000019e+02 0.000000000000000000e+00 0.000000000000000000e+00 0.000000000000000000e+00
1.389311726000000080e+00 7.338701163499999325e+01 2.437041916436999998e+02 0.000000000000000000e+00 0.000000000000000000e+00 0.000000000000000000e+00
8.636561862999999617e-01 7.337352351170000020e+01 2.435912941409000041e+02 0.000000000000000000e+00 0.000000000000000000e+00 0.000000000000000000e+00
-8.516859479999999705e-02 7.341244193949999897e+01 2.437041673075000006e+02 0.000000000000000000e+00 0.000000000000000000e+00 0.000000000000000000e+00
-1.095844763999999971e+00 7.335901741680000043e+01 2.438178192402000093e+02 0.000000000000000000e+00 0.000000000000000000e+00 0.000000000000000000e+00
-1.650751654700000071e+00 7.327546694039999409e+01 2.435852684463000060e+02 0.000000000000000000e+00 0.000000000000000000e+00 0.000000000000000000e+00
-2.067947524700000095e+00 7.323657815750000566e+01 2.436308930893999900e+02 0.000000000000000000e+00 0.000000000000000000e+00 0.000000000000000000e+00
-1.012329826700000046e+00 7.329218136929999616e+01 2.434966333435000081e+02 0.000000000000000000e+00 0.000000000000000000e+00 0.000000000000000000e+00
-4.166256438899999637e+00 7.279566178499999296e+01 2.435256801431000042e+02 0.000000000000000000e+00 0.000000000000000000e+00 0.000000000000000000e+00
3.410313579199999889e+00 7.297604335900000194e+01 2.431565513417999966e+02 0.000000000000000000e+00 0.000000000000000000e+00 0.000000000000000000e+00
2.869486858700000198e+00 7.299621568359999912e+01 2.430833283464000090e+02 0.000000000000000000e+00 0.000000000000000000e+00 0.000000000000000000e+00
-1.379236640000000048e-02 7.328731351810000660e+01 2.434031095988000004e+02 0.000000000000000000e+00 0.000000000000000000e+00 0.000000000000000000e+00
1.944111677500000024e+00 7.305611103139999329e+01 2.430880419300999904e+02 0.000000000000000000e+00 0.000000000000000000e+00 0.000000000000000000e+00
-9.031095399999999537e-03 7.327613904099999331e+01 2.431030258979999985e+02 0.000000000000000000e+00 0.000000000000000000e+00 0.000000000000000000e+00
-1.593079956299999989e+00 7.321179578679999622e+01 2.431244287247000102e+02 0.000000000000000000e+00 0.000000000000000000e+00 0.000000000000000000e+00
-2.023550477000000125e+00 7.315558151019999400e+01 2.431302204664000044e+02 0.000000000000000000e+00 0.000000000000000000e+00 0.000000000000000000e+00
-2.560913180800000077e+00 7.308407268880000629e+01 2.431374495363000108e+02 0.000000000000000000e+00 0.000000000000000000e+00 0.000000000000000000e+00
-3.096509579000000123e+00 7.300954236130000652e+01 2.431446527802999924e+02 0.000000000000000000e+00 0.000000000000000000e+00 0.000000000000000000e+00
-4.622159254299999631e+00 7.259685673699999597e+01 2.430900412151000012e+02 0.000000000000000000e+00 0.000000000000000000e+00 0.000000000000000000e+00
3.940264576600000179e+00 7.262635922239999786e+01 2.430607349159000137e+02 0.000000000000000000e+00 0.000000000000000000e+00 0.000000000000000000e+00
3.997206831499999780e+00 7.257471137870000177e+01 2.426361624536999955e+02 0.000000000000000000e+00 0.000000000000000000e+00 0.000000000000000000e+00
3.497200614600000090e+00 7.264856245030000537e+01 2.425796534366999992e+02 0.000000000000000000e+00 0.000000000000000000e+00 0.000000000000000000e+00
3.361318065699999913e+00 7.285665922750000334e+01 2.426571186630000057e+02 0.000000000000000000e+00 0.000000000000000000e+00 0.000000000000000000e+00
2.911038177500000046e+00 7.290710232850000239e+01 2.426161776309999993e+02 0.000000000000000000e+00 0.000000000000000000e+00 0.000000000000000000e+00
5.001532692000000280e-01 7.319265312320000305e+01 2.425960597716999985e+02 0.000000000000000000e+00 0.000000000000000000e+00 0.000000000000000000e+00
-4.680354159999999819e-02 7.318684089410000126e+01 2.425784593456999971e+02 0.000000000000000000e+00 0.000000000000000000e+00 0.000000000000000000e+00
-6.080675897999999746e-01 7.319214318650000450e+01 2.426396342589000028e+02 0.000000000000000000e+00 0.000000000000000000e+00 0.000000000000000000e+00
-1.554360319800000001e+00 7.314051112350000494e+01 2.426238391137000008e+02 0.000000000000000000e+00 0.000000000000000000e+00 0.000000000000000000e+00
-3.421225141799999925e+00 7.286694941419999338e+01 2.426989398997999956e+02 0.000000000000000000e+00 0.000000000000000000e+00 0.000000000000000000e+00
-3.687285685600000029e+00 7.278617321980000554e+01 2.426124867711999968e+02 0.000000000000000000e+00 0.000000000000000000e+00 0.000000000000000000e+00
-4.068549851200000234e+00 7.268581836990000511e+01 2.426575860401999876e+02 0.000000000000000000e+00 0.000000000000000000e+00 0.000000000000000000e+00
-4.532830674200000409e+00 7.254532973140000252e+01 2.426066368898000007e+02 0.000000000000000000e+00 0.000000000000000000e+00 0.000000000000000000e+00
4.340599210199999725e+00 7.249392149999999901e+01 2.421464722809000136e+02 0.000000000000000000e+00 0.000000000000000000e+00 0.000000000000000000e+00
3.463415640300000042e+00 7.261117611829999419e+01 2.421111448117999885e+02 0.000000000000000000e+00 0.000000000000000000e+00 0.000000000000000000e+00
2.988626615599999869e+00 7.267823883990000411e+01 2.420731000821999999e+02 0.000000000000000000e+00 0.000000000000000000e+00 0.000000000000000000e+00
2.521285077599999980e+00 7.290055341629999930e+01 2.420684938635999970e+02 0.000000000000000000e+00 0.000000000000000000e+00 0.000000000000000000e+00
1.944274641200000042e+00 7.292563965749999966e+01 2.421409464689000117e+02 0.000000000000000000e+00 0.000000000000000000e+00 0.000000000000000000e+00
-8.991039950000000169e-02 7.312718972410000617e+01 2.421239866358000086e+02 0.000000000000000000e+00 0.000000000000000000e+00 0.000000000000000000e+00
-1.065109976500000055e+00 7.309112506030000134e+01 2.421171644519000097e+02 0.000000000000000000e+00 0.000000000000000000e+00 0.000000000000000000e+00
-1.502393390499999981e+00 7.304656516439999336e+01 2.421230558080000037e+02 0.000000000000000000e+00 0.000000000000000000e+00 0.000000000000000000e+00
-2.585571832599999897e+00 7.291800758649999636e+01 2.421376375437000092e+02 0.000000000000000000e+00 0.000000000000000000e+00 0.000000000000000000e+00
-4.050773553600000021e+00 7.265036013610000509e+01 2.421573026515000038e+02 0.000000000000000000e+00 0.000000000000000000e+00 0.000000000000000000e+00
3.423473305199999928e+00 7.255995401570000070e+01 2.416013750063000032e+02 0.000000000000000000e+00 0.000000000000000000e+00 0.000000000000000000e+00
2.912540751699999930e+00 7.265363734739999302e+01 2.415593580071999895e+02 0.000000000000000000e+00 0.000000000000000000e+00 0.000000000000000000e+00
1.385630327199999901e+00 7.294890333319999343e+01 2.416006119500000011e+02 0.000000000000000000e+00 0.000000000000000000e+00 0.000000000000000000e+00
8.987696942999999772e-01 7.298270515049999574e+01 2.416387764995999987e+02 0.000000000000000000e+00 0.000000000000000000e+00 0.000000000000000000e+00
-1.046379171000000052e-01 7.302824281149999308e+01 2.416041022064000003e+02 0.000000000000000000e+00 0.000000000000000000e+00 0.000000000000000000e+00
-5.559256119000000051e-01 7.300763914249999686e+01 2.416101983256000096e+02 0.000000000000000000e+00 0.000000000000000000e+00 0.000000000000000000e+00
-2.559216335899999972e+00 7.286787346580000246e+01 2.416372287144999973e+02 0.000000000000000000e+00 0.000000000000000000e+00 0.000000000000000000e+00
-2.892077809899999963e+00 7.284384369359999312e+01 2.417417235554999877e+02 0.000000000000000000e+00 0.000000000000000000e+00 0.000000000000000000e+00
1.530629242999999917e+00 7.280947678389999567e+01 2.418986842548999903e+02 0.000000000000000000e+00 0.000000000000000000e+00 0.000000000000000000e+00
1.479308446999999971e+00 7.461729722539999443e+01 2.636035154946000034e+02 0.000000000000000000e+00 0.000000000000000000e+00 0.000000000000000000e+00
2.356098944499999792e+00 7.446764653500000009e+01 2.496141168951000111e+02 0.000000000000000000e+00 0.000000000000000000e+00 0.000000000000000000e+00
2.685167889700000199e+00 7.278112766700000691e+01 2.432831591736000121e+02 0.000000000000000000e+00 0.000000000000000000e+00 0.000000000000000000e+00
3.145367075699999848e+00 7.327307804580000550e+01 2.555864068637999935e+02 0.000000000000000000e+00 0.000000000000000000e+00 0.000000000000000000e+00
3.621611379099999972e+00 7.278925819929999363e+01 2.440709888947000081e+02 0.000000000000000000e+00 0.000000000000000000e+00 0.000000000000000000e+00
2.358536026399999930e+00 7.415764258629999972e+01 2.461088398498999936e+02 0.000000000000000000e+00 0.000000000000000000e+00 0.000000000000000000e+00
2.361403882199999860e+00 7.451573033729999906e+01 2.481145492994999984e+02 0.000000000000000000e+00 0.000000000000000000e+00 0.000000000000000000e+00
2.318734519099999947e+00 7.399719691590000537e+01 2.496074610473000064e+02 0.000000000000000000e+00 0.000000000000000000e+00 0.000000000000000000e+00
3.059618594199999819e+00 7.329597409190000690e+01 2.551278218003999996e+02 0.000000000000000000e+00 0.000000000000000000e+00 0.000000000000000000e+00
4.056147391399999691e+00 7.177909639690000176e+01 2.657531733578999820e+02 0.000000000000000000e+00 0.000000000000000000e+00 0.000000000000000000e+00
3.063832392400000160e+00 7.228747520420000683e+01 2.646738901375999831e+02 0.000000000000000000e+00 0.000000000000000000e+00 0.000000000000000000e+00
3.520185178100000201e+00 7.225498669910000160e+01 2.641072606782000207e+02 0.000000000000000000e+00 0.000000000000000000e+00 0.000000000000000000e+00
9.947401384999999818e-01 7.270699996320000480e+01 2.642076236692000180e+02 0.000000000000000000e+00 0.000000000000000000e+00 0.000000000000000000e+00
3.629276467900000025e+00 7.229641130150000095e+01 2.636663770805000127e+02 0.000000000000000000e+00 0.000000000000000000e+00 0.000000000000000000e+00
3.627627611999999946e+00 7.230384354400000291e+01 2.632664510706999863e+02 0.000000000000000000e+00 0.000000000000000000e+00 0.000000000000000000e+00
2.579852403499999891e+00 7.269139253929999711e+01 2.630862033436999923e+02 0.000000000000000000e+00 0.000000000000000000e+00 0.000000000000000000e+00
2.144333131399999814e+00 7.333642866450000497e+01 2.633018130688000156e+02 0.000000000000000000e+00 0.000000000000000000e+00 0.000000000000000000e+00
2.204984251099999959e+00 7.345089165740000681e+01 2.630027032428000098e+02 0.000000000000000000e+00 0.000000000000000000e+00 0.000000000000000000e+00
3.403590873699999797e+00 7.253480684790000055e+01 2.625728257526000107e+02 0.000000000000000000e+00 0.000000000000000000e+00 0.000000000000000000e+00
2.905671168800000093e+00 7.267051025969999500e+01 2.625814900831999807e+02 0.000000000000000000e+00 0.000000000000000000e+00 0.000000000000000000e+00
