-6.104994088999999846e-01 -5.357600621520000317e+01 2.871663729664999778e+02 0.000000000000000000e+00 0.000000000000000000e+00 0.000000000000000000e+00
7.436668926999999707e-01 -5.322951618079999747e+01 2.870780088564999915e+02 0.000000000000000000e+00 0.000000000000000000e+00 0.000000000000000000e+00
2.571461272300000100e+00 -5.057828633209999936e+01 2.872149070117000065e+02 0.000000000000000000e+00 0.000000000000000000e+00 0.000000000000000000e+00
2.984419927699999864e+00 -5.050129064459999739e+01 2.871082100282999932e+02 0.000000000000000000e+00 0.000000000000000000e+00 0.000000000000000000e+00
8.417111039999999877e-02 -5.368393898709999945e+01 2.869636843600999896e+02 0.000000000000000000e+00 0.000000000000000000e+00 0.000000000000000000e+00
-2.089051202099999838e+00 -5.377092880899999727e+01 2.866035012227999914e+02 0.000000000000000000e+00 0.000000000000000000e+00 0.000000000000000000e+00
-8.440239269999999516e-02 -5.384191357499999953e+01 2.865852536346000079e+02 0.000000000000000000e+00 0.000000000000000000e+00 0.000000000000000000e+00
3.953827531999999922e-01 -5.383372804159999703e+01 2.865686510622999776e+02 0.000000000000000000e+00 0.000000000000000000e+00 0.000000000000000000e+00
1.950184238100000078e+00 -5.105181911639999726e+01 2.866594368123999743e+02 0.000000000000000000e+00 0.000000000000000000e+00 0.000000000000000000e+00
2.896168097799999952e+00 -5.077397810029999903e+01 2.865681142343000261e+02 0.000000000000000000e+00 0.000000000000000000e+00 0.000000000000000000e+00
-2.569927136300000026e+00 -5.397765587109999785e+01 2.861235001178000061e+02 0.000000000000000000e+00 0.000000000000000000e+00 0.000000000000000000e+00
-1.082191101300000069e+00 -5.403729309069999687e+01 2.861632981843999914e+02 0.000000000000000000e+00 0.000000000000000000e+00 0.000000000000000000e+00
4.325802852000000254e-01 -5.402282072239999877e+01 2.861659738496999807e+02 0.000000000000000000e+00 0.000000000000000000e+00 0.000000000000000000e+00
1.037397404300000048e+00 -5.157614642760000123e+01 2.861044307989999993e+02 0.000000000000000000e+00 0.000000000000000000e+00 0.000000000000000000e+00
1.874688618299999998e+00 -5.129200140420000054e+01 2.861034204445999762e+02 0.000000000000000000e+00 0.000000000000000000e+00 0.000000000000000000e+00
2.492509046099999903e+00 -5.106865727440000313e+01 2.861659501410999837e+02 0.000000000000000000e+00 0.000000000000000000e+00 0.000000000000000000e+00
2.970248252399999789e+00 -5.093703061109999908e+01 2.861332911119999949e+02 0.000000000000000000e+00 0.000000000000000000e+00 0.000000000000000000e+00
-2.575114751300000115e+00 -5.415092340460000031e+01 2.857909830084000191e+02 0.000000000000000000e+00 0.000000000000000000e+00 0.000000000000000000e+00
-1.524614216800000088e+00 -5.427372094559999738e+01 2.855827532765999877e+02 0.000000000000000000e+00 0.000000000000000000e+00 0.000000000000000000e+00
-5.865309445999999927e-01 -5.432613213780000194e+01 2.855716055024000184e+02 0.000000000000000000e+00 0.000000000000000000e+00 0.000000000000000000e+00
3.947108544999999857e-01 -5.428920231979999755e+01 2.855814905500000123e+02 0.000000000000000000e+00 0.000000000000000000e+00 0.000000000000000000e+00
6.062825555999999949e-01 -5.414918141580000110e+01 2.856671250256999883e+02 0.000000000000000000e+00 0.000000000000000000e+00 0.000000000000000000e+00
2.380254342499999787e+00 -5.135508392759999907e+01 2.855822886569999923e+02 0.000000000000000000e+00 0.000000000000000000e+00 0.000000000000000000e+00
2.954992694700000033e+00 -5.109040471939999861e+01 2.856790102516000047e+02 0.000000000000000000e+00 0.000000000000000000e+00 0.000000000000000000e+00
2.843788094699999824e+00 -5.124820390389999858e+01 2.855665050512999983e+02 0.000000000000000000e+00 0.000000000000000000e+00 0.000000000000000000e+00
-2.567910492499999808e+00 -5.446252260210000173e+01 2.851104326715000070e+02 0.000000000000000000e+00 0.000000000000000000e+00 0.000000000000000000e+00
-1.599120758600000025e+00 -5.447148992529999845e+01 2.852113082710000072e+02 0.000000000000000000e+00 0.000000000000000000e+00 0.000000000000000000e+00
-1.757333720000000057e-02 -5.455774401840000110e+01 2.851260670208999954e+02 0.000000000000000000e+00 0.000000000000000000e+00 0.000000000000000000e+00
3.820443130999999770e-01 -5.453987123630000156e+01 2.850866081236000014e+02 0.000000000000000000e+00 0.000000000000000000e+00 0.000000000000000000e+00
7.069973565999999598e-01 -5.430717242309999904e+01 2.850671096475999775e+02 0.000000000000000000e+00 0.000000000000000000e+00 0.000000000000000000e+00
1.915424345799999983e+00 -5.172895948160000046e+01 2.850484157764000201e+02 0.000000000000000000e+00 0.000000000000000000e+00 0.000000000000000000e+00
2.079970630500000084e+00 -5.162944456299999985e+01 2.851870905477999827e+02 0.000000000000000000e+00 0.000000000000000000e+00 0.000000000000000000e+00
2.434558662400000184e+00 -5.154247018049999696e+01 2.851395148518000155e+02 0.000000000000000000e+00 0.000000000000000000e+00 0.000000000000000000e+00
7.703145975999999839e-01 -5.496458773389999664e+01 2.831616918115000203e+02 0.000000000000000000e+00 0.000000000000000000e+00 0.000000000000000000e+00
-2.076020810200000177e+00 -5.465047494019999874e+01 2.847869566255000109e+02 0.000000000000000000e+00 0.000000000000000000e+00 0.000000000000000000e+00
-2.071550389700000050e+00 -5.475340413180000354e+01 2.845172504476000199e+02 0.000000000000000000e+00 0.000000000000000000e+00 0.000000000000000000e+00
1.891012157800000093e+00 -5.191851498989999669e+01 2.846112324017000219e+02 0.000000000000000000e+00 0.000000000000000000e+00 0.000000000000000000e+00
-3.049407930700000158e+00 -5.488459099389999807e+01 2.840709117653000249e+02 0.000000000000000000e+00 0.000000000000000000e+00 0.000000000000000000e+00
-2.571595300799999873e+00 -5.495061931669999922e+01 2.840910432529000218e+02 0.000000000000000000e+00 0.000000000000000000e+00 0.000000000000000000e+00
-1.056210043699999934e+00 -5.499521482810000350e+01 2.841544521897999971e+02 0.000000000000000000e+00 0.000000000000000000e+00 0.000000000000000000e+00
7.392621867999999985e-01 -5.473461045180000184e+01 2.840634770908000064e+02 0.000000000000000000e+00 0.000000000000000000e+00 0.000000000000000000e+00
1.569087767999999938e+00 -5.212816212399999927e+01 2.842571038349000219e+02 0.000000000000000000e+00 0.000000000000000000e+00 0.000000000000000000e+00
-1.584768783699999961e+00 -5.527389513949999866e+01 2.834871651674999953e+02 0.000000000000000000e+00 0.000000000000000000e+00 0.000000000000000000e+00
-1.074315261800000032e+00 -5.528240959349999883e+01 2.835237089712999818e+02 0.000000000000000000e+00 0.000000000000000000e+00 0.000000000000000000e+00
-5.617421820000000343e-01 -5.531734096640000331e+01 2.835299090391000050e+02 0.000000000000000000e+00 0.000000000000000000e+00 0.000000000000000000e+00
-3.432059919499999889e+00 -5.532434290850000025e+01 2.821102640385000200e+02 0.000000000000000000e+00 0.000000000000000000e+00 0.000000000000000000e+00
2.949256107400000104e+00 -5.196059883009999680e+01 2.836249176366999905e+02 0.000000000000000000e+00 0.000000000000000000e+00 0.000000000000000000e+00
-2.939160051700000054e+00 -5.524494347550000128e+01 2.834458612011999890e+02 0.000000000000000000e+00 0.000000000000000000e+00 0.000000000000000000e+00
-2.047761781100000178e+00 -5.525388132359999815e+01 2.834527950025000109e+02 0.000000000000000000e+00 0.000000000000000000e+00 0.000000000000000000e+00
-2.061708250600000181e+00 -5.543727845090000272e+01 2.831687161493999838e+02 0.000000000000000000e+00 0.000000000000000000e+00 0.000000000000000000e+00
-1.533926811199999962e+00 -5.544909107969999695e+01 2.831607106580000277e+02 0.000000000000000000e+00 0.000000000000000000e+00 0.000000000000000000e+00
-1.070820127399999988e+00 -5.549118112810000270e+01 2.831372161505000236e+02 0.000000000000000000e+00 0.000000000000000000e+00 0.000000000000000000e+00
-5.653970242000000423e-01 -5.550474464170000033e+01 2.831158660132999785e+02 0.000000000000000000e+00 0.000000000000000000e+00 0.000000000000000000e+00
1.472309151299999952e+00 -5.260115402659999972e+01 2.830945742916999848e+02 0.000000000000000000e+00 0.000000000000000000e+00 0.000000000000000000e+00
2.802994547900000022e+00 -5.225247885940000003e+01 2.831038557745999924e+02 0.000000000000000000e+00 0.000000000000000000e+00 0.000000000000000000e+00
3.003487998000000214e+00 -5.211187228709999886e+01 2.831482618219000074e+02 0.000000000000000000e+00 0.000000000000000000e+00 0.000000000000000000e+00
7.823697404999999661e-01 -5.517824412539999912e+01 2.829598466652000184e+02 0.000000000000000000e+00 0.000000000000000000e+00 0.000000000000000000e+00
-1.560821865000000086e+00 -5.563007159379999678e+01 2.827333387075000246e+02 0.000000000000000000e+00 0.000000000000000000e+00 0.000000000000000000e+00
-6.244143424000000442e-01 -5.572768126169999903e+01 2.825786338519000083e+02 0.000000000000000000e+00 0.000000000000000000e+00 0.000000000000000000e+00
-8.785505959999999337e-02 -5.573071849890000351e+01 2.825495325901999877e+02 0.000000000000000000e+00 0.000000000000000000e+00 0.000000000000000000e+00
-1.176726909999999959e-01 -5.564971320269999921e+01 2.827607087793999767e+02 0.000000000000000000e+00 0.000000000000000000e+00 0.000000000000000000e+00
7.665743849999999693e-01 -5.534210309760000257e+01 2.826580342143000166e+02 0.000000000000000000e+00 0.000000000000000000e+00 0.000000000000000000e+00
8.085840930000000037e-01 -5.481838538259999893e+01 2.825635827753000058e+02 0.000000000000000000e+00 0.000000000000000000e+00 0.000000000000000000e+00
1.633961400400000041e+00 -5.267227796990000144e+01 2.827963357068999812e+02 0.000000000000000000e+00 0.000000000000000000e+00 0.000000000000000000e+00
2.398297783299999875e+00 -5.253157212720000047e+01 2.826401107790999845e+02 0.000000000000000000e+00 0.000000000000000000e+00 0.000000000000000000e+00
-2.034672608799999782e+00 -5.571924867319999919e+01 2.824727049589000103e+02 0.000000000000000000e+00 0.000000000000000000e+00 0.000000000000000000e+00
3.285910731000000196e-01 -5.573712114349999780e+01 2.825583599435000224e+02 0.000000000000000000e+00 0.000000000000000000e+00 0.000000000000000000e+00
1.908157061500000085e+00 -5.273651127629999991e+01 2.824498705880999978e+02 0.000000000000000000e+00 0.000000000000000000e+00 0.000000000000000000e+00
-5.235077670000000127e-01 -5.582864772650000162e+01 2.821428136798999731e+02 0.000000000000000000e+00 0.000000000000000000e+00 0.000000000000000000e+00
1.101969307899999917e+00 -5.311371644599999797e+01 2.821179759209999816e+02 0.000000000000000000e+00 0.000000000000000000e+00 0.000000000000000000e+00
2.980960002099999784e+00 -5.253317657310000044e+01 2.820881043124999792e+02 0.000000000000000000e+00 0.000000000000000000e+00 0.000000000000000000e+00
-1.969247897100000033e+00 -5.572787132770000085e+01 2.816459685596000213e+02 0.000000000000000000e+00 0.000000000000000000e+00 0.000000000000000000e+00
-5.766569997999999586e-01 -5.573889452459999916e+01 2.817286223068999789e+02 0.000000000000000000e+00 0.000000000000000000e+00 0.000000000000000000e+00
4.425914266000000041e-01 -5.556485907390000278e+01 2.815976084284999956e+02 0.000000000000000000e+00 0.000000000000000000e+00 0.000000000000000000e+00
7.571555493999999609e-01 -5.536973005080000121e+01 2.816908593782000025e+02 0.000000000000000000e+00 0.000000000000000000e+00 0.000000000000000000e+00
1.561221961800000058e+00 -5.311601931399999899e+01 2.816909397730000251e+02 0.000000000000000000e+00 0.000000000000000000e+00 0.000000000000000000e+00
2.437272213299999990e+00 -5.291196580220000101e+01 2.815940024673000153e+02 0.000000000000000000e+00 0.000000000000000000e+00 0.000000000000000000e+00
3.043701130300000113e+00 -5.262879310790000176e+01 2.816658428558000082e+02 0.000000000000000000e+00 0.000000000000000000e+00 0.000000000000000000e+00
-2.072859161899999858e+00 -5.556227629709999860e+01 2.816169242331000078e+02 0.000000000000000000e+00 0.000000000000000000e+00 0.000000000000000000e+00
-2.113726025400000097e+00 -5.533089335249999863e+01 2.812186097951999955e+02 0.000000000000000000e+00 0.000000000000000000e+00 0.000000000000000000e+00
-1.524813322299999996e+00 -5.538567498799999811e+01 2.812414410558000100e+02 0.000000000000000000e+00 0.000000000000000000e+00 0.000000000000000000e+00
7.517539192000000092e-01 -5.488928641870000291e+01 2.812619096991999754e+02 0.000000000000000000e+00 0.000000000000000000e+00 0.000000000000000000e+00
-5.514124910499999643e+00 -5.276938701419999944e+01 2.810094829944999901e+02 0.000000000000000000e+00 0.000000000000000000e+00 0.000000000000000000e+00
1.060177629300000035e+00 -5.350048507380000018e+01 2.811129683912000132e+02 0.000000000000000000e+00 0.000000000000000000e+00 0.000000000000000000e+00
2.455559146700000195e+00 -5.306469982910000027e+01 2.811374126791999970e+02 0.000000000000000000e+00 0.000000000000000000e+00 0.000000000000000000e+00
-3.050980579299999995e+00 -5.493541236490000301e+01 2.811364180164999880e+02 0.000000000000000000e+00 0.000000000000000000e+00 0.000000000000000000e+00
-2.005197853399999897e+00 -5.488204425739999692e+01 2.810255341715999862e+02 0.000000000000000000e+00 0.000000000000000000e+00 0.000000000000000000e+00
-1.535979280699999894e+00 -5.490987046570000274e+01 2.810321719323000025e+02 0.000000000000000000e+00 0.000000000000000000e+00 0.000000000000000000e+00
-1.078648089899999940e+00 -5.490117385269999772e+01 2.810391237928000123e+02 0.000000000000000000e+00 0.000000000000000000e+00 0.000000000000000000e+00
-5.897038649000000410e-01 -5.494675252580000091e+01 2.810806605843999932e+02 0.000000000000000000e+00 0.000000000000000000e+00 0.000000000000000000e+00
6.634176057999999765e-01 -5.453404340769999692e+01 2.809638685808000105e+02 0.000000000000000000e+00 0.000000000000000000e+00 0.000000000000000000e+00
2.297770460000000181e+00 -5.321464271260000345e+01 2.810215536911999834e+02 0.000000000000000000e+00 0.000000000000000000e+00 0.000000000000000000e+00
-5.529175571899999753e+00 -5.292439167279999879e+01 2.805994116597000243e+02 0.000000000000000000e+00 0.000000000000000000e+00 0.000000000000000000e+00
-5.065778893700000118e+00 -5.309969226789999652e+01 2.805735881938999796e+02 0.000000000000000000e+00 0.000000000000000000e+00 0.000000000000000000e+00
-4.715029119199999563e+00 -5.315436826660000236e+01 2.807208835541999861e+02 0.000000000000000000e+00 0.000000000000000000e+00 0.000000000000000000e+00
-4.556746062800000274e+00 -5.328652145209999702e+01 2.805696486411999899e+02 0.000000000000000000e+00 0.000000000000000000e+00 0.000000000000000000e+00
-2.993616228900000120e+00 -5.431554628880000024e+01 2.807431566752999856e+02 0.000000000000000000e+00 0.000000000000000000e+00 0.000000000000000000e+00
-2.550797940099999828e+00 -5.436938317730000136e+01 2.807661524613999973e+02 0.000000000000000000e+00 0.000000000000000000e+00 0.000000000000000000e+00
-5.984692877999999716e-01 -5.439627030940000196e+01 2.807956826276000015e+02 0.000000000000000000e+00 0.000000000000000000e+00 0.000000000000000000e+00
4.171250744000000177e-01 -5.433508990020000340e+01 2.808114250404000245e+02 0.000000000000000000e+00 0.000000000000000000e+00 0.000000000000000000e+00
1.915987946100000006e+00 -5.344905167259999956e+01 2.805516586302999826e+02 0.000000000000000000e+00 0.000000000000000000e+00 0.000000000000000000e+00
2.434086457699999873e+00 -5.328697502680000042e+01 2.806180494736000242e+02 0.000000000000000000e+00 0.000000000000000000e+00 0.000000000000000000e+00
-3.469186064100000078e+00 -5.380259077910000087e+01 2.805077511989999834e+02 0.000000000000000000e+00 0.000000000000000000e+00 0.000000000000000000e+00
-3.125931976800000012e+00 -5.389035436620000041e+01 2.805882196232000183e+02 0.000000000000000000e+00 0.000000000000000000e+00 0.000000000000000000e+00
-2.565427751600000139e+00 -5.396423313390000231e+01 2.805156286766999756e+02 0.000000000000000000e+00 0.000000000000000000e+00 0.000000000000000000e+00
-1.534585449699999993e+00 -5.401701130669999884e+01 2.805308146542000145e+02 0.000000000000000000e+00 0.000000000000000000e+00 0.000000000000000000e+00
-3.097475187900000204e+00 -5.379690455850000319e+01 2.801091363035999962e+02 0.000000000000000000e+00 0.000000000000000000e+00 0.000000000000000000e+00
-2.107397798100000053e+00 -5.394288081260000212e+01 2.801244265629999859e+02 0.000000000000000000e+00 0.000000000000000000e+00 0.000000000000000000e+00
-1.592484690000000036e+00 -5.396461400910000350e+01 2.801315366736000101e+02 0.000000000000000000e+00 0.000000000000000000e+00 0.000000000000000000e+00
-3.026868220000000081e-02 -5.396206195789999782e+01 2.801558294203999822e+02 0.000000000000000000e+00 0.000000000000000000e+00 0.000000000000000000e+00
1.430203379099999950e+00 -5.374457801780000210e+01 2.800544622951999827e+02 0.000000000000000000e+00 0.000000000000000000e+00 0.000000000000000000e+00
2.932583365700000222e+00 -5.330539826569999917e+01 2.801029902178000270e+02 0.000000000000000000e+00 0.000000000000000000e+00 0.000000000000000000e+00
3.104689762100000028e+00 -5.314404730030000223e+01 2.802140222373000142e+02 0.000000000000000000e+00 0.000000000000000000e+00 0.000000000000000000e+00
-4.548185208099999599e+00 -5.359293138860000028e+01 2.796242421710999793e+02 0.000000000000000000e+00 0.000000000000000000e+00 0.000000000000000000e+00
-5.813948106999999865e-01 -5.410694619859999932e+01 2.796687212498000008e+02 0.000000000000000000e+00 0.000000000000000000e+00 0.000000000000000000e+00
-6.748311599999999577e-02 -5.408145998159999834e+01 2.796816450892000034e+02 0.000000000000000000e+00 0.000000000000000000e+00 0.000000000000000000e+00
4.772376047999999926e-01 -5.406036912870000322e+01 2.796090503748000060e+02 0.000000000000000000e+00 0.000000000000000000e+00 0.000000000000000000e+00
1.931909170900000028e+00 -5.378369895489999664e+01 2.796128026193999858e+02 0.000000000000000000e+00 0.000000000000000000e+00 0.000000000000000000e+00
2.443229376500000161e+00 -5.360791801770000120e+01 2.796773507085000006e+02 0.000000000000000000e+00 0.000000000000000000e+00 0.000000000000000000e+00
-4.068271523099999953e+00 -5.390775391849999920e+01 2.791137343743999963e+02 0.000000000000000000e+00 0.000000000000000000e+00 0.000000000000000000e+00
-2.075626066499999922e+00 -5.424677916219999929e+01 2.791017613549000203e+02 0.000000000000000000e+00 0.000000000000000000e+00 0.000000000000000000e+00
-1.054215355199999982e+00 -5.426879350699999804e+01 2.791393058730000121e+02 0.000000000000000000e+00 0.000000000000000000e+00 0.000000000000000000e+00
-2.536371476999999874e+00 -5.420979840340000067e+01 2.790337037036999845e+02 0.000000000000000000e+00 0.000000000000000000e+00 0.000000000000000000e+00
9.724762980000000168e-01 -5.412958417029999936e+01 2.791451194178999913e+02 0.000000000000000000e+00 0.000000000000000000e+00 0.000000000000000000e+00
1.962736155400000015e+00 -5.393776582470000136e+01 2.790940900188999763e+02 0.000000000000000000e+00 0.000000000000000000e+00 0.000000000000000000e+00
-5.025345242400000245e+00 -5.381414555820000345e+01 2.785803512671000135e+02 0.000000000000000000e+00 0.000000000000000000e+00 0.000000000000000000e+00
-4.580247451900000044e+00 -5.396128244959999876e+01 2.786016971523000052e+02 0.000000000000000000e+00 0.000000000000000000e+00 0.000000000000000000e+00
-3.649996391100000181e+00 -5.411822381470000209e+01 2.786996663670000203e+02 0.000000000000000000e+00 0.000000000000000000e+00 0.000000000000000000e+00
-3.519367336400000212e+00 -5.423915324040000030e+01 2.785022838460000116e+02 0.000000000000000000e+00 0.000000000000000000e+00 0.000000000000000000e+00
-3.032869258999999929e+00 -5.428396545049999844e+01 2.786094168331999867e+02 0.000000000000000000e+00 0.000000000000000000e+00 0.000000000000000000e+00
-1.550236561099999966e+00 -5.441886824190000027e+01 2.786499270969000008e+02 0.000000000000000000e+00 0.000000000000000000e+00 0.000000000000000000e+00
-6.064155619000000108e-01 -5.445130148380000179e+01 2.786459623589000216e+02 0.000000000000000000e+00 0.000000000000000000e+00 0.000000000000000000e+00
-1.142478626999999941e-01 -5.443623507089999691e+01 2.786623981888000117e+02 0.000000000000000000e+00 0.000000000000000000e+00 0.000000000000000000e+00
1.961037338299999933e+00 -5.410588799660000348e+01 2.786684127999999987e+02 0.000000000000000000e+00 0.000000000000000000e+00 0.000000000000000000e+00
-5.407615468800000436e+00 -5.373337063499999999e+01 2.784473751900000025e+02 0.000000000000000000e+00 0.000000000000000000e+00 0.000000000000000000e+00
-5.610262014299999933e+00 -5.378577089139999856e+01 2.780526774053000167e+02 0.000000000000000000e+00 0.000000000000000000e+00 0.000000000000000000e+00
-5.043435040900000388e+00 -5.399346007590000340e+01 2.780968311313000072e+02 0.000000000000000000e+00 0.000000000000000000e+00 0.000000000000000000e+00
-4.557507980299999595e+00 -5.411533039399999723e+01 2.781501836336000224e+02 0.000000000000000000e+00 0.000000000000000000e+00 0.000000000000000000e+00
-3.072086811000000139e+00 -5.444715840399999962e+01 2.780993726332999927e+02 0.000000000000000000e+00 0.000000000000000000e+00 0.000000000000000000e+00
-1.576240861700000107e+00 -5.460041732620000232e+01 2.781302571231000229e+02 0.000000000000000000e+00 0.000000000000000000e+00 0.000000000000000000e+00
-1.098821654900000055e+00 -5.460831949300000332e+01 2.781601444071000060e+02 0.000000000000000000e+00 0.000000000000000000e+00 0.000000000000000000e+00
-5.619000359000000389e-01 -5.460838617320000310e+01 2.781646274856000218e+02 0.000000000000000000e+00 0.000000000000000000e+00 0.000000000000000000e+00
-4.476228343699999890e+00 -5.420219636840000277e+01 2.779883868892999885e+02 0.000000000000000000e+00 0.000000000000000000e+00 0.000000000000000000e+00
9.568012715999999473e-01 -5.451624329869999741e+01 2.780692222247000132e+02 0.000000000000000000e+00 0.000000000000000000e+00 0.000000000000000000e+00
1.472922775200000034e+00 -5.440751279610000068e+01 2.781041624828000067e+02 0.000000000000000000e+00 0.000000000000000000e+00 0.000000000000000000e+00
2.436601247600000075e+00 -5.412574583739999667e+01 2.782206244922999758e+02 0.000000000000000000e+00 0.000000000000000000e+00 0.000000000000000000e+00
2.925714562000000019e+00 -5.400426595599999757e+01 2.781236252086999912e+02 0.000000000000000000e+00 0.000000000000000000e+00 0.000000000000000000e+00
-3.579258865000000123e-01 -5.470008200990000091e+01 2.779464260643999864e+02 0.000000000000000000e+00 0.000000000000000000e+00 0.000000000000000000e+00
2.353404641500000061e+00 -5.423033362030000148e+01 2.780235613317000229e+02 0.000000000000000000e+00 0.000000000000000000e+00 0.000000000000000000e+00
-3.088024094100000116e+00 -5.458898156979999783e+01 2.776589598250000108e+02 0.000000000000000000e+00 0.000000000000000000e+00 0.000000000000000000e+00
-2.601370494499999797e+00 -5.463954271770000304e+01 2.777416088795999940e+02 0.000000000000000000e+00 0.000000000000000000e+00 0.000000000000000000e+00
-5.517983210000000360e-01 -5.477614066769999823e+01 2.776553430107999816e+02 0.000000000000000000e+00 0.000000000000000000e+00 0.000000000000000000e+00
-6.308973360000000308e-02 -5.477173444169999783e+01 2.776234144593000224e+02 0.000000000000000000e+00 0.000000000000000000e+00 0.000000000000000000e+00
1.428442890299999934e+00 -5.457003738009999694e+01 2.776440859745000012e+02 0.000000000000000000e+00 0.000000000000000000e+00 0.000000000000000000e+00
1.969845632199999974e+00 -5.448601624599999838e+01 2.775781059524999819e+02 0.000000000000000000e+00 0.000000000000000000e+00 0.000000000000000000e+00
-5.044871959299999986e+00 -5.424638088860000096e+01 2.774321329227000206e+02 0.000000000000000000e+00 0.000000000000000000e+00 0.000000000000000000e+00
-2.910537291899999879e+00 -5.468757178460000290e+01 2.774606893591999892e+02 0.000000000000000000e+00 0.000000000000000000e+00 0.000000000000000000e+00
1.269810478699999967e+00 -5.469481792509999707e+01 2.773712027157999955e+02 0.000000000000000000e+00 0.000000000000000000e+00 0.000000000000000000e+00
-3.551797693700000202e+00 -4.842995742069999920e+01 2.935656149481000057e+02 0.000000000000000000e+00 0.000000000000000000e+00 0.000000000000000000e+00
-4.994837351700000205e+00 -4.225902229609999949e+01 3.025132942975000105e+02 0.000000000000000000e+00 0.000000000000000000e+00 0.000000000000000000e+00
-3.755194716500000141e+00 -5.114945937030000067e+01 2.866792953954000041e+02 0.000000000000000000e+00 0.000000000000000000e+00 0.000000000000000000e+00
-5.417650155000000023e-01 -5.551338459760000177e+01 2.815545655535000265e+02 0.000000000000000000e+00 0.000000000000000000e+00 0.000000000000000000e+00
-3.501843722899999900e+00 -5.341474109859999686e+01 2.825971348196999884e+02 0.000000000000000000e+00 0.000000000000000000e+00 0.000000000000000000e+00
-4.054271004300000314e+00 -5.129416952959999776e+01 2.860341695637000043e+02 0.000000000000000000e+00 0.000000000000000000e+00 0.000000000000000000e+00
-5.528028968300000123e+00 -4.923720296789999651e+01 2.896139205389000040e+02 0.000000000000000000e+00 0.000000000000000000e+00 0.000000000000000000e+00
-5.096464566699999921e+00 -5.193690234470000178e+01 2.836108252331999893e+02 0.000000000000000000e+00 0.000000000000000000e+00 0.000000000000000000e+00
-3.610477414400000029e+00 -5.141764178110000216e+01 2.865545773047999774e+02 0.000000000000000000e+00 0.000000000000000000e+00 0.000000000000000000e+00
-4.756452536000000286e+00 -4.666940685510000009e+01 2.953365942807000124e+02 0.000000000000000000e+00 0.000000000000000000e+00 0.000000000000000000e+00
-3.572292552499999996e+00 -4.390248639480000037e+01 3.016008069996000245e+02 0.000000000000000000e+00 0.000000000000000000e+00 0.000000000000000000e+00
-3.559456286200000097e+00 -4.902024948220000056e+01 2.950693699344000152e+02 0.000000000000000000e+00 0.000000000000000000e+00 0.000000000000000000e+00
-3.568471202900000083e+00 -4.594088916940000189e+01 2.981499277996999808e+02 0.000000000000000000e+00 0.000000000000000000e+00 0.000000000000000000e+00
-3.527545037099999892e+00 -5.090371088060000204e+01 2.890813260150000019e+02 0.000000000000000000e+00 0.000000000000000000e+00 0.000000000000000000e+00
-3.702238698599999989e+00 -4.766733247869999701e+01 2.943585899607999750e+02 0.000000000000000000e+00 0.000000000000000000e+00 0.000000000000000000e+00
-3.639886231699999808e+00 -5.092883443400000232e+01 2.875796879613000101e+02 0.000000000000000000e+00 0.000000000000000000e+00 0.000000000000000000e+00
-3.542276828199999894e+00 -5.408256020470000180e+01 2.831008125641999982e+02 0.000000000000000000e+00 0.000000000000000000e+00 0.000000000000000000e+00
-3.507051963699999941e+00 -5.235300118069999797e+01 2.855905550675000200e+02 0.000000000000000000e+00 0.000000000000000000e+00 0.000000000000000000e+00
2.328955662799999882e+00 -5.271997165049999978e+01 2.824734097249000229e+02 0.000000000000000000e+00 0.000000000000000000e+00 0.000000000000000000e+00
-5.785449533399999567e+00 -4.562715175640000353e+01 2.963146935326000175e+02 0.000000000000000000e+00 0.000000000000000000e+00 0.000000000000000000e+00
-1.054058256000000027e-01 -5.418141331070000177e+01 2.794524521518999904e+02 0.000000000000000000e+00 0.000000000000000000e+00 0.000000000000000000e+00
-3.083231696099999919e+00 -4.188461781169999654e+01 3.041257610420000219e+02 0.000000000000000000e+00 0.000000000000000000e+00 0.000000000000000000e+00
-3.461783926199999861e+00 -4.599312338130000199e+01 3.021630739705000224e+02 0.000000000000000000e+00 0.000000000000000000e+00 0.000000000000000000e+00
-3.517716353600000012e+00 -4.541887031200000280e+01 3.001655267286000139e+02 0.000000000000000000e+00 0.000000000000000000e+00 0.000000000000000000e+00
-3.685358894999999801e+00 -5.207966790479999730e+01 2.845860769186999732e+02 0.000000000000000000e+00 0.000000000000000000e+00 0.000000000000000000e+00
-5.029210153500000224e+00 -4.873211625390000279e+01 2.910684125029999905e+02 0.000000000000000000e+00 0.000000000000000000e+00 0.000000000000000000e+00
-3.510148713400000009e+00 -5.201844757039999934e+01 2.891220012489000055e+02 0.000000000000000000e+00 0.000000000000000000e+00 0.000000000000000000e+00
-5.202854020600000240e+00 -4.357713800450000008e+01 3.002840823453000212e+02 0.000000000000000000e+00 0.000000000000000000e+00 0.000000000000000000e+00
-4.096356383699999881e+00 -4.880700706849999904e+01 2.916112501741000074e+02 0.000000000000000000e+00 0.000000000000000000e+00 0.000000000000000000e+00
-3.621678677299999816e+00 -4.983588700410000172e+01 2.900732194319999735e+02 0.000000000000000000e+00 0.000000000000000000e+00 0.000000000000000000e+00
-5.577977144900000184e+00 -5.195856246390000166e+01 2.831032962219999831e+02 0.000000000000000000e+00 0.000000000000000000e+00 0.000000000000000000e+00
-3.549652279300000046e+00 -4.796099102659999858e+01 2.966129136037999956e+02 0.000000000000000000e+00 0.000000000000000000e+00 0.000000000000000000e+00
-5.536140921800000392e+00 -5.233708282740000328e+01 2.821408720251000091e+02 0.000000000000000000e+00 0.000000000000000000e+00 0.000000000000000000e+00
-4.228726737999999763e+00 -4.910426997260000093e+01 2.908011690292000253e+02 0.000000000000000000e+00 0.000000000000000000e+00 0.000000000000000000e+00
-5.522105467300000292e+00 -5.120526491799999746e+01 2.850297755920000213e+02 0.000000000000000000e+00 0.000000000000000000e+00 0.000000000000000000e+00
3.127579300499999881e+00 -4.813420590980000213e+01 2.918620357144999957e+02 0.000000000000000000e+00 0.000000000000000000e+00 0.000000000000000000e+00
-4.926739178700000110e+00 -4.819571855960000306e+01 2.924086281634999978e+02 0.000000000000000000e+00 0.000000000000000000e+00 0.000000000000000000e+00
-3.500142492500000202e+00 -5.402840263190000059e+01 2.821010173266000152e+02 0.000000000000000000e+00 0.000000000000000000e+00 0.000000000000000000e+00
-2.081198892000000189e+00 -4.489779078480000152e+01 3.032489619757000128e+02 0.000000000000000000e+00 0.000000000000000000e+00 0.000000000000000000e+00
-3.311794972099999956e+00 -4.545477595300000218e+01 3.018772206882999853e+02 0.000000000000000000e+00 0.000000000000000000e+00 0.000000000000000000e+00
-2.077952225999999847e+00 -4.539774343340000229e+01 3.032332404543000166e+02 0.000000000000000000e+00 0.000000000000000000e+00 0.000000000000000000e+00
-3.396183663099999972e+00 -5.284229235469999963e+01 2.881284890466000093e+02 0.000000000000000000e+00 0.000000000000000000e+00 0.000000000000000000e+00
-4.495614603199999948e+00 -4.378045193679999869e+01 3.005001585885000281e+02 0.000000000000000000e+00 0.000000000000000000e+00 0.000000000000000000e+00
-3.811672794900000216e+00 -4.703086997470000341e+01 2.953529944648000196e+02 0.000000000000000000e+00 0.000000000000000000e+00 0.000000000000000000e+00
-5.839493581000000377e-01 -4.403584517609999693e+01 3.029199575174999950e+02 0.000000000000000000e+00 0.000000000000000000e+00 0.000000000000000000e+00
-3.417562509100000145e+00 -4.540897320770000078e+01 3.030464719134999996e+02 0.000000000000000000e+00 0.000000000000000000e+00 0.000000000000000000e+00
-3.741272963000000118e+00 -4.606035123019999844e+01 2.972480344490999755e+02 0.000000000000000000e+00 0.000000000000000000e+00 0.000000000000000000e+00
-4.522347478500000406e+00 -5.002041831500000058e+01 2.886304962483999930e+02 0.000000000000000000e+00 0.000000000000000000e+00 0.000000000000000000e+00
-3.981461880699999956e+00 -5.288759247080000137e+01 2.820402515924000113e+02 0.000000000000000000e+00 0.000000000000000000e+00 0.000000000000000000e+00
-5.059118723200000112e+00 -4.605277086289999744e+01 2.961877958074999810e+02 0.000000000000000000e+00 0.000000000000000000e+00 0.000000000000000000e+00
-3.497091610800000083e+00 -5.452183789600000097e+01 2.841376932397000132e+02 0.000000000000000000e+00 0.000000000000000000e+00 0.000000000000000000e+00
-4.588243580800000387e+00 -4.683628510310000337e+01 2.951417260521000117e+02 0.000000000000000000e+00 0.000000000000000000e+00 0.000000000000000000e+00
-5.090661397599999916e+00 -5.027341075209999843e+01 2.876218875412999978e+02 0.000000000000000000e+00 0.000000000000000000e+00 0.000000000000000000e+00
-3.532561903099999956e+00 -5.194360243620000261e+01 2.880877749891999997e+02 0.000000000000000000e+00 0.000000000000000000e+00 0.000000000000000000e+00
-3.541582861499999790e+00 -4.984753691569999745e+01 2.925746899514999768e+02 0.000000000000000000e+00 0.000000000000000000e+00 0.000000000000000000e+00
-4.671949190200000324e+00 -5.162101933400000320e+01 2.847719438972000034e+02 0.000000000000000000e+00 0.000000000000000000e+00 0.000000000000000000e+00
-3.545352418499999825e+00 -5.137930265439999999e+01 2.870839199485000108e+02 0.000000000000000000e+00 0.000000000000000000e+00 0.000000000000000000e+00
-3.919772854600000134e+00 -4.873720416580000148e+01 2.919539529425999831e+02 0.000000000000000000e+00 0.000000000000000000e+00 0.000000000000000000e+00
-5.510316383300000176e+00 -5.032107366519999658e+01 2.871254868743999964e+02 0.000000000000000000e+00 0.000000000000000000e+00 0.000000000000000000e+00
-3.021628960000000141e+00 -4.273099871849999687e+01 3.029483854549000057e+02 0.000000000000000000e+00 0.000000000000000000e+00 0.000000000000000000e+00
-3.501518825099999788e+00 -5.300427740050000125e+01 2.871426580271000262e+02 0.000000000000000000e+00 0.000000000000000000e+00 0.000000000000000000e+00
-5.583865729400000255e+00 -4.845096835679999714e+01 2.911042273581999780e+02 0.000000000000000000e+00 0.000000000000000000e+00 0.000000000000000000e+00
-3.517646387200000113e+00 -5.251173549189999790e+01 2.881443116326000222e+02 0.000000000000000000e+00 0.000000000000000000e+00 0.000000000000000000e+00
-3.696410779299999838e+00 -4.997721676289999948e+01 2.895729611643000112e+02 0.000000000000000000e+00 0.000000000000000000e+00 0.000000000000000000e+00
-3.541919816000000054e+00 -5.089911320710000098e+01 2.905812026859999833e+02 0.000000000000000000e+00 0.000000000000000000e+00 0.000000000000000000e+00
-3.546984903499999842e+00 -4.538212728069999713e+01 3.006135647350000113e+02 0.000000000000000000e+00 0.000000000000000000e+00 0.000000000000000000e+00
-4.383500457600000288e+00 -5.372531715640000272e+01 2.793901157601999898e+02 0.000000000000000000e+00 0.000000000000000000e+00 0.000000000000000000e+00
3.211504570199999797e+00 -5.171647494789999655e+01 2.839225021350999896e+02 0.000000000000000000e+00 0.000000000000000000e+00 0.000000000000000000e+00
-4.554026758400000041e+00 -4.839473106340000186e+01 2.921203574759999810e+02 0.000000000000000000e+00 0.000000000000000000e+00 0.000000000000000000e+00
-3.101962245999999812e+00 -5.456372459970000222e+01 2.810102731468999764e+02 0.000000000000000000e+00 0.000000000000000000e+00 0.000000000000000000e+00
-3.574390096900000202e+00 -4.542673674009999729e+01 3.021468953925000278e+02 0.000000000000000000e+00 0.000000000000000000e+00 0.000000000000000000e+00
-4.559509735599999836e+00 -4.430852824389999967e+01 2.996105057414999919e+02 0.000000000000000000e+00 0.000000000000000000e+00 0.000000000000000000e+00
-5.605579876000000183e+00 -4.250707139949999913e+01 3.016210698777999824e+02 0.000000000000000000e+00 0.000000000000000000e+00 0.000000000000000000e+00
-3.528518389599999860e+00 -5.488721395259999980e+01 2.821060478768000053e+02 0.000000000000000000e+00 0.000000000000000000e+00 0.000000000000000000e+00
-5.556419349099999572e+00 -5.135879429429999732e+01 2.846294367044999944e+02 0.000000000000000000e+00 0.000000000000000000e+00 0.000000000000000000e+00
-3.238703162000000191e+00 -4.607608378289999962e+01 3.023582483645000138e+02 0.000000000000000000e+00 0.000000000000000000e+00 0.000000000000000000e+00
-4.911942330599999629e+00 -5.171148345089999765e+01 2.844140870403999770e+02 0.000000000000000000e+00 0.000000000000000000e+00 0.000000000000000000e+00
-3.619759391900000178e+00 -4.636932420849999659e+01 2.971232290049999847e+02 0.000000000000000000e+00 0.000000000000000000e+00 0.000000000000000000e+00
-2.382170674800000221e+00 -5.227145802399999752e+01 2.899637103993999858e+02 0.000000000000000000e+00 0.000000000000000000e+00 0.000000000000000000e+00
-5.586320824100000415e+00 -4.348403142469999949e+01 3.001174307261999843e+02 0.000000000000000000e+00 0.000000000000000000e+00 0.000000000000000000e+00
-4.561829624999999666e+00 -4.337247435849999988e+01 3.011146126680000066e+02 0.000000000000000000e+00 0.000000000000000000e+00 0.000000000000000000e+00
-3.494155983899999818e+00 -5.402783461010000110e+01 2.816010629346000087e+02 0.000000000000000000e+00 0.000000000000000000e+00 0.000000000000000000e+00
-2.593214367199999870e+00 -4.174175687289999814e+01 3.045039024037999980e+02 0.000000000000000000e+00 0.000000000000000000e+00 0.000000000000000000e+00
-2.608067819700000012e+00 -4.198801614639999968e+01 3.041386560619999955e+02 0.000000000000000000e+00 0.000000000000000000e+00 0.000000000000000000e+00
2.279119410299999871e+00 -4.125496688289999980e+01 3.043888042605000237e+02 0.000000000000000000e+00 0.000000000000000000e+00 0.000000000000000000e+00
-2.071990783599999997e+00 -4.220628596609999761e+01 3.039542392075999828e+02 0.000000000000000000e+00 0.000000000000000000e+00 0.000000000000000000e+00
-3.989076936800000084e+00 -4.173846796689999650e+01 3.039229640871000129e+02 0.000000000000000000e+00 0.000000000000000000e+00 0.000000000000000000e+00
-5.508414057399999564e+00 -4.129770617530000010e+01 3.035237514794999925e+02 0.000000000000000000e+00 0.000000000000000000e+00 0.000000000000000000e+00
-5.104437762799999945e+00 -4.145042902480000180e+01 3.036281541588999744e+02 0.000000000000000000e+00 0.000000000000000000e+00 0.000000000000000000e+00
-4.553727502000000094e+00 -4.178209516340000107e+01 3.035435319681999999e+02 0.000000000000000000e+00 0.000000000000000000e+00 0.000000000000000000e+00
-3.621383443100000044e+00 -4.203870414090000196e+01 3.036686002289999919e+02 0.000000000000000000e+00 0.000000000000000000e+00 0.000000000000000000e+00
-3.186548626100000003e+00 -4.208107740199999824e+01 3.037966911582000193e+02 0.000000000000000000e+00 0.000000000000000000e+00 0.000000000000000000e+00
-5.001370590999999699e+00 -4.324841169420000142e+01 3.009832458235999866e+02 0.000000000000000000e+00 0.000000000000000000e+00 0.000000000000000000e+00
-2.582999413200000038e+00 -4.234016302460000247e+01 3.036304404444999818e+02 0.000000000000000000e+00 0.000000000000000000e+00 0.000000000000000000e+00
-2.101167265399999984e+00 -4.239672230160000055e+01 3.036443894610000029e+02 0.000000000000000000e+00 0.000000000000000000e+00 0.000000000000000000e+00
-3.532993627100000200e+00 -4.221058955440000204e+01 3.034599502443999768e+02 0.000000000000000000e+00 0.000000000000000000e+00 0.000000000000000000e+00
-4.006798926800000160e+00 -4.482295082899999983e+01 2.990896202431999882e+02 0.000000000000000000e+00 0.000000000000000000e+00 0.000000000000000000e+00
-5.073546817100000439e+00 -4.184643437030000257e+01 3.030723353140999734e+02 0.000000000000000000e+00 0.000000000000000000e+00 0.000000000000000000e+00
-4.617668200099999787e+00 -4.201827113440000261e+01 3.031397934184000178e+02 0.000000000000000000e+00 0.000000000000000000e+00 0.000000000000000000e+00
-4.055249780799999648e+00 -4.230305487980000123e+01 3.030553589872000089e+02 0.000000000000000000e+00 0.000000000000000000e+00 0.000000000000000000e+00
-2.642705133999999845e+00 -4.258317687169999743e+01 3.032624984348000226e+02 0.000000000000000000e+00 0.000000000000000000e+00 0.000000000000000000e+00
-3.082711530400000122e+00 -4.543014632850000112e+01 3.032085036002999914e+02 0.000000000000000000e+00 0.000000000000000000e+00 0.000000000000000000e+00
-2.580765648599999906e+00 -4.541077887870000040e+01 3.032281256115999781e+02 0.000000000000000000e+00 0.000000000000000000e+00 0.000000000000000000e+00
-1.558390460300000058e+00 -4.574171013309999978e+01 3.033790889155000059e+02 0.000000000000000000e+00 0.000000000000000000e+00 0.000000000000000000e+00
-1.920665051000000068e-01 -4.576659165870000123e+01 3.033996447453000087e+02 0.000000000000000000e+00 0.000000000000000000e+00 0.000000000000000000e+00
-3.459382957699999928e+00 -4.491396923589999801e+01 3.030225111738999999e+02 0.000000000000000000e+00 0.000000000000000000e+00 0.000000000000000000e+00
-5.151587854099999753e+00 -4.207335561400000046e+01 3.026754863103000162e+02 0.000000000000000000e+00 0.000000000000000000e+00 0.000000000000000000e+00
-3.557336943200000157e+00 -4.286516238950000002e+01 3.025554070168000180e+02 0.000000000000000000e+00 0.000000000000000000e+00 0.000000000000000000e+00
-3.454653129400000022e+00 -4.343782413179999935e+01 3.025639978757999984e+02 0.000000000000000000e+00 0.000000000000000000e+00 0.000000000000000000e+00
-3.465552210799999866e+00 -4.392849117299999762e+01 3.026124560179000014e+02 0.000000000000000000e+00 0.000000000000000000e+00 0.000000000000000000e+00
-3.520254085199999938e+00 -4.491388874969999989e+01 3.025943701781000073e+02 0.000000000000000000e+00 0.000000000000000000e+00 0.000000000000000000e+00
-3.527206208700000012e+00 -4.545490458380000121e+01 3.026570145463999779e+02 0.000000000000000000e+00 0.000000000000000000e+00 0.000000000000000000e+00
-3.965590053400000148e+00 -4.273268738090000340e+01 3.024605458655000234e+02 0.000000000000000000e+00 0.000000000000000000e+00 0.000000000000000000e+00
-3.573565292800000126e+00 -4.339978119220000252e+01 3.021117676060999884e+02 0.000000000000000000e+00 0.000000000000000000e+00 0.000000000000000000e+00
-3.527043381299999947e+00 -4.446271057949999772e+01 3.021024982409999780e+02 0.000000000000000000e+00 0.000000000000000000e+00 0.000000000000000000e+00
-3.566919311900000000e+00 -4.488350303949999898e+01 3.021295194744000128e+02 0.000000000000000000e+00 0.000000000000000000e+00 0.000000000000000000e+00
-5.532643393599999904e+00 -4.230548048139999651e+01 3.020165955851999797e+02 0.000000000000000000e+00 0.000000000000000000e+00 0.000000000000000000e+00
-5.253977681300000313e+00 -4.262306280450000173e+01 3.017417467235999879e+02 0.000000000000000000e+00 0.000000000000000000e+00 0.000000000000000000e+00
-5.052178180500000337e+00 -4.283241833280000321e+01 3.015860095548000004e+02 0.000000000000000000e+00 0.000000000000000000e+00 0.000000000000000000e+00
-4.605849841000000389e+00 -4.300278776020000038e+01 3.016492320001000280e+02 0.000000000000000000e+00 0.000000000000000000e+00 0.000000000000000000e+00
-4.166026465499999887e+00 -4.309501902230000070e+01 3.017711261506000255e+02 0.000000000000000000e+00 0.000000000000000000e+00 0.000000000000000000e+00
-3.538853785200000157e+00 -4.491913484679999868e+01 3.015944281580000279e+02 0.000000000000000000e+00 0.000000000000000000e+00 0.000000000000000000e+00
-3.543479018100000211e+00 -4.542017123880000184e+01 3.016526240110999879e+02 0.000000000000000000e+00 0.000000000000000000e+00 0.000000000000000000e+00
-3.549175128799999968e+00 -4.603950915739999772e+01 3.016511232885999902e+02 0.000000000000000000e+00 0.000000000000000000e+00 0.000000000000000000e+00
-3.414018505000000037e+00 -4.636232437400000350e+01 3.016310667629999784e+02 0.000000000000000000e+00 0.000000000000000000e+00 0.000000000000000000e+00
-5.769802468500000003e+00 -4.263571518940000260e+01 3.012881138609000118e+02 0.000000000000000000e+00 0.000000000000000000e+00 0.000000000000000000e+00
-5.552707611799999832e+00 -4.288362165320000230e+01 3.010990687254999898e+02 0.000000000000000000e+00 0.000000000000000000e+00 0.000000000000000000e+00
-5.127831643000000383e+00 -4.304633112249999982e+01 3.012035834746999967e+02 0.000000000000000000e+00 0.000000000000000000e+00 0.000000000000000000e+00
-4.096214578199999679e+00 -4.352525205130000074e+01 3.011636480757999834e+02 0.000000000000000000e+00 0.000000000000000000e+00 0.000000000000000000e+00
-3.770567436499999925e+00 -4.360170153480000010e+01 3.013051598512000169e+02 0.000000000000000000e+00 0.000000000000000000e+00 0.000000000000000000e+00
-3.499812006400000008e+00 -4.446432978810000236e+01 3.011025916319999851e+02 0.000000000000000000e+00 0.000000000000000000e+00 0.000000000000000000e+00
-3.559335975899999838e+00 -4.541938785930000222e+01 3.011869963620999897e+02 0.000000000000000000e+00 0.000000000000000000e+00 0.000000000000000000e+00
-3.575539413700000058e+00 -4.599569114149999649e+01 3.011004072430999940e+02 0.000000000000000000e+00 0.000000000000000000e+00 0.000000000000000000e+00
-3.446465855400000056e+00 -4.652595360929999657e+01 3.011591769181999894e+02 0.000000000000000000e+00 0.000000000000000000e+00 0.000000000000000000e+00
-3.222118754699999865e+00 -4.661384156279999758e+01 3.013282829857000138e+02 0.000000000000000000e+00 0.000000000000000000e+00 0.000000000000000000e+00
-5.506232076499999906e+00 -4.326821917699999887e+01 3.005269703789999767e+02 0.000000000000000000e+00 0.000000000000000000e+00 0.000000000000000000e+00
-4.634726181599999606e+00 -4.358538787220000188e+01 3.007141607043000135e+02 0.000000000000000000e+00 0.000000000000000000e+00 0.000000000000000000e+00
-4.071293348000000201e+00 -4.386065149529999729e+01 3.006479185241000209e+02 0.000000000000000000e+00 0.000000000000000000e+00 0.000000000000000000e+00
-3.739897755499999921e+00 -4.406454627349999953e+01 3.006573883830999989e+02 0.000000000000000000e+00 0.000000000000000000e+00 0.000000000000000000e+00
-3.586712596299999944e+00 -4.442445274509999820e+01 3.006224556171000017e+02 0.000000000000000000e+00 0.000000000000000000e+00 0.000000000000000000e+00
-3.480646938800000090e+00 -4.489203710249999801e+01 3.005791558184999985e+02 0.000000000000000000e+00 0.000000000000000000e+00 0.000000000000000000e+00
-3.568018896899999959e+00 -4.595706177849999818e+01 3.006835740569999871e+02 0.000000000000000000e+00 0.000000000000000000e+00 0.000000000000000000e+00
-3.552325188499999786e+00 -5.407035698389999823e+01 2.846007055227000251e+02 0.000000000000000000e+00 0.000000000000000000e+00 0.000000000000000000e+00
-5.035222428400000005e+00 -4.381550735319999745e+01 3.000543728151000096e+02 0.000000000000000000e+00 0.000000000000000000e+00 0.000000000000000000e+00
-4.586757751100000391e+00 -4.396510253739999996e+01 3.001417155385000228e+02 0.000000000000000000e+00 0.000000000000000000e+00 0.000000000000000000e+00
-4.139497436700000144e+00 -4.407225629719999915e+01 3.002207016835000104e+02 0.000000000000000000e+00 0.000000000000000000e+00 0.000000000000000000e+00
-3.556696004500000008e+00 -4.489463329280000181e+01 3.001941063941000039e+02 0.000000000000000000e+00 0.000000000000000000e+00 0.000000000000000000e+00
-3.557915786600000185e+00 -4.608474218309999770e+01 3.001511595964000207e+02 0.000000000000000000e+00 0.000000000000000000e+00 0.000000000000000000e+00
-3.448582698600000107e+00 -4.698058084619999875e+01 3.001729810708999935e+02 0.000000000000000000e+00 0.000000000000000000e+00 0.000000000000000000e+00
-3.382157976999999871e+00 -4.979264689770000274e+01 2.945538481501999968e+02 0.000000000000000000e+00 0.000000000000000000e+00 0.000000000000000000e+00
-5.395979118999999713e+00 -4.371520644779999998e+01 2.999207869787999812e+02 0.000000000000000000e+00 0.000000000000000000e+00 0.000000000000000000e+00
-5.538806154000000426e+00 -4.382890189870000341e+01 2.996025984309000023e+02 0.000000000000000000e+00 0.000000000000000000e+00 0.000000000000000000e+00
-5.109125703800000196e+00 -4.402500986340000111e+01 2.996513446669000018e+02 0.000000000000000000e+00 0.000000000000000000e+00 0.000000000000000000e+00
-4.681718889799999950e+00 -4.411726697929999830e+01 2.997884830753000074e+02 0.000000000000000000e+00 0.000000000000000000e+00 0.000000000000000000e+00
-3.648318990099999937e+00 -4.483799589350000048e+01 2.996418519265999976e+02 0.000000000000000000e+00 0.000000000000000000e+00 0.000000000000000000e+00
-3.542823133400000213e+00 -4.546146985360000059e+01 2.996473864545000083e+02 0.000000000000000000e+00 0.000000000000000000e+00 0.000000000000000000e+00
-3.574673878800000093e+00 -4.612415760940000098e+01 2.996511195795000049e+02 0.000000000000000000e+00 0.000000000000000000e+00 0.000000000000000000e+00
-3.562532479700000199e+00 -4.650727808250000095e+01 2.996537339747999908e+02 0.000000000000000000e+00 0.000000000000000000e+00 0.000000000000000000e+00
